# .PCD v0.7 - Point Cloud Data file format
VERSION 0.7
FIELDS x y z rgb
SIZE 4 4 4 4
TYPE F F F U
COUNT 1 1 1 1
WIDTH 1094
HEIGHT 1
VIEWPOINT 0 0 0 1 0 0 0
POINTS 1094
DATA ascii
-0.21771921 0.034348309 -1.4275142 16711680
-0.23309448 0.056241039 -1.4175296 16711680
-0.23371673 0.0591271 -1.4150697 16711680
-0.23550928 0.061901942 -1.4113454 16711680
-0.2359941 0.064397506 -1.4086959 16711680
-0.21546228 0.027095713 -1.4261431 16711680
-0.21858093 0.029382076 -1.426543 16711680
-0.22147378 0.033181868 -1.426942 16711680
-0.2250405 0.036482837 -1.4263922 16711680
-0.22788297 0.039384212 -1.4253947 16711680
-0.23244028 0.045874119 -1.4224285 16711680
-0.23400792 0.049182713 -1.420584 16711680
-0.23541488 0.053021248 -1.417897 16711680
-0.23720527 0.055840764 -1.414475 16711680
-0.23782589 0.058341201 -1.4117799 16711680
-0.22237664 0.028030695 -1.4256506 16711680
-0.22544566 0.030708365 -1.4256837 16711680
-0.22834201 0.034649722 -1.4253328 16711680
-0.23112638 0.038706131 -1.4242319 16711680
-0.23387963 0.042620163 -1.4224468 16711680
-0.23646779 0.046203084 -1.4200686 16711680
-0.23862994 0.04945394 -1.4171623 16711680
-0.23959446 0.052415051 -1.4145138 16711680
-0.22902754 0.030136123 -1.4243337 16711680
-0.23127094 0.032539412 -1.423812 16711680
-0.23408407 0.036037862 -1.4226842 16711680
-0.23670046 0.039743707 -1.4209937 16711680
-0.23886856 0.043335713 -1.4188895 16711680
-0.24010912 0.045957204 -1.417134 16711680
-0.15906128 0.072439104 -1.3993803 16711680
-0.16127388 0.076145828 -1.3983415 16711680
-0.1639438 0.079938777 -1.3966202 16711680
-0.16629252 0.082755864 -1.3948137 16711680
-0.15616645 0.059727091 -1.4049416 16711680
-0.15717313 0.063399985 -1.4051787 16711680
-0.15831044 0.067730278 -1.4039571 16711680
-0.16001731 0.072161049 -1.4022936 16711680
-0.16248456 0.076418996 -1.4008977 16711680
-0.16518942 0.080253273 -1.3991653 16711680
-0.16825388 0.083853498 -1.3969448 16711680
-0.17180093 0.086887054 -1.3951898 16711680
-0.17527692 0.089214139 -1.3932859 16711680
-0.1778252 0.090545528 -1.3908761 16711680
-0.15742573 0.053566948 -1.4081393 16711680
-0.15779814 0.057610411 -1.4081413 16711680
-0.15839604 0.061766803 -1.4078648 16711680
-0.15952937 0.066091441 -1.4073217 16711680
-0.17483294 0.08790154 -1.3973752 16711680
-0.17809315 0.089884929 -1.3950306 16711680
-0.18159999 0.091330625 -1.3927085 16711680
-0.1847285 0.092285007 -1.3907982 16711680
-0.159073 0.047290087 -1.410892 16711680
-0.15930218 0.051237345 -1.4109573 16711680
-0.15968293 0.055299997 -1.4110329 16711680
-0.18546467 0.091675915 -1.3945781 16711680
-0.18823779 0.092630118 -1.3921056 16711680
-0.19165292 0.093518183 -1.3897811 16711680
-0.16117291 0.045640897 -1.413236 16711680
-0.1613954 0.049079489 -1.4137154 16711680
-0.19222367 0.092780627 -1.3938427 16711680
-0.19471239 0.093319118 -1.3914589 16711680
-0.16445433 0.042890828 -1.4154907 16711680
-0.16383824 0.046758257 -1.4162202 16711680
-0.19594315 0.092515722 -1.3953695 16711680
-0.19920582 0.092296019 -1.3929306 16711680
-0.16818556 0.039653622 -1.416828 16711680
-0.20394389 0.090500966 -1.3936533 16711680
-0.17212026 0.0369788 -1.4182097 16711680
-0.20833768 0.0884469 -1.3947387 16711680
-0.17620049 0.03449738 -1.4195476 16711680
-0.21262981 0.086207747 -1.3959807 16711680
-0.18044883 0.032056846 -1.4207156 16711680
-0.21686563 0.083746485 -1.3971239 16711680
-0.1847851 0.029640885 -1.4215901 16711680
-0.22097878 0.081069164 -1.3981336 16711680
-0.18922623 0.027565336 -1.4224459 16711680
-0.22487685 0.078217939 -1.3993474 16711680
-0.19392289 0.025783284 -1.4232994 16711680
-0.22861299 0.075121775 -1.4008521 16711680
-0.19858208 0.024068423 -1.4237486 16711680
-0.20051116 0.025504876 -1.4256091 16711680
-0.23249675 0.070942722 -1.4048868 16711680
-0.23217215 0.071792774 -1.4020057 16711680
-0.20239298 0.022213679 -1.4234031 16711680
-0.20460886 0.023686195 -1.4250528 16711680
-0.23551643 0.067585707 -1.4049648 16711680
-0.23517217 0.068782948 -1.4021487 16711680
-0.20912299 0.022384599 -1.4245828 16711680
-0.21207757 0.024927307 -1.4257061 16711680
-0.23784886 0.061685942 -1.4088796 16711680
-0.23828624 0.063821398 -1.4056932 16711680
-0.21284387 0.020950895 -1.4237881 16711680
-0.2159989 0.023431104 -1.4245777 16711680
-0.21911238 0.025877776 -1.4252828 16711680
-0.23989612 0.055249088 -1.4118587 16711680
-0.24033178 0.057936311 -1.408803 16711680
-0.24072376 0.060572997 -1.4057357 16711680
-0.2197476 0.02230975 -1.4232627 16711680
-0.2229943 0.02475117 -1.4239515 16711680
-0.22638205 0.027609967 -1.4244344 16711680
-0.24107851 0.048416704 -1.4150109 16711680
-0.24188089 0.051665381 -1.4116923 16711680
-0.24229757 0.054369062 -1.4086347 16711680
-0.22625147 0.023925692 -1.4225141 16711680
-0.22942623 0.0266694 -1.422621 16711680
-0.23290922 0.029768078 -1.4219066 16711680
-0.23621136 0.033432513 -1.4206171 16711680
-0.2390019 0.037444126 -1.4188105 16711680
-0.24114937 0.041394595 -1.4165593 16711680
-0.24250993 0.045261793 -1.4141356 16711680
-0.24341099 0.048292201 -1.4113859 16711680
-0.23535368 0.028670242 -1.4195883 16711680
-0.23770013 0.031978473 -1.4187589 16711680
-0.24012589 0.035395049 -1.4171777 16711680
-0.24220154 0.038425356 -1.4151464 16711680
-0.15624467 0.067401089 -1.397597 16711680
-0.15796314 0.071305297 -1.3967954 16711680
-0.16018161 0.075326934 -1.39502 16711680
-0.16289049 0.079177767 -1.3933089 16711680
-0.16598624 0.082701571 -1.3915931 16711680
-0.16879256 0.085227624 -1.3894513 16711680
-0.15499002 0.057900239 -1.4021966 16711680
-0.15533926 0.061969008 -1.4012294 16711680
-0.15625194 0.06633091 -1.3999496 16711680
-0.15792857 0.070282176 -1.3997966 16711680
-0.16796233 0.084522337 -1.3933384 16711680
-0.1704631 0.086589888 -1.3906572 16711680
-0.17430311 0.088878877 -1.3889251 16711680
-0.1778529 0.090377167 -1.3873782 16711680
-0.15601847 0.051841617 -1.4052976 16711680
-0.15570354 0.055691786 -1.4045144 16711680
-0.18094294 0.091445431 -1.3883244 16711680
-0.18439151 0.092228368 -1.3868246 16711680
-0.15764454 0.04592146 -1.4079143 16711680
-0.1572022 0.049310476 -1.4076452 16711680
-0.18792138 0.09296672 -1.3876618 16711680
-0.19104233 0.093334019 -1.3862457 16711680
-0.15998417 0.043018091 -1.4100381 16711680
-0.19520062 0.09302035 -1.3871382 16711680
-0.16348873 0.039519295 -1.4114615 16711680
-0.20008567 0.091523483 -1.3877634 16711680
-0.16750951 0.035201296 -1.4117005 16711680
-0.16712296 0.037043523 -1.4132158 16711680
-0.20433806 0.0898785 -1.3891249 16711680
-0.20540528 0.089086205 -1.3871205 16711680
-0.17137384 0.033019084 -1.4135979 16711680
-0.17125344 0.034659531 -1.4151738 16711680
-0.20874541 0.08794187 -1.3908787 16711680
-0.20956175 0.087281257 -1.3888437 16711680
-0.17536725 0.030580694 -1.4149618 16711680
-0.17536661 0.032396488 -1.4168262 16711680
-0.21284275 0.085884482 -1.3923744 16711680
-0.21376866 0.085134014 -1.3900827 16711680
-0.17947248 0.028270068 -1.4162178 16711680
-0.17986953 0.029847424 -1.418165 16711680
-0.21747199 0.083253488 -1.3938211 16711680
-0.21782249 0.082839698 -1.3912709 16711680
-0.18358916 0.025759451 -1.4169285 16711680
-0.1841505 0.027248211 -1.4188789 16711680
-0.22165322 0.080568992 -1.3945717 16711680
-0.22192246 0.080241792 -1.3920962 16711680
-0.18783914 0.023379337 -1.4175413 16711680
-0.18877755 0.024597388 -1.4193922 16711680
-0.22596826 0.07748796 -1.3953624 16711680
-0.22596744 0.077427149 -1.3929363 16711680
-0.19114308 0.021367667 -1.4175693 16711680
-0.19306463 0.022328351 -1.4196333 16711680
-0.2297411 0.074459866 -1.3958652 16711680
-0.22927314 0.074844956 -1.3929371 16711680
-0.19769751 0.020667313 -1.420184 16711680
-0.23328376 0.071196198 -1.3971202 16711680
-0.20264953 0.019304287 -1.4206324 16711680
-0.20508115 0.020627262 -1.4227518 16711680
-0.23762888 0.06618084 -1.4018041 16711680
-0.23664762 0.067576796 -1.3987424 16711680
-0.20638013 0.017939892 -1.4202731 16711680
-0.20879465 0.018675968 -1.4216301 16711680
-0.24011208 0.063148737 -1.4013454 16711680
-0.23919114 0.064555496 -1.3990028 16711680
-0.21351577 0.018082682 -1.4213206 16711680
-0.21669787 0.019700531 -1.4221898 16711680
-0.24275884 0.056862023 -1.4052278 16711680
-0.24245164 0.05919379 -1.4025755 16711680
-0.21681221 0.017359771 -1.4198627 16711680
-0.22012299 0.019355625 -1.4207305 16711680
-0.22349198 0.020994611 -1.4212373 16711680
-0.24420303 0.050418317 -1.4077722 16711680
-0.24396414 0.053148557 -1.4052815 16711680
-0.24387908 0.055807732 -1.4023404 16711680
-0.2237068 0.018532854 -1.4187185 16711680
-0.22672947 0.020849867 -1.4197981 16711680
-0.23074277 0.02321277 -1.4195995 16711680
-0.23376529 0.026597675 -1.4197837 16711680
-0.24332663 0.040172625 -1.4135724 16711680
-0.24477898 0.043201208 -1.4104922 16711680
-0.24508835 0.047054093 -1.4079264 16711680
-0.24537393 0.049281038 -1.4046639 16711680
-0.23307768 0.0230604 -1.4177752 16711680
-0.23578092 0.026179628 -1.4175587 16711680
-0.23881367 0.029800797 -1.4163983 16711680
-0.24150924 0.033619493 -1.4146435 16711680
-0.24365099 0.037458479 -1.4124851 16711680
-0.24518552 0.040257365 -1.4099283 16711680
-0.15461892 0.062512115 -1.3946685 16711680
-0.15537369 0.065307014 -1.3940912 16711680
-0.15704188 0.069530085 -1.3921125 16711680
-0.15936136 0.073758453 -1.3902097 16711680
-0.1620539 0.077584274 -1.388464 16711680
-0.1652858 0.081238724 -1.386748 16711680
-0.16881375 0.08442203 -1.3854059 16711680
-0.17103112 0.085850045 -1.384045 16711680
-0.15415946 0.05572661 -1.3984115 16711680
-0.15428621 0.060189299 -1.3964119 16711680
-0.15492964 0.063722745 -1.396709 16711680
-0.17095225 0.086479686 -1.3863198 16711680
-0.1734664 0.087477729 -1.3840452 16711680
-0.17773998 0.089406013 -1.3831742 16711680
-0.15493178 0.049696617 -1.4010944 16711680
-0.15447021 0.053234752 -1.4002703 16711680
-0.1806411 0.090525091 -1.3831573 16711680
-0.1841888 0.091281742 -1.3821828 16711680
-0.15657839 0.043984592 -1.4036944 16711680
-0.15570423 0.046906162 -1.4032205 16711680
-0.18762247 0.092250831 -1.3825454 16711680
-0.19058818 0.092326745 -1.3817626 16711680
-0.15935673 0.040193435 -1.4056535 16711680
-0.195732 0.091696993 -1.3822281 16711680
-0.16370055 0.035679199 -1.4069588 16711680
-0.16254461 0.037322529 -1.4074095 16711680
-0.20003711 0.090489626 -1.3831487 16711680
-0.20174365 0.089583896 -1.3824335 16711680
-0.1668701 0.033402868 -1.4085853 16711680
-0.16515645 0.036318511 -1.4100674 16711680
-0.20544532 0.088265412 -1.3835866 16711680
-0.17069092 0.030884577 -1.410253 16711680
-0.20980608 0.086402982 -1.3848895 16711680
-0.17484066 0.027841138 -1.4111128 16711680
-0.21429466 0.084044278 -1.3855826 16711680
-0.17888774 0.025317641 -1.4120996 16711680
-0.21849674 0.081616759 -1.3864199 16711680
-0.1832386 0.023204083 -1.4135469 16711680
-0.22261757 0.079161294 -1.3880283 16711680
-0.18763208 0.021147855 -1.4146471 16711680
-0.22663973 0.076422356 -1.3894118 16711680
-0.19195177 0.019134641 -1.4151182 16711680
-0.19378081 0.019447014 -1.4169122 16711680
-0.23139986 0.072906159 -1.3925153 16711680
-0.23021492 0.073511198 -1.3903059 16711680
-0.19462998 0.017680064 -1.414727 16711680
-0.19723117 0.017586648 -1.4161326 16711680
-0.23408134 0.069957018 -1.3921895 16711680
-0.23237574 0.071375512 -1.3902858 16711680
-0.20228264 0.016418274 -1.4166758 16711680
-0.23738152 0.066270567 -1.393924 16711680
-0.20676199 0.015690297 -1.4170535 16711680
-0.20930554 0.015358761 -1.4171493 16711680
-0.24137709 0.060896829 -1.3963645 16711680
-0.24000859 0.062872633 -1.3954782 16711680
-0.21338847 0.015246201 -1.4172063 16711680
-0.24318647 0.057597365 -1.3978844 16711680
-0.21684235 0.015653018 -1.4170161 16711680
-0.2202317 0.016370613 -1.4168013 16711680
-0.24495687 0.051575862 -1.4007847 16711680
-0.2442262 0.054567061 -1.399291 16711680
-0.22378197 0.016576886 -1.4159263 16711680
-0.22741227 0.017905049 -1.4161367 16711680
-0.23070796 0.019930091 -1.4166508 16711680
-0.24635358 0.042144049 -1.4065404 16711680
-0.24645515 0.044972651 -1.4038105 16711680
-0.24597301 0.047990285 -1.4015396 16711680
-0.23062158 0.018199272 -1.4146364 16711680
-0.23314948 0.020203311 -1.4149033 16711680
-0.23704113 0.023178838 -1.4137088 16711680
-0.24038419 0.026749287 -1.4121641 16711680
-0.2430786 0.030584583 -1.4104228 16711680
-0.24521716 0.034800254 -1.4084107 16711680
-0.24649325 0.039191805 -1.4062703 16711680
-0.24699061 0.041474592 -1.4040327 16711680
-0.15463501 0.060926266 -1.3912116 16711680
-0.15540016 0.063203104 -1.3894675 16711680
-0.15706383 0.067453414 -1.3874729 16711680
-0.15933636 0.071691267 -1.3856514 16711680
-0.16203159 0.075514853 -1.3838949 16711680
-0.16526535 0.079117343 -1.3821684 16711680
-0.16883546 0.082298495 -1.380766 16711680
-0.17105272 0.084501132 -1.3809724 16711680
-0.15418646 0.05374784 -1.3938109 16711680
-0.15432069 0.058107525 -1.3918669 16711680
-0.1549885 0.06022599 -1.3890169 16711680
-0.17096263 0.082897492 -1.3786364 16711680
-0.17352051 0.085326113 -1.3793584 16711680
-0.17781246 0.087336794 -1.3786041 16711680
-0.15494233 0.047535393 -1.3967355 16711680
-0.15447785 0.050698303 -1.3945584 16711680
-0.18064874 0.088035807 -1.3777006 16711680
-0.18432269 0.089298353 -1.3776928 16711680
-0.15651064 0.042024851 -1.3993179 16711680
-0.15556031 0.04445377 -1.3976606 16711680
-0.1877394 0.089855656 -1.3769317 16711680
-0.19048379 0.090300441 -1.377202 16711680
-0.15939568 0.037920021 -1.4009323 16711680
-0.19572659 0.089545518 -1.3773975 16711680
-0.16349185 0.034010928 -1.4031703 16711680
-0.16217451 0.03503257 -1.4020234 16711680
-0.19964582 0.088338494 -1.3777006 16711680
-0.20151733 0.088035405 -1.3785322 16711680
-0.1667015 0.031261485 -1.4042032 16711680
-0.20551187 0.086417362 -1.3790448 16711680
-0.17055008 0.028376028 -1.4055367 16711680
-0.2100095 0.084462598 -1.3799732 16711680
-0.17461947 0.025768971 -1.4070547 16711680
-0.21445397 0.082351983 -1.3812492 16711680
-0.1787836 0.023207424 -1.4079239 16711680
-0.21867883 0.079809137 -1.3821278 16711680
-0.1831435 0.020988898 -1.4089701 16711680
-0.22268161 0.077171475 -1.3833413 16711680
-0.18769382 0.01897319 -1.409808 16711680
-0.19013754 0.017844606 -1.4078455 16711680
-0.22790778 0.071260609 -1.3835322 16711680
-0.22662252 0.074205704 -1.3846796 16711680
-0.19177383 0.017661545 -1.4113289 16711680
-0.19343393 0.016983617 -1.4098142 16711680
-0.23065148 0.069764942 -1.3857179 16711680
-0.22993523 0.071890578 -1.3866079 16711680
-0.19758359 0.016017977 -1.4110062 16711680
-0.23360376 0.067226104 -1.3876826 16711680
-0.20255618 0.014982529 -1.4117923 16711680
-0.2054577 0.014389135 -1.4095221 16711680
-0.23775595 0.060152374 -1.3887085 16711680
-0.23677704 0.063730471 -1.3895267 16711680
-0.20650983 0.014387745 -1.4129366 16711680
-0.20877559 0.01395639 -1.4116113 16711680
-0.24022782 0.058640748 -1.3912575 16711680
-0.23940493 0.061139997 -1.3916054 16711680
-0.21346009 0.01384512 -1.4124627 16711680
-0.21668771 0.014144491 -1.4110174 16711680
-0.24313955 0.051727623 -1.393842 16711680
-0.242594 0.055233095 -1.3935922 16711680
-0.21681589 0.014543161 -1.413949 16711680
-0.22018808 0.014606208 -1.4119409 16711680
-0.2445851 0.049308158 -1.3961673 16711680
-0.2439684 0.053083319 -1.3963039 16711680
-0.22401339 0.014961671 -1.4124399 16711680
-0.22729646 0.015276778 -1.4117002 16711680
-0.2469296 0.043113332 -1.3990577 16711680
-0.24606019 0.046360634 -1.3981017 16711680
-0.23069449 0.015925027 -1.4111152 16711680
-0.23395714 0.017532717 -1.4107764 16711680
-0.23811294 0.020416096 -1.4095112 16711680
-0.24128169 0.024365103 -1.4086953 16711680
-0.2441411 0.028425515 -1.4068348 16711680
-0.2463719 0.032177329 -1.4041696 16711680
-0.24748176 0.036698185 -1.4020385 16711680
-0.24756473 0.039997175 -1.4001993 16711680
-0.23994318 0.020699974 -1.4071963 16711680
-0.24187788 0.023467824 -1.4068077 16711680
-0.24440196 0.02704758 -1.4051657 16711680
-0.24602118 0.029335715 -1.4032594 16711680
-0.156286 0.061919261 -1.38554 16711680
-0.1579075 0.065056689 -1.3831608 16711680
-0.16002849 0.069029108 -1.381304 16711680
-0.16287994 0.073085338 -1.3794588 16711680
-0.16598623 0.076533042 -1.3779275 16711680
-0.16879156 0.079685465 -1.3774341 16711680
-0.1550668 0.052156076 -1.3896958 16711680
-0.15534833 0.055637389 -1.3874564 16711680
-0.15623395 0.059494708 -1.3849705 16711680
-0.15769911 0.061666176 -1.3820525 16711680
-0.1683287 0.076772444 -1.3752049 16711680
-0.17063878 0.079954103 -1.375706 16711680
-0.17429252 0.082545809 -1.3751421 16711680
-0.17791195 0.084644124 -1.3749186 16711680
-0.15589151 0.045959141 -1.3923939 16711680
-0.15562522 0.04911628 -1.3899925 16711680
-0.18076171 0.084848046 -1.3737018 16711680
-0.18439129 0.086460203 -1.3739218 16711680
-0.15754123 0.040046036 -1.3951268 16711680
-0.15684277 0.04249192 -1.3930236 16711680
-0.18787855 0.086567275 -1.3728517 16711680
-0.19095135 0.087574117 -1.3734205 16711680
-0.16004226 0.03669421 -1.3961169 16711680
-0.19524302 0.086609989 -1.3733248 16711680
-0.16462982 0.032215275 -1.4003838 16711680
-0.16347069 0.033212654 -1.3976588 16711680
-0.19995517 0.085296184 -1.373924 16711680
-0.20240697 0.085943162 -1.3759173 16711680
-0.16740997 0.029853124 -1.4004563 16711680
-0.16704492 0.030116221 -1.3980764 16711680
-0.20433575 0.082962483 -1.3738743 16711680
-0.20556712 0.08406613 -1.3757293 16711680
-0.17109792 0.027095892 -1.401045 16711680
-0.17111741 0.02709616 -1.3985476 16711680
-0.20865965 0.080467895 -1.3742026 16711680
-0.20959871 0.081823371 -1.376088 16711680
-0.17511074 0.024489336 -1.4019685 16711680
-0.17570257 0.024235485 -1.3994879 16711680
-0.21335874 0.077644393 -1.3751248 16711680
-0.21389893 0.079372376 -1.3769188 16711680
-0.1792911 0.022172576 -1.4032583 16711680
-0.1803309 0.021794509 -1.4010338 16711680
-0.21787293 0.075088494 -1.3767288 16711680
-0.2179482 0.077084526 -1.3782141 16711680
-0.18350105 0.020233665 -1.4049464 16711680
-0.18478021 0.019957218 -1.4025742 16711680
-0.22177698 0.072651342 -1.3785896 16711680
-0.22192466 0.074861512 -1.3800261 16711680
-0.18767628 0.018640023 -1.4066843 16711680
-0.18922959 0.018536154 -1.4041414 16711680
-0.22548291 0.069947928 -1.380706 16711680
-0.22537675 0.072761029 -1.3818786 16711680
-0.19394737 0.017374918 -1.4051797 16711680
-0.19666062 0.017521754 -1.4026021 16711680
-0.22881283 0.063183837 -1.3817757 16711680
-0.22874956 0.066954225 -1.3826374 16711680
-0.19846603 0.016170762 -1.4066437 16711680
-0.20029967 0.016440321 -1.403897 16711680
-0.23162997 0.061164867 -1.3835009 16711680
-0.23213595 0.06412825 -1.3847337 16711680
-0.20243549 0.015125107 -1.4080008 16711680
-0.20470668 0.01508246 -1.4057152 16711680
-0.23534836 0.058732059 -1.3858669 16711680
-0.23524806 0.061831392 -1.3867924 16711680
-0.2093417 0.014048763 -1.4067949 16711680
-0.21241243 0.014157623 -1.4044653 16711680
-0.23868811 0.051934566 -1.3871552 16711680
-0.23852611 0.055644315 -1.3878442 16711680
-0.21321988 0.013567515 -1.4082873 16711680
-0.2160812 0.014047433 -1.4063721 16711680
-0.24118838 0.049820371 -1.3900449 16711680
-0.24115324 0.05324769 -1.3902053 16711680
-0.22057149 0.013900079 -1.4071509 16711680
-0.22323045 0.013469968 -1.4056261 16711680
-0.24442516 0.043567587 -1.3919209 16711680
-0.2435374 0.046495851 -1.3923022 16711680
-0.22378384 0.013887122 -1.4086617 16711680
-0.22706746 0.01365412 -1.4069414 16711680
-0.24637602 0.041067287 -1.3944643 16711680
-0.24546862 0.044682819 -1.3946912 16711680
-0.23083086 0.014155027 -1.4071728 16711680
-0.23441532 0.015175845 -1.406252 16711680
-0.23802222 0.017416537 -1.4057654 16711680
-0.24739182 0.030731257 -1.3996962 16711680
-0.24791829 0.034369159 -1.3974983 16711680
-0.24760832 0.038012136 -1.3963065 16711680
-0.23959157 0.018332586 -1.4046638 16711680
-0.24233489 0.021253416 -1.4034251 16711680
-0.24514259 0.025243077 -1.401605 16711680
-0.24687535 0.028687853 -1.399955 16711680
-0.15896691 0.06360583 -1.3803309 16711680
-0.16117866 0.067174777 -1.3781813 16711680
-0.16373214 0.070730783 -1.376487 16711680
-0.16654815 0.074387103 -1.37542 16711680
-0.15618247 0.051269047 -1.3865337 16711680
-0.15702945 0.053685002 -1.3835738 16711680
-0.15804394 0.057420164 -1.3810669 16711680
-0.15959504 0.061518475 -1.3787576 16711680
-0.16211225 0.065351218 -1.3760822 16711680
-0.16481724 0.069198675 -1.3743302 16711680
-0.16787764 0.073368609 -1.373397 16711680
-0.17156966 0.076664262 -1.3723297 16711680
-0.17519137 0.07948748 -1.3718319 16711680
-0.17790809 0.082097426 -1.3723969 16711680
-0.15721428 0.044740789 -1.3891239 16711680
-0.15753312 0.047338445 -1.3860636 16711680
-0.15792178 0.050531734 -1.3830421 16711680
-0.17790054 0.079026796 -1.3701184 16711680
-0.18156524 0.081522062 -1.3705276 16711680
-0.18471491 0.083851412 -1.3713151 16711680
-0.15869819 0.039023314 -1.3921119 16711680
-0.15892735 0.041089095 -1.3888196 16711680
-0.15912993 0.043698248 -1.3857417 16711680
-0.18511662 0.080610476 -1.3688983 16711680
-0.18832725 0.082937345 -1.3697901 16711680
-0.19162492 0.084728628 -1.3706763 16711680
-0.16138123 0.035979196 -1.3919315 16711680
-0.16134396 0.037019923 -1.389128 16711680
-0.19286507 0.081775218 -1.3687385 16711680
-0.19476697 0.083414778 -1.3702941 16711680
-0.16485122 0.032727126 -1.3925968 16711680
-0.1642843 0.034097362 -1.3892862 16711680
-0.19657372 0.079933569 -1.3683972 16711680
-0.19909708 0.081486456 -1.3703519 16711680
-0.16851303 0.029638359 -1.3939987 16711680
-0.2037001 0.079700284 -1.3710978 16711680
-0.17249256 0.026827628 -1.3950841 16711680
-0.20811991 0.07760644 -1.3719949 16711680
-0.17669281 0.024329649 -1.3962753 16711680
-0.21243382 0.075135373 -1.3731176 16711680
-0.18116738 0.022256386 -1.3972872 16711680
-0.21642756 0.072369777 -1.3744826 16711680
-0.18563825 0.020678712 -1.3983899 16711680
-0.18773152 0.021149468 -1.39575 16711680
-0.21949901 0.066238977 -1.3751785 16711680
-0.22007644 0.069547959 -1.376196 16711680
-0.18991515 0.019354496 -1.4000784 16711680
-0.19221014 0.020333804 -1.3970146 16711680
-0.19558363 0.021585701 -1.3951699 16711680
-0.22217849 0.05940219 -1.3779145 16711680
-0.22250342 0.063430466 -1.3773702 16711680
-0.22351916 0.06710647 -1.3783082 16711680
-0.19362792 0.018339626 -1.4015212 16711680
-0.1964139 0.019110519 -1.3991294 16711680
-0.19885893 0.020721106 -1.3963187 16711680
-0.22470841 0.057459898 -1.3795621 16711680
-0.22613825 0.061285276 -1.3799418 16711680
-0.2264726 0.064937785 -1.3802598 16711680
-0.2009242 0.017579488 -1.4009407 16711680
-0.20314001 0.019224428 -1.3976362 16711680
-0.22829229 0.054915849 -1.3814075 16711680
-0.22988454 0.058779493 -1.3821408 16711680
-0.20559698 0.016042076 -1.4022505 16711680
-0.20746908 0.01728173 -1.3992677 16711680
-0.2323035 0.052419443 -1.3831866 16711680
-0.23362929 0.055858187 -1.3840789 16711680
-0.20904569 0.014865089 -1.4034431 16711680
-0.21196143 0.015540771 -1.4006951 16711680
-0.23610599 0.04989849 -1.3850205 16711680
-0.23665321 0.053536545 -1.3857266 16711680
-0.21655442 0.014400024 -1.4016792 16711680
-0.21831387 0.014091417 -1.399423 16711680
-0.23948382 0.044194397 -1.3856671 16711680
-0.23933539 0.046828847 -1.3868816 16711680
-0.22008516 0.013677362 -1.4032474 16711680
-0.22261469 0.013197694 -1.4014122 16711680
-0.24276 0.041876376 -1.3883005 16711680
-0.24202193 0.044863574 -1.3890218 16711680
-0.22751606 0.012720697 -1.4019905 16711680
-0.23027036 0.012294721 -1.4000633 16711680
-0.24636167 0.035129614 -1.3900825 16711680
-0.2454627 0.038258307 -1.3904154 16711680
-0.2307234 0.01286846 -1.403109 16711680
-0.23405555 0.01319775 -1.401633 16711680
-0.23766734 0.014667019 -1.4014487 16711680
-0.24789423 0.029188287 -1.3947921 16711680
-0.24766174 0.032553829 -1.3928018 16711680
-0.24709198 0.036124982 -1.3924835 16711680
-0.23969868 0.015887849 -1.4004565 16711680
-0.24289185 0.019018743 -1.3990706 16711680
-0.2455847 0.022842498 -1.3973249 16711680
-0.24737267 0.026856931 -1.395524 16711680
-0.15881519 0.052907288 -1.3802761 16711680
-0.15996951 0.055451527 -1.378019 16711680
-0.16181813 0.058879122 -1.3752806 16711680
-0.16397692 0.062692508 -1.3730766 16711680
-0.16667046 0.066513881 -1.3713285 16711680
-0.16977799 0.070150517 -1.3701172 16711680
-0.17290589 0.073727056 -1.3696234 16711680
-0.17530446 0.076376446 -1.3696045 16711680
-0.15963624 0.046181992 -1.3826886 16711680
-0.16029246 0.049192693 -1.3797922 16711680
-0.1612194 0.052642331 -1.3769442 16711680
-0.16284628 0.055931121 -1.3740815 16711680
-0.17216054 0.069178104 -1.3680477 16711680
-0.17529249 0.072613232 -1.3678252 16711680
-0.17881376 0.075528964 -1.3677964 16711680
-0.18190691 0.078328714 -1.3682851 16711680
-0.16091102 0.040412128 -1.3855999 16711680
-0.16149896 0.042869538 -1.3826066 16711680
-0.16229178 0.045479383 -1.379319 16711680
-0.18254936 0.074239865 -1.3661878 16711680
-0.18560837 0.077135123 -1.3669889 16711680
-0.18883669 0.079700522 -1.3676857 16711680
-0.16341066 0.036877431 -1.3857348 16711680
-0.16433348 0.039084986 -1.3823988 16711680
-0.18981838 0.075334258 -1.3658721 16711680
-0.19252588 0.078212127 -1.3668355 16711680
-0.16613765 0.03253945 -1.3895758 16711680
-0.16672374 0.033542424 -1.3863626 16711680
-0.16674982 0.036071375 -1.3828814 16711680
-0.19349371 0.074131541 -1.365532 16711680
-0.19695103 0.07632301 -1.366758 16711680
-0.19870892 0.078797698 -1.3684503 16711680
-0.16974114 0.029784046 -1.3903546 16711680
-0.17065616 0.030473208 -1.3871683 16711680
-0.20139222 0.07413587 -1.3672291 16711680
-0.2028133 0.076723918 -1.3689374 16711680
-0.17386176 0.027147979 -1.3910905 16711680
-0.17481239 0.027815368 -1.3881729 16711680
-0.2057164 0.071726441 -1.3681461 16711680
-0.20696585 0.074193627 -1.3696338 16711680
-0.17790693 0.024817917 -1.3925339 16711680
-0.17944339 0.025629576 -1.3892516 16711680
-0.20986618 0.068947926 -1.3695422 16711680
-0.21100011 0.072025888 -1.3709275 16711680
-0.18182175 0.023104729 -1.3936442 16711680
-0.18379478 0.023958949 -1.3908014 16711680
-0.18643185 0.025414234 -1.388204 16711680
-0.21255086 0.062564433 -1.371246 16711680
-0.21360774 0.066320956 -1.3714243 16711680
-0.21453814 0.069846638 -1.3723971 16711680
-0.1846965 0.021977246 -1.3946974 16711680
-0.18803957 0.022555357 -1.3928198 16711680
-0.190659 0.024442203 -1.3896003 16711680
-0.21566102 0.059992194 -1.3733826 16711680
-0.21734601 0.064212881 -1.3738222 16711680
-0.21715385 0.068095051 -1.3736913 16711680
-0.19212578 0.021861743 -1.3942463 16711680
-0.19510117 0.023225619 -1.391546 16711680
-0.19765565 0.024049446 -1.388912 16711680
-0.21856737 0.053871214 -1.3752288 16711680
-0.21930233 0.057597835 -1.3759073 16711680
-0.22031826 0.061778016 -1.3761472 16711680
-0.19956043 0.021905351 -1.3931832 16711680
-0.20152463 0.022853795 -1.3900968 16711680
-0.22171937 0.051542908 -1.3770069 16711680
-0.22282919 0.055117596 -1.3780951 16711680
-0.2039648 0.020215135 -1.3946314 16711680
-0.20575078 0.021043327 -1.3914998 16711680
-0.22552916 0.049052224 -1.3786854 16711680
-0.22662495 0.052256964 -1.3799001 16711680
-0.20853199 0.018121392 -1.3958904 16711680
-0.20997134 0.018755324 -1.3927706 16711680
-0.22964463 0.046727061 -1.3800185 16711680
-0.23073463 0.049689349 -1.3814861 16711680
-0.21277569 0.016197674 -1.3970525 16711680
-0.21418495 0.016363539 -1.3942508 16711680
-0.23393804 0.044513777 -1.3814647 16711680
-0.2348621 0.04703176 -1.3831053 16711680
-0.21851942 0.014386732 -1.3955715 16711680
-0.23791707 0.041900638 -1.383034 16711680
-0.22339417 0.012934864 -1.3962867 16711680
-0.22629218 0.012268558 -1.3941134 16711680
-0.24236836 0.035064813 -1.3837255 16711680
-0.24139874 0.038650833 -1.3846821 16711680
-0.22727689 0.012242697 -1.3974589 16711680
-0.22965294 0.011857409 -1.3963008 16711680
-0.24490842 0.03355277 -1.3863977 16711680
-0.24399501 0.036119528 -1.3865575 16711680
-0.23423216 0.011925183 -1.3970766 16711680
-0.23757899 0.012415364 -1.3959504 16711680
-0.24763858 0.026706228 -1.3894067 16711680
-0.24708 0.03012595 -1.3887535 16711680
-0.23983163 0.013855975 -1.3960612 16711680
-0.24312238 0.016801823 -1.3945912 16711680
-0.24582252 0.020641198 -1.3928454 16711680
-0.24743572 0.024658877 -1.3911222 16711680
-0.16404405 0.058216199 -1.3725014 16711680
-0.16589665 0.060926229 -1.3706745 16711680
-0.16804099 0.063982867 -1.3692886 16711680
-0.17000987 0.066690817 -1.3685622 16711680
-0.16269377 0.048026755 -1.3770434 16711680
-0.16368531 0.050920203 -1.3743709 16711680
-0.16527532 0.054585084 -1.3714538 16711680
-0.16719055 0.058517501 -1.3691427 16711680
-0.16998847 0.062490724 -1.3673313 16711680
-0.17332782 0.066187955 -1.3663049 16711680
-0.17675495 0.069512121 -1.3659042 16711680
-0.1796806 0.072239712 -1.3660004 16711680
-0.16409618 0.042175017 -1.3797703 16711680
-0.16475724 0.04489113 -1.376727 16711680
-0.1657054 0.047787376 -1.3734186 16711680
-0.16663554 0.050996948 -1.3706644 16711680
-0.1765653 0.065073967 -1.3642362 16711680
-0.17991504 0.067886353 -1.3642477 16711680
-0.18306862 0.071065217 -1.3649037 16711680
-0.18581071 0.073473126 -1.3654324 16711680
-0.16649073 0.039205149 -1.3801471 16711680
-0.16767299 0.041438226 -1.3765867 16711680
-0.16768152 0.04411073 -1.3735781 16711680
-0.18367828 0.067034572 -1.3631836 16711680
-0.18717115 0.069128156 -1.3640214 16711680
-0.18975751 0.072322004 -1.3650414 16711680
-0.16886149 0.033823323 -1.3835279 16711680
-0.16986509 0.03603613 -1.3805704 16711680
-0.17134093 0.037832171 -1.3771917 16711680
-0.19186346 0.066970654 -1.3639079 16711680
-0.19400606 0.07038641 -1.3649569 16711680
-0.19652988 0.073094405 -1.3656113 16711680
-0.17241004 0.031210253 -1.3842707 16711680
-0.17400995 0.033266202 -1.3809931 16711680
-0.1754574 0.034523647 -1.3782721 16711680
-0.19677553 0.064723626 -1.3645215 16711680
-0.19817005 0.06759569 -1.3653361 16711680
-0.20028098 0.071046963 -1.3660789 16711680
-0.1761927 0.028821379 -1.3854092 16711680
-0.17827699 0.030745689 -1.3820457 16711680
-0.17966405 0.031983972 -1.3793931 16711680
-0.20103955 0.062261477 -1.3655866 16711680
-0.20242116 0.065077089 -1.3663876 16711680
-0.20432343 0.068923175 -1.3670834 16711680
-0.1802783 0.026993256 -1.3865305 16711680
-0.18241458 0.02852981 -1.3837869 16711680
-0.18454763 0.029789634 -1.3808118 16711680
-0.20537759 0.059418477 -1.3673084 16711680
-0.20663956 0.062957853 -1.3680732 16711680
-0.20802343 0.066478662 -1.3685088 16711680
-0.18323135 0.026150284 -1.3872956 16711680
-0.1867061 0.026859462 -1.385517 16711680
-0.18907367 0.028263051 -1.3821443 16711680
-0.20903365 0.056652151 -1.3691996 16711680
-0.21044293 0.060669445 -1.3700854 16711680
-0.21034828 0.064581878 -1.3697958 16711680
-0.19110921 0.025691502 -1.3868567 16711680
-0.19350645 0.026885774 -1.3837985 16711680
-0.19638783 0.02770202 -1.3814064 16711680
-0.2122657 0.050326321 -1.3710874 16711680
-0.21268299 0.05407162 -1.3714024 16711680
-0.21365003 0.057922345 -1.3720639 16711680
-0.19444421 0.024893232 -1.3878589 16711680
-0.19777885 0.025555272 -1.3856348 16711680
-0.20021071 0.026818471 -1.3826175 16711680
-0.21506113 0.047842901 -1.3729832 16711680
-0.21627823 0.051845465 -1.3737 16711680
-0.21624559 0.055798687 -1.3737527 16711680
-0.20242582 0.024085931 -1.387261 16711680
-0.20461318 0.025673583 -1.3838838 16711680
-0.20713153 0.026805842 -1.3817703 16711680
-0.21767615 0.041820541 -1.3749498 16711680
-0.21841371 0.045204643 -1.3750241 16711680
-0.21993522 0.049145181 -1.3758264 16711680
-0.20712933 0.022179067 -1.3885206 16711680
-0.20900221 0.023742413 -1.3853538 16711680
-0.21076037 0.02549633 -1.3825767 16711680
-0.22052793 0.039443992 -1.3762069 16711680
-0.22229071 0.042736538 -1.3767065 16711680
-0.22403213 0.046191823 -1.3775699 16711680
-0.21137622 0.01970489 -1.3896632 16711680
-0.21307528 0.021185845 -1.3864464 16711680
-0.21447459 0.023120318 -1.3836188 16711680
-0.22445405 0.037339054 -1.3771333 16711680
-0.22653958 0.040293686 -1.3777 16711680
-0.22826585 0.043736871 -1.3787036 16711680
-0.2154835 0.017066032 -1.3906913 16711680
-0.21691845 0.018215019 -1.3874015 16711680
-0.21677169 0.021032255 -1.384402 16711680
-0.22741535 0.036233064 -1.3774724 16711680
-0.23098615 0.038196117 -1.3782898 16711680
-0.2325668 0.041359078 -1.3796232 16711680
-0.21969306 0.014711652 -1.3915014 16711680
-0.22084361 0.015222456 -1.3885008 16711680
-0.23552044 0.036064979 -1.3790023 16711680
-0.23656315 0.03871461 -1.3805494 16711680
-0.22333115 0.013090521 -1.3927234 16711680
-0.22518417 0.012733661 -1.3903526 16711680
-0.24003176 0.033963889 -1.3806928 16711680
-0.23990346 0.036648992 -1.3819857 16711680
-0.22985585 0.011432536 -1.3916126 16711680
-0.2435037 0.030970134 -1.3826135 16711680
-0.23418579 0.010894697 -1.3920813 16711680
-0.23727654 0.010944225 -1.3913503 16711680
-0.24694821 0.024810528 -1.3849498 16711680
-0.24601504 0.027699921 -1.3843969 16711680
-0.24011487 0.012179136 -1.3913522 16711680
-0.24324465 0.014868509 -1.3900326 16711680
-0.24576011 0.018443681 -1.3883998 16711680
-0.24716416 0.022194866 -1.3867818 16711680
-0.16763607 0.053226601 -1.3689175 16711680
-0.16947331 0.056324776 -1.3667682 16711680
-0.17191356 0.0597158 -1.3651799 16711680
-0.17420322 0.062647656 -1.3645422 16711680
-0.16816729 0.046777021 -1.3706243 16711680
-0.16902769 0.050002709 -1.3679038 16711680
-0.17089067 0.053823557 -1.3652203 16711680
-0.17387183 0.058144994 -1.363288 16711680
-0.17737183 0.061864905 -1.3625408 16711680
-0.18073511 0.064515114 -1.3625059 16711680
-0.16988724 0.041325331 -1.3737102 16711680
-0.17000368 0.043180302 -1.3706863 16711680
-0.17031628 0.045944892 -1.3673013 16711680
-0.18100289 0.061076593 -1.360361 16711680
-0.18442392 0.063619241 -1.3613148 16711680
-0.18701898 0.065637246 -1.3625692 16711680
-0.17297378 0.038152389 -1.3738254 16711680
-0.17234975 0.039669152 -1.3708123 16711680
-0.18839777 0.062380958 -1.360441 16711680
-0.1910941 0.063770279 -1.3621747 16711680
-0.17659773 0.034971263 -1.3753412 16711680
-0.19570686 0.062147129 -1.3629565 16711680
-0.18086863 0.032534212 -1.3764155 16711680
-0.19993651 0.059597891 -1.3640754 16711680
-0.18530287 0.030870741 -1.3773409 16711680
-0.18802577 0.030763425 -1.3747665 16711680
-0.20375843 0.053208672 -1.3646157 16711680
-0.20348662 0.056756034 -1.3655553 16711680
-0.18977673 0.029492429 -1.379006 16711680
-0.1916776 0.030065335 -1.3762586 16711680
-0.20643231 0.050950591 -1.3666878 16711680
-0.20709629 0.054282457 -1.3677423 16711680
-0.19333838 0.02845786 -1.3803558 16711680
-0.19628853 0.029199798 -1.3779876 16711680
-0.19937232 0.030435925 -1.3751825 16711680
-0.20883429 0.043966487 -1.3689126 16711680
-0.20972943 0.048287451 -1.3692905 16711680
-0.20999461 0.052123956 -1.3695663 16711680
-0.20059127 0.028307203 -1.3797799 16711680
-0.20319818 0.030111212 -1.3767135 16711680
-0.20666711 0.032592792 -1.3742614 16711680
-0.20985594 0.037139237 -1.3721867 16711680
-0.21137699 0.041743878 -1.371411 16711680
-0.21292196 0.045915205 -1.3717635 16711680
-0.20453069 0.027397312 -1.3811843 16711680
-0.20724674 0.028707918 -1.3793032 16711680
-0.2099584 0.031749904 -1.376359 16711680
-0.21277386 0.035640463 -1.3746092 16711680
-0.21530285 0.040062629 -1.3741813 16711680
-0.21588416 0.043519374 -1.3738486 16711680
-0.21199629 0.02702776 -1.3808291 16711680
-0.21416205 0.030026175 -1.3783377 16711680
-0.21665607 0.033565003 -1.3767251 16711680
-0.21915911 0.037204809 -1.3761868 16711680
-0.21624999 0.024185721 -1.3820775 16711680
-0.21870711 0.027227707 -1.3795571 16711680
-0.22131498 0.030941673 -1.3778634 16711680
-0.22375911 0.03485658 -1.3772101 16711680
-0.21930227 0.018634602 -1.3850112 16711680
-0.22011682 0.020991838 -1.3826421 16711680
-0.22263981 0.024260625 -1.3798794 16711680
-0.22552983 0.028392464 -1.3779994 16711680
-0.22826922 0.03255209 -1.3773843 16711680
-0.23054121 0.035089053 -1.3776171 16711680
-0.22230743 0.015897579 -1.3855892 16711680
-0.22412184 0.017862715 -1.3822851 16711680
-0.22620338 0.021646501 -1.3793986 16711680
-0.22902668 0.025697209 -1.3775719 16711680
-0.232355 0.029571241 -1.3769499 16711680
-0.23446155 0.033177488 -1.3777089 16711680
-0.22649767 0.01297465 -1.3857123 16711680
-0.22681385 0.014408682 -1.3826597 16711680
-0.2364793 0.028152283 -1.3763983 16711680
-0.23867768 0.030333964 -1.3778249 16711680
-0.23062633 0.01105357 -1.386749 16711680
-0.231968 0.010604247 -1.3846014 16711680
-0.24253553 0.025587223 -1.3777978 16711680
-0.24239235 0.027759731 -1.3791275 16711680
-0.2338821 0.010347996 -1.3880826 16711680
-0.23676969 0.010000419 -1.3865101 16711680
-0.24574357 0.022753378 -1.3807018 16711680
-0.24476521 0.025996696 -1.3809286 16711680
-0.24018453 0.010794073 -1.3868877 16711680
-0.24269253 0.012558881 -1.3853381 16711680
-0.24566257 0.016780544 -1.3834102 16711680
-0.24664733 0.019918963 -1.3827109 16711680
-0.17139903 0.048234686 -1.3648312 16711680
-0.17315342 0.051409304 -1.3623905 16711680
-0.17580512 0.055132177 -1.3606553 16711680
-0.1786076 0.058492471 -1.360163 16711680
-0.17192495 0.042044718 -1.3666439 16711680
-0.17209254 0.045466051 -1.3640077 16711680
-0.17387828 0.048919063 -1.3608452 16711680
-0.17756513 0.05416492 -1.3584541 16711680
-0.18087795 0.057938654 -1.3583018 16711680
-0.18461314 0.060110986 -1.3584287 16711680
-0.17481028 0.036481287 -1.3693212 16711680
-0.17344858 0.038369562 -1.3676746 16711680
-0.18870512 0.060035337 -1.3577901 16711680
-0.19121729 0.06017657 -1.3585112 16711680
-0.17728822 0.034118772 -1.3699318 16711680
-0.19462937 0.0587999 -1.3585882 16711680
-0.18174946 0.031758144 -1.3711244 16711680
-0.19895321 0.056155644 -1.3599734 16711680
-0.18497635 0.031029426 -1.372175 16711680
-0.18737441 0.030519987 -1.3714981 16711680
-0.20244727 0.051947989 -1.3617206 16711680
-0.2012479 0.054221243 -1.3615288 16711680
-0.19220734 0.030464794 -1.3720434 16711680
-0.19526368 0.030743049 -1.3703701 16711680
-0.20509262 0.044853631 -1.3638799 16711680
-0.20473413 0.048247658 -1.3639369 16711680
-0.19599384 0.030477587 -1.374103 16711680
-0.19877656 0.031352751 -1.3717265 16711680
-0.20260353 0.033416636 -1.369405 16711680
-0.20564163 0.037723366 -1.3674667 16711680
-0.20662145 0.042498156 -1.366641 16711680
-0.20687692 0.04644075 -1.3666844 16711680
-0.20256476 0.031672977 -1.3736168 16711680
-0.20507009 0.033612303 -1.3718618 16711680
-0.20751871 0.037044778 -1.3703566 16711680
-0.20863707 0.040316049 -1.3696659 16711680
-0.22697294 0.017315369 -1.3803494 16711680
-0.22849667 0.020220453 -1.3785532 16711680
-0.2308339 0.023554545 -1.3770362 16711680
-0.23327257 0.026250778 -1.376265 16711680
-0.22902606 0.013926398 -1.3799468 16711680
-0.23052424 0.01762959 -1.3772202 16711680
-0.23334344 0.02158305 -1.3753878 16711680
-0.23669636 0.024914216 -1.3749222 16711680
-0.2321849 0.010660361 -1.3808694 16711680
-0.24118043 0.02335893 -1.3750467 16711680
-0.23707744 0.0093992315 -1.3817519 16711680
-0.24032255 0.0095528215 -1.3797667 16711680
-0.2449785 0.016031016 -1.3766327 16711680
-0.24460067 0.01996481 -1.3768977 16711680
-0.24033052 0.009880688 -1.3829964 16711680
-0.24237746 0.011289138 -1.380843 16711680
-0.24488911 0.014857832 -1.3792156 16711680
-0.24600028 0.017962102 -1.3792977 16711680
-0.1753671 0.051007785 -1.3592294 16711680
-0.17601572 0.051969793 -1.3588773 16711680
-0.17266305 0.039623022 -1.3616705 16711680
-0.17305985 0.043853853 -1.3599668 16711680
-0.1746437 0.047998317 -1.358055 16711680
-0.17760946 0.052221499 -1.3561379 16711680
-0.18107647 0.055258475 -1.3547573 16711680
-0.18506798 0.057244819 -1.3536139 16711680
-0.17436147 0.033885218 -1.3638893 16711680
-0.17344168 0.036698017 -1.3635787 16711680
-0.18848369 0.058132544 -1.3538215 16711680
-0.19145878 0.058010273 -1.3527638 16711680
-0.17696787 0.031275075 -1.3655465 16711680
-0.19522648 0.057228379 -1.3537153 16711680
-0.18152058 0.028947845 -1.3667161 16711680
-0.19949713 0.054500502 -1.3550581 16711680
-0.18518579 0.027657799 -1.3665159 16711680
-0.18779401 0.028425846 -1.3674791 16711680
-0.20278169 0.049908023 -1.3577754 16711680
-0.20201629 0.051568434 -1.3557144 16711680
-0.1920643 0.028014027 -1.3667282 16711680
-0.19524345 0.029476803 -1.367359 16711680
-0.20504832 0.043411531 -1.3610053 16711680
-0.20466664 0.045992985 -1.358554 16711680
-0.19558084 0.026880966 -1.3652332 16711680
-0.19852512 0.02937983 -1.3659906 16711680
-0.20229883 0.031917136 -1.3654819 16711680
-0.20524636 0.036182597 -1.3636453 16711680
-0.20595919 0.040073305 -1.3611597 16711680
-0.20656911 0.04243822 -1.3580766 16711680
-0.20450091 0.031168779 -1.3632621 16711680
-0.20598599 0.033292368 -1.3622954 16711680
-0.23138836 0.012775488 -1.3765355 16711680
-0.23274885 0.015162177 -1.3744295 16711680
-0.23523563 0.018685188 -1.3728106 16711680
-0.23740616 0.021363661 -1.3726341 16711680
-0.23348603 0.010658767 -1.3764584 16711680
-0.23451595 0.012280528 -1.373124 16711680
-0.23774007 0.017018814 -1.3709885 16711680
-0.24002604 0.019939579 -1.372198 16711680
-0.23690991 0.0092349835 -1.3773535 16711680
-0.23979372 0.010077294 -1.3753941 16711680
-0.24275255 0.014276873 -1.3734716 16711680
-0.24303904 0.017895207 -1.3735045 16711680
-0.24230978 0.011037178 -1.3776631 16711680
-0.24385755 0.013232742 -1.3766608 16711680
-0.16970216 0.039457656 -1.3543674 16711680
-0.17096697 0.042874455 -1.3536645 16711680
-0.17312042 0.047006845 -1.3524601 16711680
-0.1756947 0.050658867 -1.3508008 16711680
-0.17861648 0.053757016 -1.3487164 16711680
-0.18098231 0.055736102 -1.3468112 16711680
-0.17063349 0.033641052 -1.3574058 16711680
-0.17091957 0.037378415 -1.3573231 16711680
-0.17196816 0.04217153 -1.3563887 16711680
-0.17422363 0.04688203 -1.3553103 16711680
-0.17735577 0.051323593 -1.3532919 16711680
-0.18069194 0.054537635 -1.3508425 16711680
-0.18455611 0.056755479 -1.3484871 16711680
-0.18757026 0.057692111 -1.3464366 16711680
-0.17275137 0.031404682 -1.3600111 16711680
-0.17241146 0.035336174 -1.360535 16711680
-0.18813664 0.057609543 -1.3504205 16711680
-0.19135979 0.057714328 -1.3480122 16711680
-0.175936 0.025501907 -1.3603363 16711680
-0.17597052 0.027898554 -1.3619729 16711680
-0.19626363 0.056719042 -1.3488624 16711680
-0.19791333 0.056162458 -1.3464249 16711680
-0.17909679 0.023664448 -1.3612013 16711680
-0.1803444 0.025486287 -1.3631896 16711680
-0.20053861 0.054182272 -1.3501045 16711680
-0.20080742 0.054441042 -1.3471712 16711680
-0.18531305 0.023959402 -1.3636346 16711680
-0.18850857 0.025851641 -1.3652681 16711680
-0.20443448 0.048514407 -1.3549036 16711680
-0.20403157 0.050627343 -1.3514206 16711680
-0.18961293 0.022355273 -1.3632051 16711680
-0.19216244 0.024521202 -1.3643696 16711680
-0.2067046 0.045231823 -1.3549521 16711680
-0.2069978 0.047094151 -1.3519306 16711680
-0.1929698 0.020898148 -1.362507 16711680
-0.19617349 0.023197863 -1.3633277 16711680
-0.19939317 0.026125928 -1.3639185 16711680
-0.2030201 0.029420145 -1.3637249 16711680
-0.20696057 0.035074793 -1.3611743 16711680
-0.20825416 0.038685251 -1.3581988 16711680
-0.20910476 0.0415782 -1.3549471 16711680
-0.20934372 0.044207007 -1.3518804 16711680
-0.19988041 0.022125252 -1.362205 16711680
-0.20265646 0.024690153 -1.362259 16711680
-0.20584211 0.028055616 -1.3616843 16711680
-0.20850872 0.031844433 -1.3599609 16711680
-0.2101184 0.035389058 -1.3574587 16711680
-0.21113202 0.0380986 -1.3549145 16711680
-0.20940684 0.02772563 -1.359231 16711680
-0.23669395 0.0121971 -1.3716638 16711680
-0.23849274 0.014504466 -1.3705881 16711680
-0.23878765 0.011267446 -1.3721647 16711680
-0.24013172 0.013171233 -1.371298 16711680
-0.16617461 0.048665613 -1.3440157 16711680
-0.1679595 0.051226139 -1.3428696 16711680
-0.16537191 0.039992593 -1.3484775 16711680
-0.16606539 0.043497339 -1.3475323 16711680
-0.16825055 0.047506612 -1.346402 16711680
-0.17094971 0.051386923 -1.3446046 16711680
-0.17384735 0.05446174 -1.3425665 16711680
-0.17675939 0.056146339 -1.3411237 16711680
-0.1671807 0.033981338 -1.3516558 16711680
-0.16724445 0.03772895 -1.3514024 16711680
-0.16858077 0.042428635 -1.3506806 16711680
-0.17079985 0.04667417 -1.3494111 16711680
-0.17377932 0.050967887 -1.3474063 16711680
-0.17688854 0.054242432 -1.3452911 16711680
-0.18051699 0.056573398 -1.3427744 16711680
-0.18367189 0.057403877 -1.3409889 16711680
-0.16883864 0.031779438 -1.3542173 16711680
-0.16874796 0.035754029 -1.3542714 16711680
-0.18386212 0.057177342 -1.3447173 16711680
-0.18712135 0.057788003 -1.3423913 16711680
-0.17171277 0.025925543 -1.3561101 16711680
-0.17111722 0.028581593 -1.3567156 16711680
-0.19171511 0.057794876 -1.3434118 16711680
-0.19388376 0.057448015 -1.341748 16711680
-0.17478648 0.023780201 -1.3579764 16711680
-0.1741547 0.02658603 -1.3593841 16711680
-0.19557548 0.057078514 -1.3454551 16711680
-0.19765961 0.056276463 -1.3431224 16711680
-0.1789262 0.021257952 -1.3592048 16711680
-0.18141428 0.022361849 -1.3614368 16711680
-0.20296192 0.052857436 -1.3475302 16711680
-0.20195545 0.053946018 -1.3442962 16711680
-0.18315069 0.019090045 -1.3596925 16711680
-0.18479477 0.020593096 -1.36136 16711680
-0.20568271 0.050450783 -1.3477604 16711680
-0.20569149 0.051107258 -1.3450358 16711680
-0.18651076 0.017246109 -1.3594438 16711680
-0.18914095 0.018746793 -1.3610208 16711680
-0.208987 0.046945907 -1.3480774 16711680
-0.20855615 0.048475631 -1.3451723 16711680
-0.19367003 0.01765516 -1.3604904 16711680
-0.19653682 0.019714709 -1.3615553 16711680
-0.21145181 0.040941652 -1.3518977 16711680
-0.21160215 0.043044768 -1.3488837 16711680
-0.19717354 0.016351923 -1.3592441 16711680
-0.20024268 0.018801626 -1.3601153 16711680
-0.20390482 0.021398908 -1.3601952 16711680
-0.20760356 0.025409436 -1.3598024 16711680
-0.21073915 0.029835187 -1.3577679 16711680
-0.21263865 0.033781968 -1.3545551 16711680
-0.21320391 0.037277639 -1.3517342 16711680
-0.21362464 0.039791834 -1.34858 16711680
-0.20647058 0.020755535 -1.358441 16711680
-0.20933111 0.02403163 -1.3578236 16711680
-0.21183047 0.02760838 -1.3562158 16711680
-0.21357827 0.0309029 -1.3538454 16711680
-0.15876523 0.046524465 -1.3407706 16711680
-0.159684 0.050450459 -1.3394496 16711680
-0.16230433 0.054148704 -1.3377897 16711680
-0.16568185 0.056343224 -1.3363038 16711680
-0.1605455 0.040835213 -1.3432962 16711680
-0.16110444 0.044354387 -1.3432434 16711680
-0.16367859 0.04891517 -1.3424089 16711680
-0.166374 0.052757263 -1.3406521 16711680
-0.16934469 0.056157283 -1.3378221 16711680
-0.17207688 0.05721233 -1.3358324 16711680
-0.16334118 0.038396452 -1.3454931 16711680
-0.16370893 0.042793579 -1.3458247 16711680
-0.16515166 0.046814281 -1.3447531 16711680
-0.16963431 0.053205661 -1.3418142 16711680
-0.17274742 0.055615246 -1.3399864 16711680
-0.17602676 0.05651902 -1.3372222 16711680
-0.16631559 0.032545779 -1.3484095 16711680
-0.16514973 0.035388339 -1.3475372 16711680
-0.18017066 0.056626942 -1.3377682 16711680
-0.18325838 0.056615897 -1.3373815 16711680
-0.16804005 0.029151529 -1.3501322 16711680
-0.1873956 0.056768779 -1.3376712 16711680
-0.17065489 0.024114702 -1.3524597 16711680
-0.16925997 0.026407421 -1.3515394 16711680
-0.19076189 0.056917109 -1.3375973 16711680
-0.19356629 0.056684136 -1.3376037 16711680
-0.1740555 0.020628691 -1.3541067 16711680
-0.1984784 0.055360384 -1.3382263 16711680
-0.17811339 0.017977789 -1.3552495 16711680
-0.20281599 0.053081557 -1.3392342 16711680
-0.18257436 0.016052477 -1.3563154 16711680
-0.20671654 0.050265625 -1.340679 16711680
-0.18720059 0.014538888 -1.356823 16711680
-0.18973522 0.015365969 -1.3585532 16711680
-0.21106926 0.045723118 -1.3446999 16711680
-0.21009704 0.046957172 -1.3419716 16711680
-0.19070834 0.013114795 -1.3561349 16711680
-0.19346724 0.014114901 -1.3573964 16711680
-0.21322514 0.042241029 -1.3446027 16711680
-0.21236473 0.044091452 -1.3420225 16711680
-0.19757649 0.013890695 -1.3567191 16711680
-0.20088884 0.015374694 -1.3570682 16711680
-0.20402169 0.018062893 -1.3580418 16711680
-0.21463698 0.033150479 -1.3511711 16711680
-0.21517308 0.03574615 -1.3477886 16711680
-0.21488561 0.038487021 -1.3455552 16711680
-0.20396692 0.015531778 -1.3557962 16711680
-0.2070303 0.017768834 -1.3556552 16711680
-0.21108183 0.020907076 -1.3541466 16711680
-0.21377933 0.024732713 -1.3523933 16711680
-0.21520542 0.029375629 -1.3504331 16711680
-0.21586166 0.032422833 -1.3481069 16711680
-0.15727332 0.04062989 -1.3370641 16711680
