# .PCD v0.7 - Point Cloud Data file format
VERSION 0.7
FIELDS x y z rgb
SIZE 4 4 4 4
TYPE F F F U
COUNT 1 1 1 1
WIDTH 1248
HEIGHT 1
VIEWPOINT 0 0 0 1 0 0 0
POINTS 1248
DATA ascii
-0.104469 -0.092861697 -1.49357 65280
-0.101567 -0.092861697 -1.49357 65280
-0.098665498 -0.092861697 -1.49357 65280
-0.095763601 -0.092861697 -1.49357 65280
-0.092861697 -0.092861697 -1.49357 65280
-0.089959703 -0.092861697 -1.49357 65280
-0.087057799 -0.092861697 -1.49357 65280
-0.084155902 -0.092861697 -1.49357 65280
-0.081253998 -0.092861697 -1.49357 65280
-0.078351997 -0.092861697 -1.49357 65280
-0.0754501 -0.092861697 -1.49357 65280
-0.072548203 -0.092861697 -1.49357 65280
-0.069646202 -0.092861697 -1.49357 65280
-0.066744298 -0.092861697 -1.49357 65280
-0.063842401 -0.092861697 -1.49357 65280
-0.0609405 -0.092861697 -1.49357 65280
-0.058038499 -0.092861697 -1.49357 65280
-0.055136599 -0.092861697 -1.49357 65280
-0.052234702 -0.092861697 -1.49357 65280
-0.049332801 -0.092861697 -1.49357 65280
-0.0464308 -0.092861697 -1.49357 65280
-0.0435289 -0.092861697 -1.49357 65280
-0.040626999 -0.092861697 -1.49357 65280
-0.037725098 -0.092861697 -1.49357 65280
-0.034823101 -0.092861697 -1.49357 65280
-0.0319212 -0.092861697 -1.49357 65280
-0.0290193 -0.092861697 -1.49357 65280
-0.026117301 -0.092861697 -1.49357 65280
-0.0232154 -0.092861697 -1.49357 65280
-0.020313499 -0.092861697 -1.49357 65280
-0.017411601 -0.092861697 -1.49357 65280
-0.0145096 -0.092861697 -1.49357 65280
-0.0116077 -0.092861697 -1.49357 65280
-0.0087057799 -0.092861697 -1.49357 65280
-0.0053823502 -0.086117603 -1.3851 65280
-0.00268346 -0.085870698 -1.38113 65280
0 -0.085758001 -1.37931 65280
0.00267648 -0.085647203 -1.37753 65280
0.0053443098 -0.085508898 -1.3753099 65280
0.0080065001 -0.085402697 -1.3736 65280
0.0106718 -0.085374601 -1.37315 65280
0.0133441 -0.085401997 -1.37359 65280
0.016038699 -0.085539997 -1.37581 65280
0.018816 -0.086015902 -1.38346 65280
0.021599401 -0.086397603 -1.3896 65280
0.024313699 -0.086448699 -1.39042 65280
0.0270299 -0.086495802 -1.39118 65280
0.0297492 -0.086543098 -1.39194 65280
0.032468598 -0.086583003 -1.39258 65280
0.0351841 -0.086607002 -1.39297 65280
0.037909299 -0.086649902 -1.3936599 65280
0.0435289 -0.092861697 -1.49357 65280
0.0464308 -0.092861697 -1.49357 65280
0.049332801 -0.092861697 -1.49357 65280
0.052234702 -0.092861697 -1.49357 65280
0.055136599 -0.092861697 -1.49357 65280
0.058038499 -0.092861697 -1.49357 65280
0.0609405 -0.092861697 -1.49357 65280
0.063842401 -0.092861697 -1.49357 65280
0.066744298 -0.092861697 -1.49357 65280
0.069646202 -0.092861697 -1.49357 65280
0.072548203 -0.092861697 -1.49357 65280
0.0754501 -0.092861697 -1.49357 65280
0.078351997 -0.092861697 -1.49357 65280
0.081253998 -0.092861697 -1.49357 65280
0.084155902 -0.092861697 -1.49357 65280
0.087057799 -0.092861697 -1.49357 65280
0.089959703 -0.092861697 -1.49357 65280
0.092861697 -0.092861697 -1.49357 65280
0.095763601 -0.092861697 -1.49357 65280
0.098665498 -0.092861697 -1.49357 65280
0.101567 -0.092861697 -1.49357 65280
0.104469 -0.092861697 -1.49357 65280
0.107371 -0.092861697 -1.49357 65280
0.110273 -0.092861697 -1.49357 65280
0.113175 -0.092861697 -1.49357 65280
0.116077 -0.092861697 -1.49357 65280
0.118979 -0.092861697 -1.49357 65280
0.121881 -0.092861697 -1.49357 65280
0.124783 -0.092861697 -1.49357 65280
0.127685 -0.092861697 -1.49357 65280
0.130587 -0.092861697 -1.49357 65280
0.133489 -0.092861697 -1.49357 65280
0.136391 -0.092861697 -1.49357 65280
0.139292 -0.092861697 -1.49357 65280
0.142194 -0.092861697 -1.49357 65280
0.145096 -0.092861697 -1.49357 65280
0.14799801 -0.092861697 -1.49357 65280
0.15090001 -0.092861697 -1.49357 65280
0.15380201 -0.092861697 -1.49357 65280
0.15670399 -0.092861697 -1.49357 65280
0.15960599 -0.092861697 -1.49357 65280
0.162508 -0.092861697 -1.49357 65280
0.16541 -0.092861697 -1.49357 65280
0.168312 -0.092861697 -1.49357 65280
0.171214 -0.092861697 -1.49357 65280
0.174116 -0.092861697 -1.49357 65280
0.177018 -0.092861697 -1.49357 65280
0.179919 -0.092861697 -1.49357 65280
0.18282101 -0.092861697 -1.49357 65280
0.18572301 -0.092861697 -1.49357 65280
0.18862499 -0.092861697 -1.49357 65280
0.19152699 -0.092861697 -1.49357 65280
0.194429 -0.092861697 -1.49357 65280
0.197331 -0.092861697 -1.49357 65280
0.200233 -0.092861697 -1.49357 65280
0.203135 -0.092861697 -1.49357 65280
0.206037 -0.092861697 -1.49357 65280
0.208939 -0.092861697 -1.49357 65280
0.211841 -0.092861697 -1.49357 65280
0.214743 -0.092861697 -1.49357 65280
0.217645 -0.092861697 -1.49357 65280
0.22054601 -0.092861697 -1.49357 65280
0.22344799 -0.092861697 -1.49357 65280
0.22634999 -0.092861697 -1.49357 65280
0.229252 -0.092861697 -1.49357 65280
0.232154 -0.092861697 -1.49357 65280
0.235056 -0.092861697 -1.49357 65280
0.237958 -0.092861697 -1.49357 65280
0.24086 -0.092861697 -1.49357 65280
0.243762 -0.092861697 -1.49357 65280
0.246664 -0.092861697 -1.49357 65280
0.249566 -0.092861697 -1.49357 65280
0.25246799 -0.092861697 -1.49357 65280
0.25536999 -0.092861697 -1.49357 65280
0.25827101 -0.092861697 -1.49357 65280
0.26117301 -0.092861697 -1.49357 65280
0.26407501 -0.092861697 -1.49357 65280
0.26697701 -0.092861697 -1.49357 65280
0.26987901 -0.092861697 -1.49357 65280
0.27278101 -0.092861697 -1.49357 65280
0.27568299 -0.092861697 -1.49357 65280
0.27858499 -0.092861697 -1.49357 65280
0.28148699 -0.092861697 -1.49357 65280
0.28438899 -0.092861697 -1.49357 65280
0.28729099 -0.092861697 -1.49357 65280
0.29019299 -0.092861697 -1.49357 65280
0.29309499 -0.092861697 -1.49357 65280
0.29599699 -0.092861697 -1.49357 65280
0.29889801 -0.092861697 -1.49357 65280
0.30180001 -0.092861697 -1.49357 65280
0.30470201 -0.092861697 -1.49357 65280
0.30760401 -0.092861697 -1.49357 65280
0.31050599 -0.092861697 -1.49357 65280
0.31340799 -0.092861697 -1.49357 65280
0.31630999 -0.092861697 -1.49357 65280
0.31921199 -0.092861697 -1.49357 65280
0.32211399 -0.092861697 -1.49357 65280
0.32501599 -0.092861697 -1.49357 65280
0.32791799 -0.092861697 -1.49357 65280
0.33081999 -0.092861697 -1.49357 65280
0.333722 -0.092861697 -1.49357 65280
0.336624 -0.092861697 -1.49357 65280
0.33952501 -0.092861697 -1.49357 65280
0.34242699 -0.092861697 -1.49357 65280
0.34532899 -0.092861697 -1.49357 65280
0.34823099 -0.092861697 -1.49357 65280
0.35113299 -0.092861697 -1.49357 65280
0.35403499 -0.092861697 -1.49357 65280
0.35693699 -0.092861697 -1.49357 65280
0.35983899 -0.092861697 -1.49357 65280
0.36274099 -0.092861697 -1.49357 65280
0.36564299 -0.092861697 -1.49357 65280
0.368545 -0.092861697 -1.49357 65280
0.371447 -0.092861697 -1.49357 65280
0.374349 -0.092861697 -1.49357 65280
0.37724999 -0.092861697 -1.49357 65280
0.38015199 -0.092861697 -1.49357 65280
0.38305399 -0.092861697 -1.49357 65280
0.38595599 -0.092861697 -1.49357 65280
0.38885799 -0.092861697 -1.49357 65280
0.39175999 -0.092861697 -1.49357 65280
0.39466199 -0.092861697 -1.49357 65280
0.39756399 -0.092861697 -1.49357 65280
-0.40009201 -0.089875802 -1.49218 65280
-0.39719301 -0.089875802 -1.49218 65280
-0.39429399 -0.089875802 -1.49218 65280
-0.391395 -0.089875802 -1.49218 65280
-0.38849601 -0.089875802 -1.49218 65280
-0.38559601 -0.089875802 -1.49218 65280
-0.38269699 -0.089875802 -1.49218 65280
-0.379798 -0.089875802 -1.49218 65280
-0.376899 -0.089875802 -1.49218 65280
-0.373999 -0.089875802 -1.49218 65280
-0.37110001 -0.089875802 -1.49218 65280
-0.36820099 -0.089875802 -1.49218 65280
-0.365302 -0.089875802 -1.49218 65280
-0.36240301 -0.089875802 -1.49218 65280
-0.359503 -0.089875802 -1.49218 65280
-0.35660401 -0.089875802 -1.49218 65280
-0.35370499 -0.089875802 -1.49218 65280
-0.350806 -0.089875802 -1.49218 65280
-0.34790701 -0.089875802 -1.49218 65280
-0.345007 -0.089875802 -1.49218 65280
-0.34210801 -0.089875802 -1.49218 65280
-0.33920899 -0.089875802 -1.49218 65280
-0.33631 -0.089875802 -1.49218 65280
-0.33340999 -0.089875802 -1.49218 65280
-0.330511 -0.089875802 -1.49218 65280
-0.32761201 -0.089875802 -1.49218 65280
-0.32471299 -0.089875802 -1.49218 65280
-0.321814 -0.089875802 -1.49218 65280
-0.318914 -0.089875802 -1.49218 65280
-0.31601501 -0.089875802 -1.49218 65280
-0.31311601 -0.089875802 -1.49218 65280
-0.31021699 -0.089875802 -1.49218 65280
-0.30731699 -0.089875802 -1.49218 65280
-0.304418 -0.089875802 -1.49218 65280
-0.30151901 -0.089875802 -1.49218 65280
-0.29861999 -0.089875802 -1.49218 65280
-0.29572099 -0.089875802 -1.49218 65280
-0.29282099 -0.089875802 -1.49218 65280
-0.289922 -0.089875802 -1.49218 65280
-0.28702301 -0.089875802 -1.49218 65280
-0.28412399 -0.089875802 -1.49218 65280
-0.28122401 -0.089875802 -1.49218 65280
-0.27832499 -0.089875802 -1.49218 65280
-0.275426 -0.089875802 -1.49218 65280
-0.27252701 -0.089875802 -1.49218 65280
-0.26962799 -0.089875802 -1.49218 65280
-0.26672801 -0.089875802 -1.49218 65280
-0.26382899 -0.089875802 -1.49218 65280
-0.26093 -0.089875802 -1.49218 65280
-0.25803101 -0.089875802 -1.49218 65280
-0.25513101 -0.089875802 -1.49218 65280
-0.25223199 -0.089875802 -1.49218 65280
-0.24933299 -0.089875802 -1.49218 65280
-0.246434 -0.089875802 -1.49218 65280
-0.243535 -0.089875802 -1.49218 65280
-0.24063499 -0.089875802 -1.49218 65280
-0.237736 -0.089875802 -1.49218 65280
-0.234837 -0.089875802 -1.49218 65280
-0.231938 -0.089875802 -1.49218 65280
-0.229038 -0.089875802 -1.49218 65280
-0.22613899 -0.089875802 -1.49218 65280
-0.22324 -0.089875802 -1.49218 65280
-0.220341 -0.089875802 -1.49218 65280
-0.21744201 -0.089875802 -1.49218 65280
-0.214542 -0.089875802 -1.49218 65280
-0.211643 -0.089875802 -1.49218 65280
-0.208744 -0.089875802 -1.49218 65280
-0.205845 -0.089875802 -1.49218 65280
-0.20294499 -0.089875802 -1.49218 65280
-0.200046 -0.089875802 -1.49218 65280
-0.197147 -0.089875802 -1.49218 65280
-0.19424801 -0.089875802 -1.49218 65280
-0.191349 -0.089875802 -1.49218 65280
-0.188449 -0.089875802 -1.49218 65280
-0.18555 -0.089875802 -1.49218 65280
-0.182651 -0.089875802 -1.49218 65280
-0.17975201 -0.089875802 -1.49218 65280
-0.176852 -0.089875802 -1.49218 65280
-0.173953 -0.089875802 -1.49218 65280
-0.17105401 -0.089875802 -1.49218 65280
-0.168155 -0.089875802 -1.49218 65280
-0.16525599 -0.089875802 -1.49218 65280
-0.162356 -0.089875802 -1.49218 65280
-0.159457 -0.089875802 -1.49218 65280
-0.15655801 -0.089875802 -1.49218 65280
-0.153659 -0.089875802 -1.49218 65280
-0.150759 -0.089875802 -1.49218 65280
-0.14786001 -0.089875802 -1.49218 65280
-0.144961 -0.089875802 -1.49218 65280
-0.14206199 -0.089875802 -1.49218 65280
-0.139163 -0.089875802 -1.49218 65280
-0.136263 -0.089875802 -1.49218 65280
-0.13336401 -0.089875802 -1.49218 65280
-0.130465 -0.089875802 -1.49218 65280
-0.12756599 -0.089875802 -1.49218 65280
-0.124666 -0.089875802 -1.49218 65280
-0.121767 -0.089875802 -1.49218 65280
-0.118868 -0.089875802 -1.49218 65280
-0.115969 -0.089875802 -1.49218 65280
-0.11307 -0.089875802 -1.49218 65280
-0.11017 -0.089875802 -1.49218 65280
-0.107271 -0.089875802 -1.49218 65280
-0.104372 -0.089875802 -1.49218 65280
-0.101473 -0.089875802 -1.49218 65280
-0.098573498 -0.089875802 -1.49218 65280
-0.095674299 -0.089875802 -1.49218 65280
-0.092775099 -0.089875802 -1.49218 65280
-0.089875802 -0.089875802 -1.49218 65280
-0.086976603 -0.089875802 -1.49218 65280
-0.084077403 -0.089875802 -1.49218 65280
-0.081178203 -0.089875802 -1.49218 65280
-0.078279004 -0.089875802 -1.49218 65280
-0.075379699 -0.089875802 -1.49218 65280
-0.0724805 -0.089875802 -1.49218 65280
-0.0695813 -0.089875802 -1.49218 65280
-0.0666821 -0.089875802 -1.49218 65280
-0.063782901 -0.089875802 -1.49218 65280
-0.0608836 -0.089875802 -1.49218 65280
-0.057984401 -0.089875802 -1.49218 65280
-0.055085201 -0.089875802 -1.49218 65280
-0.052186001 -0.089875802 -1.49218 65280
-0.049286801 -0.089875802 -1.49218 65280
-0.046387501 -0.089875802 -1.49218 65280
-0.043488301 -0.089875802 -1.49218 65280
-0.040589102 -0.089875802 -1.49218 65280
-0.037689898 -0.089875802 -1.49218 65280
-0.034790698 -0.089875802 -1.49218 65280
-0.031891402 -0.089875802 -1.49218 65280
-0.0289922 -0.089875802 -1.49218 65280
-0.026093001 -0.089875802 -1.49218 65280
-0.023193801 -0.089875802 -1.49218 65280
-0.020294501 -0.089875802 -1.49218 65280
-0.017395301 -0.089875802 -1.49218 65280
-0.0144961 -0.089875802 -1.49218 65280
-0.0115969 -0.089875802 -1.49218 65280
-0.0080650998 -0.083339296 -1.3836499 65280
-0.0053588701 -0.083062403 -1.37906 65280
-0.00267526 -0.082933001 -1.37691 65280
0 -0.082843199 -1.37542 65280
0.0026694001 -0.082751498 -1.37389 65280
0.0053326502 -0.0826561 -1.37231 65280
0.0079938602 -0.082603201 -1.37143 65280
0.0106578 -0.082597598 -1.37134 65280
0.013325 -0.082614899 -1.3716201 65280
0.015998701 -0.082660198 -1.37238 65280
0.0187397 -0.082990199 -1.37786 65280
0.021488 -0.083265997 -1.38244 65280
0.024279701 -0.0836301 -1.3884799 65280
0.027003501 -0.083710901 -1.38982 65280
0.0297298 -0.083783798 -1.39103 65280
0.032459401 -0.083853401 -1.39219 65280
0.035187099 -0.083907798 -1.39309 65280
0.037922598 -0.0839715 -1.39415 65280
0.043488301 -0.089875802 -1.49218 65280
0.046387501 -0.089875802 -1.49218 65280
0.049286801 -0.089875802 -1.49218 65280
0.052186001 -0.089875802 -1.49218 65280
0.055085201 -0.089875802 -1.49218 65280
0.057984401 -0.089875802 -1.49218 65280
0.0608836 -0.089875802 -1.49218 65280
0.063782901 -0.089875802 -1.49218 65280
0.0666821 -0.089875802 -1.49218 65280
0.0695813 -0.089875802 -1.49218 65280
0.0724805 -0.089875802 -1.49218 65280
0.075379699 -0.089875802 -1.49218 65280
0.078279004 -0.089875802 -1.49218 65280
0.081178203 -0.089875802 -1.49218 65280
0.084077403 -0.089875802 -1.49218 65280
0.086976603 -0.089875802 -1.49218 65280
0.089875802 -0.089875802 -1.49218 65280
0.092775099 -0.089875802 -1.49218 65280
0.095674299 -0.089875802 -1.49218 65280
0.098573498 -0.089875802 -1.49218 65280
0.101473 -0.089875802 -1.49218 65280
0.104372 -0.089875802 -1.49218 65280
0.107271 -0.089875802 -1.49218 65280
0.11017 -0.089875802 -1.49218 65280
0.11307 -0.089875802 -1.49218 65280
0.115969 -0.089875802 -1.49218 65280
0.118868 -0.089875802 -1.49218 65280
0.121767 -0.089875802 -1.49218 65280
0.124666 -0.089875802 -1.49218 65280
0.12756599 -0.089875802 -1.49218 65280
0.130465 -0.089875802 -1.49218 65280
0.13336401 -0.089875802 -1.49218 65280
0.136263 -0.089875802 -1.49218 65280
0.139163 -0.089875802 -1.49218 65280
0.14206199 -0.089875802 -1.49218 65280
0.144961 -0.089875802 -1.49218 65280
0.14786001 -0.089875802 -1.49218 65280
0.150759 -0.089875802 -1.49218 65280
0.153659 -0.089875802 -1.49218 65280
0.15655801 -0.089875802 -1.49218 65280
0.159457 -0.089875802 -1.49218 65280
0.162356 -0.089875802 -1.49218 65280
0.16525599 -0.089875802 -1.49218 65280
0.168155 -0.089875802 -1.49218 65280
0.17105401 -0.089875802 -1.49218 65280
0.173953 -0.089875802 -1.49218 65280
0.176852 -0.089875802 -1.49218 65280
0.17975201 -0.089875802 -1.49218 65280
0.182651 -0.089875802 -1.49218 65280
0.18555 -0.089875802 -1.49218 65280
0.188449 -0.089875802 -1.49218 65280
0.191349 -0.089875802 -1.49218 65280
0.19424801 -0.089875802 -1.49218 65280
0.197147 -0.089875802 -1.49218 65280
0.200046 -0.089875802 -1.49218 65280
0.20294499 -0.089875802 -1.49218 65280
0.205845 -0.089875802 -1.49218 65280
0.208744 -0.089875802 -1.49218 65280
0.211643 -0.089875802 -1.49218 65280
0.214542 -0.089875802 -1.49218 65280
0.21744201 -0.089875802 -1.49218 65280
0.220341 -0.089875802 -1.49218 65280
0.22324 -0.089875802 -1.49218 65280
0.22613899 -0.089875802 -1.49218 65280
0.229038 -0.089875802 -1.49218 65280
0.231938 -0.089875802 -1.49218 65280
0.234837 -0.089875802 -1.49218 65280
0.237736 -0.089875802 -1.49218 65280
0.24063499 -0.089875802 -1.49218 65280
0.243535 -0.089875802 -1.49218 65280
0.246434 -0.089875802 -1.49218 65280
0.24933299 -0.089875802 -1.49218 65280
0.25223199 -0.089875802 -1.49218 65280
0.25513101 -0.089875802 -1.49218 65280
0.25803101 -0.089875802 -1.49218 65280
0.26093 -0.089875802 -1.49218 65280
0.26382899 -0.089875802 -1.49218 65280
0.26672801 -0.089875802 -1.49218 65280
0.26962799 -0.089875802 -1.49218 65280
0.27252701 -0.089875802 -1.49218 65280
0.275426 -0.089875802 -1.49218 65280
0.27832499 -0.089875802 -1.49218 65280
0.28122401 -0.089875802 -1.49218 65280
0.28412399 -0.089875802 -1.49218 65280
0.28702301 -0.089875802 -1.49218 65280
0.289922 -0.089875802 -1.49218 65280
0.29282099 -0.089875802 -1.49218 65280
0.29572099 -0.089875802 -1.49218 65280
0.29861999 -0.089875802 -1.49218 65280
0.30151901 -0.089875802 -1.49218 65280
0.304418 -0.089875802 -1.49218 65280
0.30731699 -0.089875802 -1.49218 65280
0.31021699 -0.089875802 -1.49218 65280
0.31311601 -0.089875802 -1.49218 65280
0.31601501 -0.089875802 -1.49218 65280
0.318914 -0.089875802 -1.49218 65280
0.321814 -0.089875802 -1.49218 65280
0.32471299 -0.089875802 -1.49218 65280
0.32761201 -0.089875802 -1.49218 65280
0.330511 -0.089875802 -1.49218 65280
0.33340999 -0.089875802 -1.49218 65280
0.33631 -0.089875802 -1.49218 65280
0.33920899 -0.089875802 -1.49218 65280
0.34210801 -0.089875802 -1.49218 65280
0.345007 -0.089875802 -1.49218 65280
0.34790701 -0.089875802 -1.49218 65280
0.350806 -0.089875802 -1.49218 65280
0.35370499 -0.089875802 -1.49218 65280
0.35660401 -0.089875802 -1.49218 65280
0.359503 -0.089875802 -1.49218 65280
0.36240301 -0.089875802 -1.49218 65280
0.365302 -0.089875802 -1.49218 65280
0.36820099 -0.089875802 -1.49218 65280
0.37110001 -0.089875802 -1.49218 65280
0.373999 -0.089875802 -1.49218 65280
0.376899 -0.089875802 -1.49218 65280
0.379798 -0.089875802 -1.49218 65280
0.38269699 -0.089875802 -1.49218 65280
0.38559601 -0.089875802 -1.49218 65280
0.38849601 -0.089875802 -1.49218 65280
0.391395 -0.089875802 -1.49218 65280
0.39429399 -0.089875802 -1.49218 65280
0.39719301 -0.089875802 -1.49218 65280
-0.39972001 -0.086895697 -1.49079 65280
-0.396824 -0.086895697 -1.49079 65280
-0.39392701 -0.086895697 -1.49079 65280
-0.391031 -0.086895697 -1.49079 65280
-0.388134 -0.086895697 -1.49079 65280
-0.38523701 -0.086895697 -1.49079 65280
-0.382341 -0.086895697 -1.49079 65280
-0.379444 -0.086895697 -1.49079 65280
-0.37654799 -0.086895697 -1.49079 65280
-0.373651 -0.086895697 -1.49079 65280
-0.37075499 -0.086895697 -1.49079 65280
-0.36785799 -0.086895697 -1.49079 65280
-0.36496201 -0.086895697 -1.49079 65280
-0.36206499 -0.086895697 -1.49079 65280
-0.35916901 -0.086895697 -1.49079 65280
-0.35627201 -0.086895697 -1.49079 65280
-0.353376 -0.086895697 -1.49079 65280
-0.35047901 -0.086895697 -1.49079 65280
-0.347583 -0.086895697 -1.49079 65280
-0.344686 -0.086895697 -1.49079 65280
-0.34178999 -0.086895697 -1.49079 65280
-0.338893 -0.086895697 -1.49079 65280
-0.33599699 -0.086895697 -1.49079 65280
-0.33309999 -0.086895697 -1.49079 65280
-0.33020401 -0.086895697 -1.49079 65280
-0.32730699 -0.086895697 -1.49079 65280
-0.324411 -0.086895697 -1.49079 65280
-0.32151401 -0.086895697 -1.49079 65280
-0.31861699 -0.086895697 -1.49079 65280
-0.31572101 -0.086895697 -1.49079 65280
-0.31282401 -0.086895697 -1.49079 65280
-0.309928 -0.086895697 -1.49079 65280
-0.30703101 -0.086895697 -1.49079 65280
-0.30413499 -0.086895697 -1.49079 65280
-0.301238 -0.086895697 -1.49079 65280
-0.29834199 -0.086895697 -1.49079 65280
-0.295445 -0.086895697 -1.49079 65280
-0.29254901 -0.086895697 -1.49079 65280
-0.28965199 -0.086895697 -1.49079 65280
-0.28675601 -0.086895697 -1.49079 65280
-0.28385901 -0.086895697 -1.49079 65280
-0.280963 -0.086895697 -1.49079 65280
-0.27806601 -0.086895697 -1.49079 65280
-0.27517 -0.086895697 -1.49079 65280
-0.272273 -0.086895697 -1.49079 65280
-0.26937699 -0.086895697 -1.49079 65280
-0.26648 -0.086895697 -1.49079 65280
-0.26358399 -0.086895697 -1.49079 65280
-0.26068699 -0.086895697 -1.49079 65280
-0.25779101 -0.086895697 -1.49079 65280
-0.25489399 -0.086895697 -1.49079 65280
-0.25199699 -0.086895697 -1.49079 65280
-0.249101 -0.086895697 -1.49079 65280
-0.246204 -0.086895697 -1.49079 65280
-0.24330799 -0.086895697 -1.49079 65280
-0.240411 -0.086895697 -1.49079 65280
-0.237515 -0.086895697 -1.49079 65280
-0.23461799 -0.086895697 -1.49079 65280
-0.231722 -0.086895697 -1.49079 65280
-0.228825 -0.086895697 -1.49079 65280
-0.22592901 -0.086895697 -1.49079 65280
-0.223032 -0.086895697 -1.49079 65280
-0.220136 -0.086895697 -1.49079 65280
-0.21723901 -0.086895697 -1.49079 65280
-0.214343 -0.086895697 -1.49079 65280
-0.211446 -0.086895697 -1.49079 65280
-0.20855001 -0.086895697 -1.49079 65280
-0.205653 -0.086895697 -1.49079 65280
-0.202757 -0.086895697 -1.49079 65280
-0.19986001 -0.086895697 -1.49079 65280
-0.196964 -0.086895697 -1.49079 65280
-0.194067 -0.086895697 -1.49079 65280
-0.19117001 -0.086895697 -1.49079 65280
-0.188274 -0.086895697 -1.49079 65280
-0.185377 -0.086895697 -1.49079 65280
-0.18248101 -0.086895697 -1.49079 65280
-0.179584 -0.086895697 -1.49079 65280
-0.176688 -0.086895697 -1.49079 65280
-0.17379101 -0.086895697 -1.49079 65280
-0.170895 -0.086895697 -1.49079 65280
-0.167998 -0.086895697 -1.49079 65280
-0.16510201 -0.086895697 -1.49079 65280
-0.162205 -0.086895697 -1.49079 65280
-0.159309 -0.086895697 -1.49079 65280
-0.15641201 -0.086895697 -1.49079 65280
-0.15351599 -0.086895697 -1.49079 65280
-0.150619 -0.086895697 -1.49079 65280
-0.147723 -0.086895697 -1.49079 65280
-0.14482599 -0.086895697 -1.49079 65280
-0.14193 -0.086895697 -1.49079 65280
-0.139033 -0.086895697 -1.49079 65280
-0.13613699 -0.086895697 -1.49079 65280
-0.13324 -0.086895697 -1.49079 65280
-0.130344 -0.086895697 -1.49079 65280
-0.12744699 -0.086895697 -1.49079 65280
-0.12455 -0.086895697 -1.49079 65280
-0.121654 -0.086895697 -1.49079 65280
-0.118757 -0.086895697 -1.49079 65280
-0.115861 -0.086895697 -1.49079 65280
-0.112964 -0.086895697 -1.49079 65280
-0.110068 -0.086895697 -1.49079 65280
-0.107171 -0.086895697 -1.49079 65280
-0.104275 -0.086895697 -1.49079 65280
-0.101378 -0.086895697 -1.49079 65280
-0.098481797 -0.086895697 -1.49079 65280
-0.095585197 -0.086895697 -1.49079 65280
-0.092688702 -0.086895697 -1.49079 65280
-0.089792199 -0.086895697 -1.49079 65280
-0.086895697 -0.086895697 -1.49079 65280
-0.083999097 -0.086895697 -1.49079 65280
-0.081102602 -0.086895697 -1.49079 65280
-0.0782061 -0.086895697 -1.49079 65280
-0.075309597 -0.086895697 -1.49079 65280
-0.072413102 -0.086895697 -1.49079 65280
-0.069516502 -0.086895697 -1.49079 65280
-0.06662 -0.086895697 -1.49079 65280
-0.063723497 -0.086895697 -1.49079 65280
-0.060826998 -0.086895697 -1.49079 65280
-0.057930499 -0.086895697 -1.49079 65280
-0.0550339 -0.086895697 -1.49079 65280
-0.052137401 -0.086895697 -1.49079 65280
-0.049240898 -0.086895697 -1.49079 65280
-0.046344399 -0.086895697 -1.49079 65280
-0.0434478 -0.086895697 -1.49079 65280
-0.040551301 -0.086895697 -1.49079 65280
-0.037654798 -0.086895697 -1.49079 65280
-0.0347583 -0.086895697 -1.49079 65280
-0.0318617 -0.086895697 -1.49079 65280
-0.028965199 -0.086895697 -1.49079 65280
-0.0260687 -0.086895697 -1.49079 65280
-0.0231722 -0.086895697 -1.49079 65280
-0.020275701 -0.086895697 -1.49079 65280
-0.0173791 -0.086895697 -1.49079 65280
-0.0144826 -0.086895697 -1.49079 65280
-0.0107617 -0.0807129 -1.38472 65280
-0.0080379499 -0.080379501 -1.3789901 65280
-0.00534858 -0.080228701 -1.37641 65280
-0.00267069 -0.080120601 -1.37455 65280
0 -0.080041401 -1.37319 65280
0.0026654301 -0.079962999 -1.37185 65280
0.0053264899 -0.079897299 -1.37072 65280
0.0079862596 -0.079862602 -1.3701299 65280
0.0106477 -0.079857498 -1.3700401 65280
0.0133123 -0.079874001 -1.37032 65280
0.0159845 -0.079922497 -1.37115 65280
0.0186795 -0.080054998 -1.37343 65280
0.021428 -0.080354899 -1.37857 65280
0.024190299 -0.0806344 -1.38337 65280
0.026985999 -0.080958098 -1.3889199 65280
0.0297188 -0.081051402 -1.39052 65280
0.032455198 -0.081137903 -1.39201 65280
0.035190001 -0.0812077 -1.3932 65280
0.037937202 -0.081294097 -1.39469 65280
0.0434478 -0.086895697 -1.49079 65280
0.046344399 -0.086895697 -1.49079 65280
0.049240898 -0.086895697 -1.49079 65280
0.052137401 -0.086895697 -1.49079 65280
0.0550339 -0.086895697 -1.49079 65280
0.057930499 -0.086895697 -1.49079 65280
0.060826998 -0.086895697 -1.49079 65280
0.063723497 -0.086895697 -1.49079 65280
0.06662 -0.086895697 -1.49079 65280
0.069516502 -0.086895697 -1.49079 65280
0.072413102 -0.086895697 -1.49079 65280
0.075309597 -0.086895697 -1.49079 65280
0.0782061 -0.086895697 -1.49079 65280
0.081102602 -0.086895697 -1.49079 65280
0.083999097 -0.086895697 -1.49079 65280
0.086895697 -0.086895697 -1.49079 65280
0.089792199 -0.086895697 -1.49079 65280
0.092688702 -0.086895697 -1.49079 65280
0.095585197 -0.086895697 -1.49079 65280
0.098481797 -0.086895697 -1.49079 65280
0.101378 -0.086895697 -1.49079 65280
0.104275 -0.086895697 -1.49079 65280
0.107171 -0.086895697 -1.49079 65280
0.110068 -0.086895697 -1.49079 65280
0.112964 -0.086895697 -1.49079 65280
0.115861 -0.086895697 -1.49079 65280
0.118757 -0.086895697 -1.49079 65280
0.121654 -0.086895697 -1.49079 65280
0.12455 -0.086895697 -1.49079 65280
0.12744699 -0.086895697 -1.49079 65280
0.130344 -0.086895697 -1.49079 65280
0.13324 -0.086895697 -1.49079 65280
0.13613699 -0.086895697 -1.49079 65280
0.139033 -0.086895697 -1.49079 65280
0.14193 -0.086895697 -1.49079 65280
0.14482599 -0.086895697 -1.49079 65280
0.147723 -0.086895697 -1.49079 65280
0.150619 -0.086895697 -1.49079 65280
0.15351599 -0.086895697 -1.49079 65280
0.15641201 -0.086895697 -1.49079 65280
0.159309 -0.086895697 -1.49079 65280
0.162205 -0.086895697 -1.49079 65280
0.16510201 -0.086895697 -1.49079 65280
0.167998 -0.086895697 -1.49079 65280
0.170895 -0.086895697 -1.49079 65280
0.17379101 -0.086895697 -1.49079 65280
0.176688 -0.086895697 -1.49079 65280
0.179584 -0.086895697 -1.49079 65280
0.18248101 -0.086895697 -1.49079 65280
0.185377 -0.086895697 -1.49079 65280
0.188274 -0.086895697 -1.49079 65280
0.19117001 -0.086895697 -1.49079 65280
0.194067 -0.086895697 -1.49079 65280
0.196964 -0.086895697 -1.49079 65280
0.19986001 -0.086895697 -1.49079 65280
0.202757 -0.086895697 -1.49079 65280
0.205653 -0.086895697 -1.49079 65280
0.20855001 -0.086895697 -1.49079 65280
0.211446 -0.086895697 -1.49079 65280
0.214343 -0.086895697 -1.49079 65280
0.21723901 -0.086895697 -1.49079 65280
0.220136 -0.086895697 -1.49079 65280
0.223032 -0.086895697 -1.49079 65280
0.22592901 -0.086895697 -1.49079 65280
0.228825 -0.086895697 -1.49079 65280
0.231722 -0.086895697 -1.49079 65280
0.23461799 -0.086895697 -1.49079 65280
0.237515 -0.086895697 -1.49079 65280
0.240411 -0.086895697 -1.49079 65280
0.24330799 -0.086895697 -1.49079 65280
0.246204 -0.086895697 -1.49079 65280
0.249101 -0.086895697 -1.49079 65280
0.25199699 -0.086895697 -1.49079 65280
0.25489399 -0.086895697 -1.49079 65280
0.25779101 -0.086895697 -1.49079 65280
0.26068699 -0.086895697 -1.49079 65280
0.26358399 -0.086895697 -1.49079 65280
0.26648 -0.086895697 -1.49079 65280
0.26937699 -0.086895697 -1.49079 65280
0.272273 -0.086895697 -1.49079 65280
0.27517 -0.086895697 -1.49079 65280
0.27806601 -0.086895697 -1.49079 65280
0.280963 -0.086895697 -1.49079 65280
0.28385901 -0.086895697 -1.49079 65280
0.28675601 -0.086895697 -1.49079 65280
0.28965199 -0.086895697 -1.49079 65280
0.29254901 -0.086895697 -1.49079 65280
0.295445 -0.086895697 -1.49079 65280
0.29834199 -0.086895697 -1.49079 65280
0.301238 -0.086895697 -1.49079 65280
0.30413499 -0.086895697 -1.49079 65280
0.30703101 -0.086895697 -1.49079 65280
0.309928 -0.086895697 -1.49079 65280
0.31282401 -0.086895697 -1.49079 65280
0.31572101 -0.086895697 -1.49079 65280
0.31861699 -0.086895697 -1.49079 65280
0.32151401 -0.086895697 -1.49079 65280
0.324411 -0.086895697 -1.49079 65280
0.32730699 -0.086895697 -1.49079 65280
0.33020401 -0.086895697 -1.49079 65280
0.33309999 -0.086895697 -1.49079 65280
0.33599699 -0.086895697 -1.49079 65280
0.338893 -0.086895697 -1.49079 65280
0.34178999 -0.086895697 -1.49079 65280
0.344686 -0.086895697 -1.49079 65280
0.347583 -0.086895697 -1.49079 65280
0.35047901 -0.086895697 -1.49079 65280
0.353376 -0.086895697 -1.49079 65280
0.35627201 -0.086895697 -1.49079 65280
0.35916901 -0.086895697 -1.49079 65280
0.36206499 -0.086895697 -1.49079 65280
0.36496201 -0.086895697 -1.49079 65280
0.36785799 -0.086895697 -1.49079 65280
0.37075499 -0.086895697 -1.49079 65280
0.373651 -0.086895697 -1.49079 65280
0.37654799 -0.086895697 -1.49079 65280
0.379444 -0.086895697 -1.49079 65280
0.382341 -0.086895697 -1.49079 65280
0.38523701 -0.086895697 -1.49079 65280
0.388134 -0.086895697 -1.49079 65280
0.391031 -0.086895697 -1.49079 65280
0.39392701 -0.086895697 -1.49079 65280
0.396824 -0.086895697 -1.49079 65280
-0.39934799 -0.083921 -1.4894 65280
-0.39645499 -0.083921 -1.4894 65280
-0.39356101 -0.083921 -1.4894 65280
-0.39066699 -0.083921 -1.4894 65280
-0.38777301 -0.083921 -1.4894 65280
-0.38487899 -0.083921 -1.4894 65280
-0.38198501 -0.083921 -1.4894 65280
-0.37909201 -0.083921 -1.4894 65280
-0.37619799 -0.083921 -1.4894 65280
-0.37330401 -0.083921 -1.4894 65280
-0.37041 -0.083921 -1.4894 65280
-0.36751601 -0.083921 -1.4894 65280
-0.364622 -0.083921 -1.4894 65280
-0.361729 -0.083921 -1.4894 65280
-0.35883501 -0.083921 -1.4894 65280
-0.355941 -0.083921 -1.4894 65280
-0.35304701 -0.083921 -1.4894 65280
-0.350153 -0.083921 -1.4894 65280
-0.34725901 -0.083921 -1.4894 65280
-0.34436601 -0.083921 -1.4894 65280
-0.341472 -0.083921 -1.4894 65280
-0.33857799 -0.083921 -1.4894 65280
-0.335684 -0.083921 -1.4894 65280
-0.33278999 -0.083921 -1.4894 65280
-0.32989699 -0.083921 -1.4894 65280
-0.327003 -0.083921 -1.4894 65280
-0.32410899 -0.083921 -1.4894 65280
-0.321215 -0.083921 -1.4894 65280
-0.31832099 -0.083921 -1.4894 65280
-0.31542701 -0.083921 -1.4894 65280
-0.312534 -0.083921 -1.4894 65280
-0.30963999 -0.083921 -1.4894 65280
-0.30674601 -0.083921 -1.4894 65280
-0.30385199 -0.083921 -1.4894 65280
-0.30095801 -0.083921 -1.4894 65280
-0.29806399 -0.083921 -1.4894 65280
-0.29517099 -0.083921 -1.4894 65280
-0.29227701 -0.083921 -1.4894 65280
-0.28938299 -0.083921 -1.4894 65280
-0.28648901 -0.083921 -1.4894 65280
-0.283595 -0.083921 -1.4894 65280
-0.28070101 -0.083921 -1.4894 65280
-0.27780801 -0.083921 -1.4894 65280
-0.274914 -0.083921 -1.4894 65280
-0.27202001 -0.083921 -1.4894 65280
-0.269126 -0.083921 -1.4894 65280
-0.26623201 -0.083921 -1.4894 65280
-0.263338 -0.083921 -1.4894 65280
-0.260445 -0.083921 -1.4894 65280
-0.25755101 -0.083921 -1.4894 65280
-0.254657 -0.083921 -1.4894 65280
-0.25176299 -0.083921 -1.4894 65280
-0.248869 -0.083921 -1.4894 65280
-0.245975 -0.083921 -1.4894 65280
-0.243082 -0.083921 -1.4894 65280
-0.240188 -0.083921 -1.4894 65280
-0.237294 -0.083921 -1.4894 65280
-0.2344 -0.083921 -1.4894 65280
-0.231506 -0.083921 -1.4894 65280
-0.228613 -0.083921 -1.4894 65280
-0.225719 -0.083921 -1.4894 65280
-0.22282501 -0.083921 -1.4894 65280
-0.21993101 -0.083921 -1.4894 65280
-0.21703701 -0.083921 -1.4894 65280
-0.21414299 -0.083921 -1.4894 65280
-0.21125001 -0.083921 -1.4894 65280
-0.20835599 -0.083921 -1.4894 65280
-0.20546199 -0.083921 -1.4894 65280
-0.20256799 -0.083921 -1.4894 65280
-0.199674 -0.083921 -1.4894 65280
-0.19678 -0.083921 -1.4894 65280
-0.193887 -0.083921 -1.4894 65280
-0.190993 -0.083921 -1.4894 65280
-0.188099 -0.083921 -1.4894 65280
-0.185205 -0.083921 -1.4894 65280
-0.182311 -0.083921 -1.4894 65280
-0.179417 -0.083921 -1.4894 65280
-0.176524 -0.083921 -1.4894 65280
-0.17363 -0.083921 -1.4894 65280
-0.170736 -0.083921 -1.4894 65280
-0.167842 -0.083921 -1.4894 65280
-0.164948 -0.083921 -1.4894 65280
-0.162054 -0.083921 -1.4894 65280
-0.159161 -0.083921 -1.4894 65280
-0.156267 -0.083921 -1.4894 65280
-0.153373 -0.083921 -1.4894 65280
-0.150479 -0.083921 -1.4894 65280
-0.147585 -0.083921 -1.4894 65280
-0.14469101 -0.083921 -1.4894 65280
-0.141798 -0.083921 -1.4894 65280
-0.13890401 -0.083921 -1.4894 65280
-0.13601001 -0.083921 -1.4894 65280
-0.13311601 -0.083921 -1.4894 65280
-0.13022199 -0.083921 -1.4894 65280
-0.12732799 -0.083921 -1.4894 65280
-0.124435 -0.083921 -1.4894 65280
-0.121541 -0.083921 -1.4894 65280
-0.118647 -0.083921 -1.4894 65280
-0.115753 -0.083921 -1.4894 65280
-0.112859 -0.083921 -1.4894 65280
-0.109966 -0.083921 -1.4894 65280
-0.107072 -0.083921 -1.4894 65280
-0.104178 -0.083921 -1.4894 65280
-0.101284 -0.083921 -1.4894 65280
-0.098390199 -0.083921 -1.4894 65280
-0.095496401 -0.083921 -1.4894 65280
-0.092602499 -0.083921 -1.4894 65280
-0.089708701 -0.083921 -1.4894 65280
-0.086814903 -0.083921 -1.4894 65280
-0.083921 -0.083921 -1.4894 65280
-0.081027202 -0.083921 -1.4894 65280
-0.078133397 -0.083921 -1.4894 65280
-0.075239599 -0.083921 -1.4894 65280
-0.072345696 -0.083921 -1.4894 65280
-0.069451898 -0.083921 -1.4894 65280
-0.0665581 -0.083921 -1.4894 65280
-0.063664198 -0.083921 -1.4894 65280
-0.0607704 -0.083921 -1.4894 65280
-0.057876602 -0.083921 -1.4894 65280
-0.0549828 -0.083921 -1.4894 65280
-0.052088901 -0.083921 -1.4894 65280
-0.0491951 -0.083921 -1.4894 65280
-0.046301302 -0.083921 -1.4894 65280
-0.043407399 -0.083921 -1.4894 65280
-0.040513601 -0.083921 -1.4894 65280
-0.037619799 -0.083921 -1.4894 65280
-0.034725901 -0.083921 -1.4894 65280
-0.031832099 -0.083921 -1.4894 65280
-0.028938301 -0.083921 -1.4894 65280
-0.026044499 -0.083921 -1.4894 65280
-0.0231506 -0.083921 -1.4894 65280
-0.020256801 -0.083921 -1.4894 65280
-0.017363001 -0.083921 -1.4894 65280
-0.0144691 -0.083921 -1.4894 65280
-0.0107246 -0.077753402 -1.37994 65280
-0.00802413 -0.077566601 -1.3766201 65280
-0.0053411499 -0.077446699 -1.3745 65280
-0.00266734 -0.077353001 -1.37283 65280
0 -0.077285901 -1.37164 65280
0.00266297 -0.077226304 -1.37058 65280
0.0053226999 -0.077179201 -1.36975 65280
0.0079816896 -0.077156298 -1.3693399 65280
0.0106425 -0.077157997 -1.36937 65280
0.0133074 -0.077182598 -1.36981 65280
0.015982101 -0.077246599 -1.37095 65280
0.0186779 -0.0773798 -1.37331 65280
0.021397 -0.077564299 -1.37658 65280
0.0241319 -0.077758297 -1.38003 65280
0.026887501 -0.077973597 -1.38385 65280
0.0297071 -0.0783187 -1.3899699 65280
0.032446399 -0.078412101 -1.3916301 65280
0.035186801 -0.078493699 -1.39308 65280
0.0379522 -0.0786153 -1.3952399 65280
0.043407399 -0.083921 -1.4894 65280
0.046301302 -0.083921 -1.4894 65280
0.0491951 -0.083921 -1.4894 65280
0.052088901 -0.083921 -1.4894 65280
0.0549828 -0.083921 -1.4894 65280
0.057876602 -0.083921 -1.4894 65280
0.0607704 -0.083921 -1.4894 65280
0.063664198 -0.083921 -1.4894 65280
0.0665581 -0.083921 -1.4894 65280
0.069451898 -0.083921 -1.4894 65280
0.072345696 -0.083921 -1.4894 65280
0.075239599 -0.083921 -1.4894 65280
0.078133397 -0.083921 -1.4894 65280
0.081027202 -0.083921 -1.4894 65280
0.083921 -0.083921 -1.4894 65280
0.086814903 -0.083921 -1.4894 65280
0.089708701 -0.083921 -1.4894 65280
0.092602499 -0.083921 -1.4894 65280
0.095496401 -0.083921 -1.4894 65280
0.098390199 -0.083921 -1.4894 65280
0.101284 -0.083921 -1.4894 65280
0.104178 -0.083921 -1.4894 65280
0.107072 -0.083921 -1.4894 65280
0.109966 -0.083921 -1.4894 65280
0.112859 -0.083921 -1.4894 65280
0.115753 -0.083921 -1.4894 65280
0.118647 -0.083921 -1.4894 65280
0.121541 -0.083921 -1.4894 65280
0.124435 -0.083921 -1.4894 65280
0.12732799 -0.083921 -1.4894 65280
0.13022199 -0.083921 -1.4894 65280
0.13311601 -0.083921 -1.4894 65280
0.13601001 -0.083921 -1.4894 65280
0.13890401 -0.083921 -1.4894 65280
0.141798 -0.083921 -1.4894 65280
0.14469101 -0.083921 -1.4894 65280
0.147585 -0.083921 -1.4894 65280
0.150479 -0.083921 -1.4894 65280
0.153373 -0.083921 -1.4894 65280
0.156267 -0.083921 -1.4894 65280
0.159161 -0.083921 -1.4894 65280
0.162054 -0.083921 -1.4894 65280
0.164948 -0.083921 -1.4894 65280
0.167842 -0.083921 -1.4894 65280
0.170736 -0.083921 -1.4894 65280
0.17363 -0.083921 -1.4894 65280
0.176524 -0.083921 -1.4894 65280
0.179417 -0.083921 -1.4894 65280
0.182311 -0.083921 -1.4894 65280
0.185205 -0.083921 -1.4894 65280
0.188099 -0.083921 -1.4894 65280
0.190993 -0.083921 -1.4894 65280
0.193887 -0.083921 -1.4894 65280
0.19678 -0.083921 -1.4894 65280
0.199674 -0.083921 -1.4894 65280
0.20256799 -0.083921 -1.4894 65280
0.20546199 -0.083921 -1.4894 65280
0.20835599 -0.083921 -1.4894 65280
0.21125001 -0.083921 -1.4894 65280
0.21414299 -0.083921 -1.4894 65280
0.21703701 -0.083921 -1.4894 65280
0.21993101 -0.083921 -1.4894 65280
0.22282501 -0.083921 -1.4894 65280
0.225719 -0.083921 -1.4894 65280
0.228613 -0.083921 -1.4894 65280
0.231506 -0.083921 -1.4894 65280
0.2344 -0.083921 -1.4894 65280
0.237294 -0.083921 -1.4894 65280
0.240188 -0.083921 -1.4894 65280
0.243082 -0.083921 -1.4894 65280
0.245975 -0.083921 -1.4894 65280
0.248869 -0.083921 -1.4894 65280
0.25176299 -0.083921 -1.4894 65280
0.254657 -0.083921 -1.4894 65280
0.25755101 -0.083921 -1.4894 65280
0.260445 -0.083921 -1.4894 65280
0.263338 -0.083921 -1.4894 65280
0.26623201 -0.083921 -1.4894 65280
0.269126 -0.083921 -1.4894 65280
0.27202001 -0.083921 -1.4894 65280
0.274914 -0.083921 -1.4894 65280
0.27780801 -0.083921 -1.4894 65280
0.28070101 -0.083921 -1.4894 65280
0.283595 -0.083921 -1.4894 65280
0.28648901 -0.083921 -1.4894 65280
0.28938299 -0.083921 -1.4894 65280
0.29227701 -0.083921 -1.4894 65280
0.29517099 -0.083921 -1.4894 65280
0.29806399 -0.083921 -1.4894 65280
0.30095801 -0.083921 -1.4894 65280
0.30385199 -0.083921 -1.4894 65280
0.30674601 -0.083921 -1.4894 65280
0.30963999 -0.083921 -1.4894 65280
0.312534 -0.083921 -1.4894 65280
0.31542701 -0.083921 -1.4894 65280
0.31832099 -0.083921 -1.4894 65280
0.321215 -0.083921 -1.4894 65280
0.32410899 -0.083921 -1.4894 65280
0.327003 -0.083921 -1.4894 65280
0.32989699 -0.083921 -1.4894 65280
0.33278999 -0.083921 -1.4894 65280
0.335684 -0.083921 -1.4894 65280
0.33857799 -0.083921 -1.4894 65280
0.341472 -0.083921 -1.4894 65280
0.34436601 -0.083921 -1.4894 65280
0.34725901 -0.083921 -1.4894 65280
0.350153 -0.083921 -1.4894 65280
0.35304701 -0.083921 -1.4894 65280
0.355941 -0.083921 -1.4894 65280
0.35883501 -0.083921 -1.4894 65280
0.361729 -0.083921 -1.4894 65280
0.364622 -0.083921 -1.4894 65280
0.36751601 -0.083921 -1.4894 65280
0.37041 -0.083921 -1.4894 65280
0.37330401 -0.083921 -1.4894 65280
0.37619799 -0.083921 -1.4894 65280
0.37909201 -0.083921 -1.4894 65280
0.38198501 -0.083921 -1.4894 65280
0.38487899 -0.083921 -1.4894 65280
0.38777301 -0.083921 -1.4894 65280
0.39066699 -0.083921 -1.4894 65280
0.39356101 -0.083921 -1.4894 65280
0.39645499 -0.083921 -1.4894 65280
-0.39897701 -0.080951899 -1.4880199 65280
-0.39608601 -0.080951899 -1.4880199 65280
-0.393195 -0.080951899 -1.4880199 65280
-0.390304 -0.080951899 -1.4880199 65280
-0.387413 -0.080951899 -1.4880199 65280
-0.38452199 -0.080951899 -1.4880199 65280
-0.38163099 -0.080951899 -1.4880199 65280
-0.378739 -0.080951899 -1.4880199 65280
-0.375848 -0.080951899 -1.4880199 65280
-0.37295699 -0.080951899 -1.4880199 65280
-0.37006599 -0.080951899 -1.4880199 65280
-0.36717501 -0.080951899 -1.4880199 65280
-0.36428401 -0.080951899 -1.4880199 65280
-0.361393 -0.080951899 -1.4880199 65280
-0.35850099 -0.080951899 -1.4880199 65280
-0.35561001 -0.080951899 -1.4880199 65280
-0.35271901 -0.080951899 -1.4880199 65280
-0.349828 -0.080951899 -1.4880199 65280
-0.346937 -0.080951899 -1.4880199 65280
-0.344046 -0.080951899 -1.4880199 65280
-0.34115499 -0.080951899 -1.4880199 65280
-0.33826301 -0.080951899 -1.4880199 65280
-0.335372 -0.080951899 -1.4880199 65280
-0.332481 -0.080951899 -1.4880199 65280
-0.32958999 -0.080951899 -1.4880199 65280
-0.32669899 -0.080951899 -1.4880199 65280
-0.32380801 -0.080951899 -1.4880199 65280
-0.32091701 -0.080951899 -1.4880199 65280
-0.31802499 -0.080951899 -1.4880199 65280
-0.31513399 -0.080951899 -1.4880199 65280
-0.31224301 -0.080951899 -1.4880199 65280
-0.30935201 -0.080951899 -1.4880199 65280
-0.30646101 -0.080951899 -1.4880199 65280
-0.30357 -0.080951899 -1.4880199 65280
-0.300679 -0.080951899 -1.4880199 65280
-0.29778799 -0.080951899 -1.4880199 65280
-0.29489601 -0.080951899 -1.4880199 65280
-0.292005 -0.080951899 -1.4880199 65280
-0.289114 -0.080951899 -1.4880199 65280
-0.28622299 -0.080951899 -1.4880199 65280
-0.28333199 -0.080951899 -1.4880199 65280
-0.28044099 -0.080951899 -1.4880199 65280
-0.27755001 -0.080951899 -1.4880199 65280
-0.27465799 -0.080951899 -1.4880199 65280
-0.27176699 -0.080951899 -1.4880199 65280
-0.26887599 -0.080951899 -1.4880199 65280
-0.26598501 -0.080951899 -1.4880199 65280
-0.26309401 -0.080951899 -1.4880199 65280
-0.260203 -0.080951899 -1.4880199 65280
-0.257312 -0.080951899 -1.4880199 65280
-0.25442001 -0.080951899 -1.4880199 65280
-0.25152901 -0.080951899 -1.4880199 65280
-0.248638 -0.080951899 -1.4880199 65280
-0.245747 -0.080951899 -1.4880199 65280
-0.242856 -0.080951899 -1.4880199 65280
-0.23996501 -0.080951899 -1.4880199 65280
-0.237074 -0.080951899 -1.4880199 65280
-0.234182 -0.080951899 -1.4880199 65280
-0.231291 -0.080951899 -1.4880199 65280
-0.22840001 -0.080951899 -1.4880199 65280
-0.225509 -0.080951899 -1.4880199 65280
-0.222618 -0.080951899 -1.4880199 65280
-0.21972699 -0.080951899 -1.4880199 65280
-0.21683601 -0.080951899 -1.4880199 65280
-0.213944 -0.080951899 -1.4880199 65280
-0.211053 -0.080951899 -1.4880199 65280
-0.20816199 -0.080951899 -1.4880199 65280
-0.20527101 -0.080951899 -1.4880199 65280
-0.20238 -0.080951899 -1.4880199 65280
-0.199489 -0.080951899 -1.4880199 65280
-0.19659799 -0.080951899 -1.4880199 65280
-0.19370601 -0.080951899 -1.4880199 65280
-0.190815 -0.080951899 -1.4880199 65280
-0.187924 -0.080951899 -1.4880199 65280
-0.18503299 -0.080951899 -1.4880199 65280
-0.182142 -0.080951899 -1.4880199 65280
-0.179251 -0.080951899 -1.4880199 65280
-0.17636 -0.080951899 -1.4880199 65280
-0.17346799 -0.080951899 -1.4880199 65280
-0.170577 -0.080951899 -1.4880199 65280
-0.167686 -0.080951899 -1.4880199 65280
-0.164795 -0.080951899 -1.4880199 65280
-0.16190401 -0.080951899 -1.4880199 65280
-0.159013 -0.080951899 -1.4880199 65280
-0.156122 -0.080951899 -1.4880199 65280
-0.15323 -0.080951899 -1.4880199 65280
-0.15033901 -0.080951899 -1.4880199 65280
-0.147448 -0.080951899 -1.4880199 65280
-0.144557 -0.080951899 -1.4880199 65280
-0.141666 -0.080951899 -1.4880199 65280
-0.13877501 -0.080951899 -1.4880199 65280
-0.135884 -0.080951899 -1.4880199 65280
-0.132992 -0.080951899 -1.4880199 65280
-0.130101 -0.080951899 -1.4880199 65280
-0.12721001 -0.080951899 -1.4880199 65280
-0.124319 -0.080951899 -1.4880199 65280
-0.121428 -0.080951899 -1.4880199 65280
-0.118537 -0.080951899 -1.4880199 65280
-0.115646 -0.080951899 -1.4880199 65280
-0.112754 -0.080951899 -1.4880199 65280
-0.109863 -0.080951899 -1.4880199 65280
-0.106972 -0.080951899 -1.4880199 65280
-0.104081 -0.080951899 -1.4880199 65280
-0.10119 -0.080951899 -1.4880199 65280
-0.098298803 -0.080951899 -1.4880199 65280
-0.095407598 -0.080951899 -1.4880199 65280
-0.092516497 -0.080951899 -1.4880199 65280
-0.089625403 -0.080951899 -1.4880199 65280
-0.086734198 -0.080951899 -1.4880199 65280
-0.083843097 -0.080951899 -1.4880199 65280
-0.080951899 -0.080951899 -1.4880199 65280
-0.078060798 -0.080951899 -1.4880199 65280
-0.075169697 -0.080951899 -1.4880199 65280
-0.0722785 -0.080951899 -1.4880199 65280
-0.069387399 -0.080951899 -1.4880199 65280
-0.066496201 -0.080951899 -1.4880199 65280
-0.0636051 -0.080951899 -1.4880199 65280
-0.060713999 -0.080951899 -1.4880199 65280
-0.057822801 -0.080951899 -1.4880199 65280
-0.0549317 -0.080951899 -1.4880199 65280
-0.052040499 -0.080951899 -1.4880199 65280
-0.049149401 -0.080951899 -1.4880199 65280
-0.046258301 -0.080951899 -1.4880199 65280
-0.043367099 -0.080951899 -1.4880199 65280
-0.040476002 -0.080951899 -1.4880199 65280
-0.0375848 -0.080951899 -1.4880199 65280
-0.034693699 -0.080951899 -1.4880199 65280
-0.031802502 -0.080951899 -1.4880199 65280
-0.028911401 -0.080951899 -1.4880199 65280
-0.0260203 -0.080951899 -1.4880199 65280
-0.0231291 -0.080951899 -1.4880199 65280
-0.020238001 -0.080951899 -1.4880199 65280
-0.017346799 -0.080951899 -1.4880199 65280
-0.013433 -0.075224698 -1.38274 65280
-0.0107062 -0.0749432 -1.37757 65280
-0.0080141798 -0.074799001 -1.37492 65280
-0.0053353999 -0.074695602 -1.3730201 65280
-0.002665 -0.074620001 -1.37163 65280
0 -0.074560799 -1.37054 65280
0.0026612701 -0.0745157 -1.36971 65280
0.0053208601 -0.074492097 -1.36928 65280
0.0079802396 -0.074482299 -1.36909 65280
0.0106415 -0.074490704 -1.3692501 65280
0.0133074 -0.074521199 -1.36981 65280
0.015982799 -0.074586503 -1.3710099 65280
0.018678799 -0.0747151 -1.3733799 65280
0.021382101 -0.074837498 -1.37562 65280
0.024101701 -0.074983202 -1.3783 65280
0.026844 -0.0751632 -1.38161 65280
0.0296316 -0.075425804 -1.38644 65280
0.032430202 -0.075670399 -1.3909301 65280
0.035179298 -0.075770803 -1.3927799 65280
0.0379766 -0.075953297 -1.39613 65280
0.043367099 -0.080951899 -1.4880199 65280
0.046258301 -0.080951899 -1.4880199 65280
0.049149401 -0.080951899 -1.4880199 65280
0.052040499 -0.080951899 -1.4880199 65280
0.0549317 -0.080951899 -1.4880199 65280
0.057822801 -0.080951899 -1.4880199 65280
0.060713999 -0.080951899 -1.4880199 65280
0.0636051 -0.080951899 -1.4880199 65280
0.066496201 -0.080951899 -1.4880199 65280
0.069387399 -0.080951899 -1.4880199 65280
0.0722785 -0.080951899 -1.4880199 65280
0.075169697 -0.080951899 -1.4880199 65280
0.078060798 -0.080951899 -1.4880199 65280
0.080951899 -0.080951899 -1.4880199 65280
0.083843097 -0.080951899 -1.4880199 65280
0.086734198 -0.080951899 -1.4880199 65280
0.089625403 -0.080951899 -1.4880199 65280
0.092516497 -0.080951899 -1.4880199 65280
0.095407598 -0.080951899 -1.4880199 65280
0.098298803 -0.080951899 -1.4880199 65280
0.10119 -0.080951899 -1.4880199 65280
0.104081 -0.080951899 -1.4880199 65280
0.106972 -0.080951899 -1.4880199 65280
0.109863 -0.080951899 -1.4880199 65280
0.112754 -0.080951899 -1.4880199 65280
0.115646 -0.080951899 -1.4880199 65280
0.118537 -0.080951899 -1.4880199 65280
0.121428 -0.080951899 -1.4880199 65280
0.124319 -0.080951899 -1.4880199 65280
0.12721001 -0.080951899 -1.4880199 65280
0.130101 -0.080951899 -1.4880199 65280
0.132992 -0.080951899 -1.4880199 65280
0.135884 -0.080951899 -1.4880199 65280
0.13877501 -0.080951899 -1.4880199 65280
0.141666 -0.080951899 -1.4880199 65280
0.144557 -0.080951899 -1.4880199 65280
0.147448 -0.080951899 -1.4880199 65280
0.15033901 -0.080951899 -1.4880199 65280
0.15323 -0.080951899 -1.4880199 65280
0.156122 -0.080951899 -1.4880199 65280
0.159013 -0.080951899 -1.4880199 65280
0.16190401 -0.080951899 -1.4880199 65280
0.164795 -0.080951899 -1.4880199 65280
0.167686 -0.080951899 -1.4880199 65280
0.170577 -0.080951899 -1.4880199 65280
0.17346799 -0.080951899 -1.4880199 65280
0.17636 -0.080951899 -1.4880199 65280
0.179251 -0.080951899 -1.4880199 65280
0.182142 -0.080951899 -1.4880199 65280
0.18503299 -0.080951899 -1.4880199 65280
0.187924 -0.080951899 -1.4880199 65280
0.190815 -0.080951899 -1.4880199 65280
0.19370601 -0.080951899 -1.4880199 65280
0.19659799 -0.080951899 -1.4880199 65280
0.199489 -0.080951899 -1.4880199 65280
0.20238 -0.080951899 -1.4880199 65280
0.20527101 -0.080951899 -1.4880199 65280
0.20816199 -0.080951899 -1.4880199 65280
0.211053 -0.080951899 -1.4880199 65280
0.213944 -0.080951899 -1.4880199 65280
0.21683601 -0.080951899 -1.4880199 65280
0.21972699 -0.080951899 -1.4880199 65280
0.222618 -0.080951899 -1.4880199 65280
0.225509 -0.080951899 -1.4880199 65280
0.22840001 -0.080951899 -1.4880199 65280
0.231291 -0.080951899 -1.4880199 65280
0.234182 -0.080951899 -1.4880199 65280
0.237074 -0.080951899 -1.4880199 65280
0.23996501 -0.080951899 -1.4880199 65280
0.242856 -0.080951899 -1.4880199 65280
0.245747 -0.080951899 -1.4880199 65280
0.248638 -0.080951899 -1.4880199 65280
0.25152901 -0.080951899 -1.4880199 65280
0.25442001 -0.080951899 -1.4880199 65280
0.257312 -0.080951899 -1.4880199 65280
0.260203 -0.080951899 -1.4880199 65280
0.26309401 -0.080951899 -1.4880199 65280
0.26598501 -0.080951899 -1.4880199 65280
0.26887599 -0.080951899 -1.4880199 65280
0.27176699 -0.080951899 -1.4880199 65280
0.27465799 -0.080951899 -1.4880199 65280
0.27755001 -0.080951899 -1.4880199 65280
0.28044099 -0.080951899 -1.4880199 65280
0.28333199 -0.080951899 -1.4880199 65280
0.28622299 -0.080951899 -1.4880199 65280
0.289114 -0.080951899 -1.4880199 65280
0.292005 -0.080951899 -1.4880199 65280
0.29489601 -0.080951899 -1.4880199 65280
0.29778799 -0.080951899 -1.4880199 65280
0.300679 -0.080951899 -1.4880199 65280
0.30357 -0.080951899 -1.4880199 65280
0.30646101 -0.080951899 -1.4880199 65280
0.30935201 -0.080951899 -1.4880199 65280
