# .PCD v0.7 - Point Cloud Data file format
VERSION 0.7
FIELDS x y z rgb
SIZE 4 4 4 4
TYPE F F F U
COUNT 1 1 1 1
WIDTH 1306
HEIGHT 1
VIEWPOINT 0 0 0 1 0 0 0
POINTS 1306
DATA ascii
-0.25599501 0.0389557 -1.43213 65280
-0.253212 0.0389557 -1.43213 65280
-0.25042999 0.0389557 -1.43213 65280
-0.247647 0.0389557 -1.43213 65280
-0.244865 0.0389557 -1.43213 65280
-0.242082 0.0389557 -1.43213 65280
-0.2393 0.0389557 -1.43213 65280
-0.236517 0.0389557 -1.43213 65280
-0.233734 0.0389557 -1.43213 65280
-0.23095199 0.0389557 -1.43213 65280
-0.22816899 0.0389557 -1.43213 65280
-0.22538701 0.0389557 -1.43213 65280
-0.22260401 0.0389557 -1.43213 65280
-0.20382001 0.036120001 -1.32788 65280
-0.20072199 0.036026999 -1.32446 65280
-0.197852 0.035973102 -1.32248 65280
-0.19507299 0.035934601 -1.3210599 65280
-0.19234499 0.035904299 -1.31995 65280
-0.189686 0.0358865 -1.31929 65280
-0.187052 0.035873 -1.3188 65280
-0.184467 0.035868499 -1.31863 65280
-0.18191101 0.0358699 -1.31868 65280
-0.17939299 0.035878502 -1.319 65280
-0.17692199 0.035897199 -1.31969 65280
-0.174522 0.035930902 -1.32093 65280
-0.17218 0.0359779 -1.32265 65280
-0.16981401 0.036021098 -1.32424 65280
-0.167483 0.036073301 -1.32616 65280
-0.165159 0.036128599 -1.32819 65280
-0.162955 0.036212299 -1.33127 65280
-0.16077501 0.036304101 -1.33465 65280
-0.15864199 0.036409698 -1.3385299 65280
-0.156206 0.036448099 -1.33994 65280
-0.15383901 0.036504202 -1.342 65280
-0.157443 0.038003501 -1.39712 65280
-0.15860599 0.0389557 -1.43213 65280
-0.15582301 0.0389557 -1.43213 65280
-0.15304001 0.0389557 -1.43213 65280
-0.150258 0.0389557 -1.43213 65280
-0.147475 0.0389557 -1.43213 65280
-0.144693 0.0389557 -1.43213 65280
-0.14191 0.0389557 -1.43213 65280
-0.139128 0.0389557 -1.43213 65280
-0.136345 0.0389557 -1.43213 65280
-0.133563 0.0389557 -1.43213 65280
-0.13078 0.0389557 -1.43213 65280
-0.127997 0.0389557 -1.43213 65280
-0.12521499 0.0389557 -1.43213 65280
-0.122432 0.0389557 -1.43213 65280
-0.11965 0.0389557 -1.43213 65280
-0.116867 0.0389557 -1.43213 65280
-0.114085 0.0389557 -1.43213 65280
-0.111302 0.0389557 -1.43213 65280
-0.10852 0.0389557 -1.43213 65280
-0.105737 0.0389557 -1.43213 65280
-0.102954 0.0389557 -1.43213 65280
-0.100172 0.0389557 -1.43213 65280
-0.0973894 0.0389557 -1.43213 65280
-0.094606802 0.0389557 -1.43213 65280
-0.091824301 0.0389557 -1.43213 65280
-0.089041702 0.0389557 -1.43213 65280
-0.086259201 0.0389557 -1.43213 65280
-0.083476603 0.0389557 -1.43213 65280
-0.080693997 0.0389557 -1.43213 65280
-0.077911504 0.0389557 -1.43213 65280
-0.075128898 0.0389557 -1.43213 65280
-0.072346397 0.0389557 -1.43213 65280
-0.069563799 0.0389557 -1.43213 65280
-0.066781297 0.0389557 -1.43213 65280
-0.063998699 0.0389557 -1.43213 65280
-0.061216202 0.0389557 -1.43213 65280
-0.0584336 0.0389557 -1.43213 65280
-0.055651098 0.0389557 -1.43213 65280
-0.0528685 0.0389557 -1.43213 65280
-0.050085999 0.0389557 -1.43213 65280
-0.047303401 0.0389557 -1.43213 65280
-0.0445209 0.0389557 -1.43213 65280
-0.041738302 0.0389557 -1.43213 65280
-0.0389557 0.0389557 -1.43213 65280
-0.036173198 0.0389557 -1.43213 65280
-0.0333906 0.0389557 -1.43213 65280
-0.030608101 0.0389557 -1.43213 65280
-0.027825501 0.0389557 -1.43213 65280
-0.025043 0.0389557 -1.43213 65280
-0.0222604 0.0389557 -1.43213 65280
-0.0194779 0.0389557 -1.43213 65280
-0.0166953 0.0389557 -1.43213 65280
-0.0139128 0.0389557 -1.43213 65280
-0.0111302 0.0389557 -1.43213 65280
-0.0083476603 0.0389557 -1.43213 65280
-0.0055651101 0.0389557 -1.43213 65280
-0.0027825499 0.0389557 -1.43213 65280
0 0.0389557 -1.43213 65280
0.0027825499 0.0389557 -1.43213 65280
0.0055651101 0.0389557 -1.43213 65280
0.0083476603 0.0389557 -1.43213 65280
0.0111302 0.0389557 -1.43213 65280
0.0139128 0.0389557 -1.43213 65280
0.0166953 0.0389557 -1.43213 65280
0.0194779 0.0389557 -1.43213 65280
0.0222604 0.0389557 -1.43213 65280
0.025043 0.0389557 -1.43213 65280
0.027825501 0.0389557 -1.43213 65280
0.030608101 0.0389557 -1.43213 65280
0.0333906 0.0389557 -1.43213 65280
0.036173198 0.0389557 -1.43213 65280
0.0389557 0.0389557 -1.43213 65280
0.041738302 0.0389557 -1.43213 65280
0.0445209 0.0389557 -1.43213 65280
0.047303401 0.0389557 -1.43213 65280
0.050085999 0.0389557 -1.43213 65280
0.0528685 0.0389557 -1.43213 65280
0.055651098 0.0389557 -1.43213 65280
0.0584336 0.0389557 -1.43213 65280
0.061216202 0.0389557 -1.43213 65280
0.063998699 0.0389557 -1.43213 65280
0.066781297 0.0389557 -1.43213 65280
0.069563799 0.0389557 -1.43213 65280
0.072346397 0.0389557 -1.43213 65280
0.075128898 0.0389557 -1.43213 65280
0.077911504 0.0389557 -1.43213 65280
0.080693997 0.0389557 -1.43213 65280
0.083476603 0.0389557 -1.43213 65280
0.086259201 0.0389557 -1.43213 65280
0.089041702 0.0389557 -1.43213 65280
0.091824301 0.0389557 -1.43213 65280
0.094606802 0.0389557 -1.43213 65280
0.0973894 0.0389557 -1.43213 65280
0.100172 0.0389557 -1.43213 65280
0.102954 0.0389557 -1.43213 65280
0.105737 0.0389557 -1.43213 65280
0.10852 0.0389557 -1.43213 65280
0.111302 0.0389557 -1.43213 65280
0.114085 0.0389557 -1.43213 65280
0.116867 0.0389557 -1.43213 65280
0.11965 0.0389557 -1.43213 65280
0.122432 0.0389557 -1.43213 65280
0.12521499 0.0389557 -1.43213 65280
0.127997 0.0389557 -1.43213 65280
0.13078 0.0389557 -1.43213 65280
0.133563 0.0389557 -1.43213 65280
0.136345 0.0389557 -1.43213 65280
0.139128 0.0389557 -1.43213 65280
0.14191 0.0389557 -1.43213 65280
0.144693 0.0389557 -1.43213 65280
0.147475 0.0389557 -1.43213 65280
0.150258 0.0389557 -1.43213 65280
0.15304001 0.0389557 -1.43213 65280
0.15582301 0.0389557 -1.43213 65280
0.15860599 0.0389557 -1.43213 65280
0.16138799 0.0389557 -1.43213 65280
0.164171 0.0389557 -1.43213 65280
0.166953 0.0389557 -1.43213 65280
0.169736 0.0389557 -1.43213 65280
0.172518 0.0389557 -1.43213 65280
0.175301 0.0389557 -1.43213 65280
0.178083 0.0389557 -1.43213 65280
0.180866 0.0389557 -1.43213 65280
0.183649 0.0389557 -1.43213 65280
0.18643101 0.0389557 -1.43213 65280
0.18921401 0.0389557 -1.43213 65280
0.19199599 0.0389557 -1.43213 65280
0.19477899 0.0389557 -1.43213 65280
0.197561 0.0389557 -1.43213 65280
0.200344 0.0389557 -1.43213 65280
0.203126 0.0389557 -1.43213 65280
0.205909 0.0389557 -1.43213 65280
0.208692 0.0389557 -1.43213 65280
0.211474 0.0389557 -1.43213 65280
0.214257 0.0389557 -1.43213 65280
0.217039 0.0389557 -1.43213 65280
0.219822 0.0389557 -1.43213 65280
0.22260401 0.0389557 -1.43213 65280
0.22538701 0.0389557 -1.43213 65280
0.22816899 0.0389557 -1.43213 65280
0.23095199 0.0389557 -1.43213 65280
0.233734 0.0389557 -1.43213 65280
0.236517 0.0389557 -1.43213 65280
0.2393 0.0389557 -1.43213 65280
0.242082 0.0389557 -1.43213 65280
0.244865 0.0389557 -1.43213 65280
0.247647 0.0389557 -1.43213 65280
0.25042999 0.0389557 -1.43213 65280
0.253212 0.0389557 -1.43213 65280
0.25599501 0.0389557 -1.43213 65280
0.25877699 0.0389557 -1.43213 65280
0.26155999 0.0389557 -1.43213 65280
0.26434299 0.0389557 -1.43213 65280
0.26712501 0.0389557 -1.43213 65280
0.26990801 0.0389557 -1.43213 65280
0.27269 0.0389557 -1.43213 65280
0.275473 0.0389557 -1.43213 65280
0.27825499 0.0389557 -1.43213 65280
0.28103799 0.0389557 -1.43213 65280
0.28382 0.0389557 -1.43213 65280
0.286603 0.0389557 -1.43213 65280
0.289386 0.0389557 -1.43213 65280
0.29216799 0.0389557 -1.43213 65280
0.29495099 0.0389557 -1.43213 65280
0.29773301 0.0389557 -1.43213 65280
0.30051601 0.0389557 -1.43213 65280
0.303298 0.0389557 -1.43213 65280
0.306081 0.0389557 -1.43213 65280
0.30886301 0.0389557 -1.43213 65280
0.31164601 0.0389557 -1.43213 65280
0.31442899 0.0389557 -1.43213 65280
0.317211 0.0389557 -1.43213 65280
0.319994 0.0389557 -1.43213 65280
0.32277599 0.0389557 -1.43213 65280
0.32555899 0.0389557 -1.43213 65280
0.32834101 0.0389557 -1.43213 65280
0.33112401 0.0389557 -1.43213 65280
0.33390599 0.0389557 -1.43213 65280
0.336689 0.0389557 -1.43213 65280
0.339472 0.0389557 -1.43213 65280
0.34225401 0.0389557 -1.43213 65280
0.34503701 0.0389557 -1.43213 65280
0.347819 0.0389557 -1.43213 65280
0.350602 0.0389557 -1.43213 65280
0.35338399 0.0389557 -1.43213 65280
0.35616699 0.0389557 -1.43213 65280
0.35894901 0.0389557 -1.43213 65280
0.36173201 0.0389557 -1.43213 65280
0.36451399 0.0389557 -1.43213 65280
0.36729699 0.0389557 -1.43213 65280
0.37007999 0.0389557 -1.43213 65280
0.37286201 0.0389557 -1.43213 65280
0.37564501 0.0389557 -1.43213 65280
0.378427 0.0389557 -1.43213 65280
0.38121 0.0389557 -1.43213 65280
0.38399199 0.0389557 -1.43213 65280
0.38677499 0.0389557 -1.43213 65280
0.389557 0.0389557 -1.43213 65280
0.39234 0.0389557 -1.43213 65280
0.395123 0.0389557 -1.43213 65280
0.39790499 0.0389557 -1.43213 65280
-0.40033001 0.041701 -1.43085 65280
-0.39754999 0.041701 -1.43085 65280
-0.39477 0.041701 -1.43085 65280
-0.39199001 0.041701 -1.43085 65280
-0.389209 0.041701 -1.43085 65280
-0.38642901 0.041701 -1.43085 65280
-0.38364899 0.041701 -1.43085 65280
-0.380869 0.041701 -1.43085 65280
-0.37808901 0.041701 -1.43085 65280
-0.37530899 0.041701 -1.43085 65280
-0.372529 0.041701 -1.43085 65280
-0.36974901 0.041701 -1.43085 65280
-0.36696899 0.041701 -1.43085 65280
-0.364189 0.041701 -1.43085 65280
-0.36140901 0.041701 -1.43085 65280
-0.35862899 0.041701 -1.43085 65280
-0.355849 0.041701 -1.43085 65280
-0.35306901 0.041701 -1.43085 65280
-0.35028899 0.041701 -1.43085 65280
-0.34750801 0.041701 -1.43085 65280
-0.34472799 0.041701 -1.43085 65280
-0.341948 0.041701 -1.43085 65280
-0.33916801 0.041701 -1.43085 65280
-0.33638799 0.041701 -1.43085 65280
-0.333608 0.041701 -1.43085 65280
-0.33082801 0.041701 -1.43085 65280
-0.32804799 0.041701 -1.43085 65280
-0.325268 0.041701 -1.43085 65280
-0.32248801 0.041701 -1.43085 65280
-0.31970799 0.041701 -1.43085 65280
-0.316928 0.041701 -1.43085 65280
-0.31414801 0.041701 -1.43085 65280
-0.31136799 0.041701 -1.43085 65280
-0.308588 0.041701 -1.43085 65280
-0.30580699 0.041701 -1.43085 65280
-0.303027 0.041701 -1.43085 65280
-0.30024701 0.041701 -1.43085 65280
-0.29746699 0.041701 -1.43085 65280
-0.294687 0.041701 -1.43085 65280
-0.29190701 0.041701 -1.43085 65280
-0.28912699 0.041701 -1.43085 65280
-0.286347 0.041701 -1.43085 65280
-0.28356701 0.041701 -1.43085 65280
-0.28078699 0.041701 -1.43085 65280
-0.278007 0.041701 -1.43085 65280
-0.27522701 0.041701 -1.43085 65280
-0.27244699 0.041701 -1.43085 65280
-0.269667 0.041701 -1.43085 65280
-0.26688701 0.041701 -1.43085 65280
-0.26410601 0.041701 -1.43085 65280
-0.26132599 0.041701 -1.43085 65280
-0.25854599 0.041701 -1.43085 65280
-0.255766 0.041701 -1.43085 65280
-0.25298601 0.041701 -1.43085 65280
-0.25020599 0.041701 -1.43085 65280
-0.247426 0.041701 -1.43085 65280
-0.244646 0.041701 -1.43085 65280
-0.24186601 0.041701 -1.43085 65280
-0.239086 0.041701 -1.43085 65280
-0.236306 0.041701 -1.43085 65280
-0.23352601 0.041701 -1.43085 65280
-0.230746 0.041701 -1.43085 65280
-0.227966 0.041701 -1.43085 65280
-0.22518501 0.041701 -1.43085 65280
-0.222405 0.041701 -1.43085 65280
-0.20359901 0.038658001 -1.32644 65280
-0.20058399 0.038573802 -1.32355 65280
-0.19774 0.038520701 -1.32173 65280
-0.19497 0.038481001 -1.3203599 65280
-0.19228999 0.0384579 -1.3195699 65280
-0.189632 0.038438801 -1.31892 65280
-0.18702599 0.038430098 -1.31862 65280
-0.18444499 0.038426101 -1.31848 65280
-0.181899 0.038429301 -1.31859 65280
-0.17939299 0.038441401 -1.31901 65280
-0.176935 0.038464099 -1.31978 65280
-0.174539 0.038501199 -1.3210599 65280
-0.172152 0.038541399 -1.32244 65280
-0.16978399 0.038587201 -1.32401 65280
-0.16745999 0.038644701 -1.3259799 65280
-0.16520099 0.038718902 -1.32853 65280
-0.16298699 0.038806502 -1.33153 65280
-0.16087601 0.038921501 -1.33548 65280
-0.158583 0.038995702 -1.33802 65280
-0.156186 0.0390465 -1.33977 65280
-0.153993 0.039150901 -1.3433501 65280
-0.156509 0.0404764 -1.3888299 65280
-0.15491401 0.040766701 -1.39879 65280
-0.15568399 0.041701 -1.43085 65280
-0.152904 0.041701 -1.43085 65280
-0.150124 0.041701 -1.43085 65280
-0.14734399 0.041701 -1.43085 65280
-0.144564 0.041701 -1.43085 65280
-0.141783 0.041701 -1.43085 65280
-0.13900299 0.041701 -1.43085 65280
-0.136223 0.041701 -1.43085 65280
-0.133443 0.041701 -1.43085 65280
-0.13066299 0.041701 -1.43085 65280
-0.127883 0.041701 -1.43085 65280
-0.125103 0.041701 -1.43085 65280
-0.122323 0.041701 -1.43085 65280
-0.119543 0.041701 -1.43085 65280
-0.116763 0.041701 -1.43085 65280
-0.113983 0.041701 -1.43085 65280
-0.111203 0.041701 -1.43085 65280
-0.108423 0.041701 -1.43085 65280
-0.105643 0.041701 -1.43085 65280
-0.102863 0.041701 -1.43085 65280
-0.100082 0.041701 -1.43085 65280
-0.0973024 0.041701 -1.43085 65280
-0.094522297 0.041701 -1.43085 65280
-0.091742203 0.041701 -1.43085 65280
-0.088962197 0.041701 -1.43085 65280
-0.086182103 0.041701 -1.43085 65280
-0.083402 0.041701 -1.43085 65280
-0.080622002 0.041701 -1.43085 65280
-0.0778419 0.041701 -1.43085 65280
-0.075061798 0.041701 -1.43085 65280
-0.0722818 0.041701 -1.43085 65280
-0.069501698 0.041701 -1.43085 65280
-0.066721603 0.041701 -1.43085 65280
-0.063941598 0.041701 -1.43085 65280
-0.061161499 0.041701 -1.43085 65280
-0.058381401 0.041701 -1.43085 65280
-0.055601399 0.041701 -1.43085 65280
-0.052821301 0.041701 -1.43085 65280
-0.050041199 0.041701 -1.43085 65280
-0.047261201 0.041701 -1.43085 65280
-0.044481099 0.041701 -1.43085 65280
-0.041701 0.041701 -1.43085 65280
-0.038920902 0.041701 -1.43085 65280
-0.0361409 0.041701 -1.43085 65280
-0.033360802 0.041701 -1.43085 65280
-0.030580699 0.041701 -1.43085 65280
-0.0278007 0.041701 -1.43085 65280
-0.025020599 0.041701 -1.43085 65280
-0.022240501 0.041701 -1.43085 65280
-0.019460499 0.041701 -1.43085 65280
-0.016680401 0.041701 -1.43085 65280
-0.0139003 0.041701 -1.43085 65280
-0.0111203 0.041701 -1.43085 65280
-0.0083402004 0.041701 -1.43085 65280
-0.0055601401 0.041701 -1.43085 65280
-0.0027800701 0.041701 -1.43085 65280
0 0.041701 -1.43085 65280
0.0027800701 0.041701 -1.43085 65280
0.0055601401 0.041701 -1.43085 65280
0.0083402004 0.041701 -1.43085 65280
0.0111203 0.041701 -1.43085 65280
0.0139003 0.041701 -1.43085 65280
0.016680401 0.041701 -1.43085 65280
0.019460499 0.041701 -1.43085 65280
0.022240501 0.041701 -1.43085 65280
0.025020599 0.041701 -1.43085 65280
0.0278007 0.041701 -1.43085 65280
0.030580699 0.041701 -1.43085 65280
0.033360802 0.041701 -1.43085 65280
0.0361409 0.041701 -1.43085 65280
0.038920902 0.041701 -1.43085 65280
0.041701 0.041701 -1.43085 65280
0.044481099 0.041701 -1.43085 65280
0.047261201 0.041701 -1.43085 65280
0.050041199 0.041701 -1.43085 65280
0.052821301 0.041701 -1.43085 65280
0.055601399 0.041701 -1.43085 65280
0.058381401 0.041701 -1.43085 65280
0.061161499 0.041701 -1.43085 65280
0.063941598 0.041701 -1.43085 65280
0.066721603 0.041701 -1.43085 65280
0.069501698 0.041701 -1.43085 65280
0.0722818 0.041701 -1.43085 65280
0.075061798 0.041701 -1.43085 65280
0.0778419 0.041701 -1.43085 65280
0.080622002 0.041701 -1.43085 65280
0.083402 0.041701 -1.43085 65280
0.086182103 0.041701 -1.43085 65280
0.088962197 0.041701 -1.43085 65280
0.091742203 0.041701 -1.43085 65280
0.094522297 0.041701 -1.43085 65280
0.0973024 0.041701 -1.43085 65280
0.100082 0.041701 -1.43085 65280
0.102863 0.041701 -1.43085 65280
0.105643 0.041701 -1.43085 65280
0.108423 0.041701 -1.43085 65280
0.111203 0.041701 -1.43085 65280
0.113983 0.041701 -1.43085 65280
0.116763 0.041701 -1.43085 65280
0.119543 0.041701 -1.43085 65280
0.122323 0.041701 -1.43085 65280
0.125103 0.041701 -1.43085 65280
0.127883 0.041701 -1.43085 65280
0.13066299 0.041701 -1.43085 65280
0.133443 0.041701 -1.43085 65280
0.136223 0.041701 -1.43085 65280
0.13900299 0.041701 -1.43085 65280
0.141783 0.041701 -1.43085 65280
0.144564 0.041701 -1.43085 65280
0.14734399 0.041701 -1.43085 65280
0.150124 0.041701 -1.43085 65280
0.152904 0.041701 -1.43085 65280
0.15568399 0.041701 -1.43085 65280
0.158464 0.041701 -1.43085 65280
0.161244 0.041701 -1.43085 65280
0.164024 0.041701 -1.43085 65280
0.166804 0.041701 -1.43085 65280
0.16958401 0.041701 -1.43085 65280
0.172364 0.041701 -1.43085 65280
0.175144 0.041701 -1.43085 65280
0.17792401 0.041701 -1.43085 65280
0.180704 0.041701 -1.43085 65280
0.183484 0.041701 -1.43085 65280
0.18626501 0.041701 -1.43085 65280
0.189045 0.041701 -1.43085 65280
0.191825 0.041701 -1.43085 65280
0.19460499 0.041701 -1.43085 65280
0.197385 0.041701 -1.43085 65280
0.200165 0.041701 -1.43085 65280
0.20294499 0.041701 -1.43085 65280
0.205725 0.041701 -1.43085 65280
0.208505 0.041701 -1.43085 65280
0.211285 0.041701 -1.43085 65280
0.214065 0.041701 -1.43085 65280
0.21684501 0.041701 -1.43085 65280
0.219625 0.041701 -1.43085 65280
0.222405 0.041701 -1.43085 65280
0.22518501 0.041701 -1.43085 65280
0.227966 0.041701 -1.43085 65280
0.230746 0.041701 -1.43085 65280
0.23352601 0.041701 -1.43085 65280
0.236306 0.041701 -1.43085 65280
0.239086 0.041701 -1.43085 65280
0.24186601 0.041701 -1.43085 65280
0.244646 0.041701 -1.43085 65280
0.247426 0.041701 -1.43085 65280
0.25020599 0.041701 -1.43085 65280
0.25298601 0.041701 -1.43085 65280
0.255766 0.041701 -1.43085 65280
0.25854599 0.041701 -1.43085 65280
0.26132599 0.041701 -1.43085 65280
0.26410601 0.041701 -1.43085 65280
0.26688701 0.041701 -1.43085 65280
0.269667 0.041701 -1.43085 65280
0.27244699 0.041701 -1.43085 65280
0.27522701 0.041701 -1.43085 65280
0.278007 0.041701 -1.43085 65280
0.28078699 0.041701 -1.43085 65280
0.28356701 0.041701 -1.43085 65280
0.286347 0.041701 -1.43085 65280
0.28912699 0.041701 -1.43085 65280
0.29190701 0.041701 -1.43085 65280
0.294687 0.041701 -1.43085 65280
0.29746699 0.041701 -1.43085 65280
0.30024701 0.041701 -1.43085 65280
0.303027 0.041701 -1.43085 65280
0.30580699 0.041701 -1.43085 65280
0.308588 0.041701 -1.43085 65280
0.31136799 0.041701 -1.43085 65280
0.31414801 0.041701 -1.43085 65280
0.316928 0.041701 -1.43085 65280
0.31970799 0.041701 -1.43085 65280
0.32248801 0.041701 -1.43085 65280
0.325268 0.041701 -1.43085 65280
0.32804799 0.041701 -1.43085 65280
0.33082801 0.041701 -1.43085 65280
0.333608 0.041701 -1.43085 65280
0.33638799 0.041701 -1.43085 65280
0.33916801 0.041701 -1.43085 65280
0.341948 0.041701 -1.43085 65280
0.34472799 0.041701 -1.43085 65280
0.34750801 0.041701 -1.43085 65280
0.35028899 0.041701 -1.43085 65280
0.35306901 0.041701 -1.43085 65280
0.355849 0.041701 -1.43085 65280
0.35862899 0.041701 -1.43085 65280
0.36140901 0.041701 -1.43085 65280
0.364189 0.041701 -1.43085 65280
0.36696899 0.041701 -1.43085 65280
0.36974901 0.041701 -1.43085 65280
0.372529 0.041701 -1.43085 65280
0.37530899 0.041701 -1.43085 65280
0.37808901 0.041701 -1.43085 65280
0.380869 0.041701 -1.43085 65280
0.38364899 0.041701 -1.43085 65280
0.38642901 0.041701 -1.43085 65280
0.389209 0.041701 -1.43085 65280
0.39199001 0.041701 -1.43085 65280
0.39477 0.041701 -1.43085 65280
0.39754999 0.041701 -1.43085 65280
-0.39997199 0.044441398 -1.42957 65280
-0.39719501 0.044441398 -1.42957 65280
-0.39441699 0.044441398 -1.42957 65280
-0.39164001 0.044441398 -1.42957 65280
-0.38886201 0.044441398 -1.42957 65280
-0.386085 0.044441398 -1.42957 65280
-0.38330701 0.044441398 -1.42957 65280
-0.38052899 0.044441398 -1.42957 65280
-0.37775201 0.044441398 -1.42957 65280
-0.37497401 0.044441398 -1.42957 65280
-0.372197 0.044441398 -1.42957 65280
-0.36941901 0.044441398 -1.42957 65280
-0.36664101 0.044441398 -1.42957 65280
-0.363864 0.044441398 -1.42957 65280
-0.36108601 0.044441398 -1.42957 65280
-0.358309 0.044441398 -1.42957 65280
-0.35553101 0.044441398 -1.42957 65280
-0.35275301 0.044441398 -1.42957 65280
-0.349976 0.044441398 -1.42957 65280
-0.34719801 0.044441398 -1.42957 65280
-0.344421 0.044441398 -1.42957 65280
-0.34164301 0.044441398 -1.42957 65280
-0.338866 0.044441398 -1.42957 65280
-0.336088 0.044441398 -1.42957 65280
-0.33331001 0.044441398 -1.42957 65280
-0.330533 0.044441398 -1.42957 65280
-0.327755 0.044441398 -1.42957 65280
-0.32497799 0.044441398 -1.42957 65280
-0.3222 0.044441398 -1.42957 65280
-0.31942201 0.044441398 -1.42957 65280
-0.316645 0.044441398 -1.42957 65280
-0.313867 0.044441398 -1.42957 65280
-0.31108999 0.044441398 -1.42957 65280
-0.308312 0.044441398 -1.42957 65280
-0.30553499 0.044441398 -1.42957 65280
-0.30275699 0.044441398 -1.42957 65280
-0.299979 0.044441398 -1.42957 65280
-0.29720199 0.044441398 -1.42957 65280
-0.294424 0.044441398 -1.42957 65280
-0.29164699 0.044441398 -1.42957 65280
-0.28886899 0.044441398 -1.42957 65280
-0.286091 0.044441398 -1.42957 65280
-0.28331399 0.044441398 -1.42957 65280
-0.280536 0.044441398 -1.42957 65280
-0.27775899 0.044441398 -1.42957 65280
-0.27498099 0.044441398 -1.42957 65280
-0.272203 0.044441398 -1.42957 65280
-0.26942599 0.044441398 -1.42957 65280
-0.26664799 0.044441398 -1.42957 65280
-0.26387101 0.044441398 -1.42957 65280
-0.26109299 0.044441398 -1.42957 65280
-0.25831601 0.044441398 -1.42957 65280
-0.25553799 0.044441398 -1.42957 65280
-0.25275999 0.044441398 -1.42957 65280
-0.249983 0.044441398 -1.42957 65280
-0.247205 0.044441398 -1.42957 65280
-0.24442799 0.044441398 -1.42957 65280
-0.24165 0.044441398 -1.42957 65280
-0.23887201 0.044441398 -1.42957 65280
-0.236095 0.044441398 -1.42957 65280
-0.233317 0.044441398 -1.42957 65280
-0.23054001 0.044441398 -1.42957 65280
-0.227762 0.044441398 -1.42957 65280
-0.224985 0.044441398 -1.42957 65280
-0.20712 0.041424099 -1.33251 65280
-0.203491 0.0412133 -1.32573 65280
-0.200506 0.041129399 -1.32303 65280
-0.197668 0.0410739 -1.32125 65280
-0.19494499 0.041040901 -1.32019 65280
-0.192258 0.0410151 -1.31936 65280
-0.18962701 0.0410005 -1.31889 65280
-0.18701699 0.040989999 -1.31855 65280
-0.184449 0.040988699 -1.3185101 65280
-0.181903 0.0409922 -1.31862 65280
-0.17939401 0.0410043 -1.31901 65280
-0.17694899 0.041031599 -1.31989 65280
-0.17453299 0.041066598 -1.32101 65280
-0.17214 0.0411079 -1.32234 65280
-0.16978399 0.041159801 -1.32401 65280
-0.16747101 0.041223701 -1.32607 65280
-0.165199 0.041299701 -1.32851 65280
-0.163008 0.041398901 -1.3317 65280
-0.16089199 0.041520599 -1.33562 65280
-0.158565 0.041590799 -1.33787 65280
-0.15632699 0.041687101 -1.3409801 65280
-0.15824901 0.042915098 -1.3804801 65280
-0.15602501 0.0430413 -1.38454 65280
-0.153929 0.043207999 -1.3899 65280
-0.155545 0.044441398 -1.42957 65280
-0.152767 0.044441398 -1.42957 65280
-0.14999001 0.044441398 -1.42957 65280
-0.147212 0.044441398 -1.42957 65280
-0.14443401 0.044441398 -1.42957 65280
-0.14165699 0.044441398 -1.42957 65280
-0.138879 0.044441398 -1.42957 65280
-0.13610201 0.044441398 -1.42957 65280
-0.133324 0.044441398 -1.42957 65280
-0.130547 0.044441398 -1.42957 65280
-0.12776899 0.044441398 -1.42957 65280
-0.124991 0.044441398 -1.42957 65280
-0.122214 0.044441398 -1.42957 65280
-0.119436 0.044441398 -1.42957 65280
-0.116659 0.044441398 -1.42957 65280
-0.113881 0.044441398 -1.42957 65280
-0.111103 0.044441398 -1.42957 65280
-0.108326 0.044441398 -1.42957 65280
-0.105548 0.044441398 -1.42957 65280
-0.102771 0.044441398 -1.42957 65280
-0.099993102 0.044441398 -1.42957 65280
-0.097215503 0.044441398 -1.42957 65280
-0.094437897 0.044441398 -1.42957 65280
-0.091660403 0.044441398 -1.42957 65280
-0.088882796 0.044441398 -1.42957 65280
-0.086105198 0.044441398 -1.42957 65280
-0.083327599 0.044441398 -1.42957 65280
-0.08055 0.044441398 -1.42957 65280
-0.077772401 0.044441398 -1.42957 65280
-0.074994802 0.044441398 -1.42957 65280
-0.072217204 0.044441398 -1.42957 65280
-0.069439702 0.044441398 -1.42957 65280
-0.066662103 0.044441398 -1.42957 65280
-0.063884497 0.044441398 -1.42957 65280
-0.061106902 0.044441398 -1.42957 65280
-0.058329299 0.044441398 -1.42957 65280
-0.0555517 0.044441398 -1.42957 65280
-0.052774101 0.044441398 -1.42957 65280
-0.0499966 0.044441398 -1.42957 65280
-0.047219001 0.044441398 -1.42957 65280
-0.044441398 0.044441398 -1.42957 65280
-0.041663799 0.044441398 -1.42957 65280
-0.038886201 0.044441398 -1.42957 65280
-0.036108602 0.044441398 -1.42957 65280
-0.033330999 0.044441398 -1.42957 65280
-0.030553499 0.044441398 -1.42957 65280
-0.0277759 0.044441398 -1.42957 65280
-0.0249983 0.044441398 -1.42957 65280
-0.022220699 0.044441398 -1.42957 65280
-0.0194431 0.044441398 -1.42957 65280
-0.0166655 0.044441398 -1.42957 65280
-0.0138879 0.044441398 -1.42957 65280
-0.0111103 0.044441398 -1.42957 65280
-0.0083327601 0.044441398 -1.42957 65280
-0.0055551701 0.044441398 -1.42957 65280
-0.00277759 0.044441398 -1.42957 65280
0 0.044441398 -1.42957 65280
0.00277759 0.044441398 -1.42957 65280
0.0055551701 0.044441398 -1.42957 65280
0.0083327601 0.044441398 -1.42957 65280
0.0111103 0.044441398 -1.42957 65280
0.0138879 0.044441398 -1.42957 65280
0.0166655 0.044441398 -1.42957 65280
0.0194431 0.044441398 -1.42957 65280
0.022220699 0.044441398 -1.42957 65280
0.0249983 0.044441398 -1.42957 65280
0.0277759 0.044441398 -1.42957 65280
0.030553499 0.044441398 -1.42957 65280
0.033330999 0.044441398 -1.42957 65280
0.036108602 0.044441398 -1.42957 65280
0.038886201 0.044441398 -1.42957 65280
0.041663799 0.044441398 -1.42957 65280
0.044441398 0.044441398 -1.42957 65280
0.047219001 0.044441398 -1.42957 65280
0.0499966 0.044441398 -1.42957 65280
0.052774101 0.044441398 -1.42957 65280
0.0555517 0.044441398 -1.42957 65280
0.058329299 0.044441398 -1.42957 65280
0.061106902 0.044441398 -1.42957 65280
0.063884497 0.044441398 -1.42957 65280
0.066662103 0.044441398 -1.42957 65280
0.069439702 0.044441398 -1.42957 65280
0.072217204 0.044441398 -1.42957 65280
0.074994802 0.044441398 -1.42957 65280
0.077772401 0.044441398 -1.42957 65280
0.08055 0.044441398 -1.42957 65280
0.083327599 0.044441398 -1.42957 65280
0.086105198 0.044441398 -1.42957 65280
0.088882796 0.044441398 -1.42957 65280
0.091660403 0.044441398 -1.42957 65280
0.094437897 0.044441398 -1.42957 65280
0.097215503 0.044441398 -1.42957 65280
0.099993102 0.044441398 -1.42957 65280
0.102771 0.044441398 -1.42957 65280
0.105548 0.044441398 -1.42957 65280
0.108326 0.044441398 -1.42957 65280
0.111103 0.044441398 -1.42957 65280
0.113881 0.044441398 -1.42957 65280
0.116659 0.044441398 -1.42957 65280
0.119436 0.044441398 -1.42957 65280
0.122214 0.044441398 -1.42957 65280
0.124991 0.044441398 -1.42957 65280
0.12776899 0.044441398 -1.42957 65280
0.130547 0.044441398 -1.42957 65280
0.133324 0.044441398 -1.42957 65280
0.13610201 0.044441398 -1.42957 65280
0.138879 0.044441398 -1.42957 65280
0.14165699 0.044441398 -1.42957 65280
0.14443401 0.044441398 -1.42957 65280
0.147212 0.044441398 -1.42957 65280
0.14999001 0.044441398 -1.42957 65280
0.152767 0.044441398 -1.42957 65280
0.155545 0.044441398 -1.42957 65280
0.15832201 0.044441398 -1.42957 65280
0.1611 0.044441398 -1.42957 65280
0.16387799 0.044441398 -1.42957 65280
0.166655 0.044441398 -1.42957 65280
0.169433 0.044441398 -1.42957 65280
0.17220999 0.044441398 -1.42957 65280
0.174988 0.044441398 -1.42957 65280
0.177766 0.044441398 -1.42957 65280
0.18054301 0.044441398 -1.42957 65280
0.183321 0.044441398 -1.42957 65280
0.18609799 0.044441398 -1.42957 65280
0.188876 0.044441398 -1.42957 65280
0.191653 0.044441398 -1.42957 65280
0.19443101 0.044441398 -1.42957 65280
0.197209 0.044441398 -1.42957 65280
0.199986 0.044441398 -1.42957 65280
0.202764 0.044441398 -1.42957 65280
0.205541 0.044441398 -1.42957 65280
0.20831899 0.044441398 -1.42957 65280
0.211097 0.044441398 -1.42957 65280
0.213874 0.044441398 -1.42957 65280
0.21665201 0.044441398 -1.42957 65280
0.219429 0.044441398 -1.42957 65280
0.22220699 0.044441398 -1.42957 65280
0.224985 0.044441398 -1.42957 65280
0.227762 0.044441398 -1.42957 65280
0.23054001 0.044441398 -1.42957 65280
0.233317 0.044441398 -1.42957 65280
0.236095 0.044441398 -1.42957 65280
0.23887201 0.044441398 -1.42957 65280
0.24165 0.044441398 -1.42957 65280
0.24442799 0.044441398 -1.42957 65280
0.247205 0.044441398 -1.42957 65280
0.249983 0.044441398 -1.42957 65280
0.25275999 0.044441398 -1.42957 65280
0.25553799 0.044441398 -1.42957 65280
0.25831601 0.044441398 -1.42957 65280
0.26109299 0.044441398 -1.42957 65280
0.26387101 0.044441398 -1.42957 65280
0.26664799 0.044441398 -1.42957 65280
0.26942599 0.044441398 -1.42957 65280
0.272203 0.044441398 -1.42957 65280
0.27498099 0.044441398 -1.42957 65280
0.27775899 0.044441398 -1.42957 65280
0.280536 0.044441398 -1.42957 65280
0.28331399 0.044441398 -1.42957 65280
0.286091 0.044441398 -1.42957 65280
0.28886899 0.044441398 -1.42957 65280
0.29164699 0.044441398 -1.42957 65280
0.294424 0.044441398 -1.42957 65280
0.29720199 0.044441398 -1.42957 65280
0.299979 0.044441398 -1.42957 65280
0.30275699 0.044441398 -1.42957 65280
0.30553499 0.044441398 -1.42957 65280
0.308312 0.044441398 -1.42957 65280
0.31108999 0.044441398 -1.42957 65280
0.313867 0.044441398 -1.42957 65280
0.316645 0.044441398 -1.42957 65280
0.31942201 0.044441398 -1.42957 65280
0.3222 0.044441398 -1.42957 65280
0.32497799 0.044441398 -1.42957 65280
0.327755 0.044441398 -1.42957 65280
0.330533 0.044441398 -1.42957 65280
0.33331001 0.044441398 -1.42957 65280
0.336088 0.044441398 -1.42957 65280
0.338866 0.044441398 -1.42957 65280
0.34164301 0.044441398 -1.42957 65280
0.344421 0.044441398 -1.42957 65280
0.34719801 0.044441398 -1.42957 65280
0.349976 0.044441398 -1.42957 65280
0.35275301 0.044441398 -1.42957 65280
0.35553101 0.044441398 -1.42957 65280
0.358309 0.044441398 -1.42957 65280
0.36108601 0.044441398 -1.42957 65280
0.363864 0.044441398 -1.42957 65280
0.36664101 0.044441398 -1.42957 65280
0.36941901 0.044441398 -1.42957 65280
0.372197 0.044441398 -1.42957 65280
0.37497401 0.044441398 -1.42957 65280
0.37775201 0.044441398 -1.42957 65280
0.38052899 0.044441398 -1.42957 65280
0.38330701 0.044441398 -1.42957 65280
0.386085 0.044441398 -1.42957 65280
0.38886201 0.044441398 -1.42957 65280
0.39164001 0.044441398 -1.42957 65280
0.39441699 0.044441398 -1.42957 65280
0.39719501 0.044441398 -1.42957 65280
-0.39961499 0.047176801 -1.4283 65280
-0.39684001 0.047176801 -1.4283 65280
-0.39406499 0.047176801 -1.4283 65280
-0.39129001 0.047176801 -1.4283 65280
-0.388515 0.047176801 -1.4283 65280
-0.38574001 0.047176801 -1.4283 65280
-0.382965 0.047176801 -1.4283 65280
-0.38019001 0.047176801 -1.4283 65280
-0.377415 0.047176801 -1.4283 65280
-0.374639 0.047176801 -1.4283 65280
-0.37186399 0.047176801 -1.4283 65280
-0.36908901 0.047176801 -1.4283 65280
-0.36631399 0.047176801 -1.4283 65280
-0.36353901 0.047176801 -1.4283 65280
-0.360764 0.047176801 -1.4283 65280
-0.35798901 0.047176801 -1.4283 65280
-0.355214 0.047176801 -1.4283 65280
-0.35243899 0.047176801 -1.4283 65280
-0.349664 0.047176801 -1.4283 65280
-0.34688801 0.047176801 -1.4283 65280
-0.34411299 0.047176801 -1.4283 65280
-0.34133801 0.047176801 -1.4283 65280
-0.338563 0.047176801 -1.4283 65280
-0.33578801 0.047176801 -1.4283 65280
-0.333013 0.047176801 -1.4283 65280
-0.33023801 0.047176801 -1.4283 65280
-0.327463 0.047176801 -1.4283 65280
-0.32468799 0.047176801 -1.4283 65280
-0.32191199 0.047176801 -1.4283 65280
-0.31913701 0.047176801 -1.4283 65280
-0.31636199 0.047176801 -1.4283 65280
-0.31358701 0.047176801 -1.4283 65280
-0.310812 0.047176801 -1.4283 65280
-0.30803701 0.047176801 -1.4283 65280
-0.305262 0.047176801 -1.4283 65280
-0.30248699 0.047176801 -1.4283 65280
-0.299712 0.047176801 -1.4283 65280
-0.29693601 0.047176801 -1.4283 65280
-0.29416099 0.047176801 -1.4283 65280
-0.29138601 0.047176801 -1.4283 65280
-0.28861099 0.047176801 -1.4283 65280
-0.28583601 0.047176801 -1.4283 65280
-0.283061 0.047176801 -1.4283 65280
-0.28028601 0.047176801 -1.4283 65280
-0.277511 0.047176801 -1.4283 65280
-0.27473599 0.047176801 -1.4283 65280
-0.271961 0.047176801 -1.4283 65280
-0.26918501 0.047176801 -1.4283 65280
-0.26640999 0.047176801 -1.4283 65280
-0.26363501 0.047176801 -1.4283 65280
-0.26086 0.047176801 -1.4283 65280
-0.25808501 0.047176801 -1.4283 65280
-0.25531 0.047176801 -1.4283 65280
-0.25253499 0.047176801 -1.4283 65280
-0.24976 0.047176801 -1.4283 65280
-0.246985 0.047176801 -1.4283 65280
-0.24420901 0.047176801 -1.4283 65280
-0.24143399 0.047176801 -1.4283 65280
-0.23865899 0.047176801 -1.4283 65280
-0.235884 0.047176801 -1.4283 65280
-0.233109 0.047176801 -1.4283 65280
-0.230334 0.047176801 -1.4283 65280
-0.227559 0.047176801 -1.4283 65280
-0.224784 0.047176801 -1.4283 65280
-0.207275 0.044046 -1.33351 65280
-0.203475 0.043785699 -1.3256299 65280
-0.200468 0.0436919 -1.32279 65280
-0.19768301 0.043644302 -1.32135 65280
-0.194951 0.043607399 -1.32023 65280
-0.19228099 0.043583699 -1.31951 65280
-0.189647 0.043567698 -1.31903 65280
-0.187051 0.043559801 -1.31879 65280
-0.184477 0.0435571 -1.31871 65280
-0.18193901 0.0435629 -1.31888 65280
-0.179409 0.043570898 -1.3191299 65280
-0.176974 0.0436024 -1.32008 65280
-0.17455301 0.043638401 -1.32117 65280
-0.172168 0.043684401 -1.32256 65280
-0.169818 0.0437411 -1.32428 65280
-0.16750599 0.043809202 -1.32634 65280
-0.16523699 0.043891001 -1.32882 65280
-0.163095 0.0440097 -1.33241 65280
-0.160997 0.044144198 -1.33648 65280
-0.15895499 0.044298999 -1.34117 65280
-0.16026001 0.045407102 -1.37472 65280
-0.15798 0.045519602 -1.3781199 65280
-0.1557 0.0456363 -1.38166 65280
-0.153483 0.0457757 -1.38588 65280
-0.151493 0.0459891 -1.3923399 65280
-0.152631 0.047176801 -1.4283 65280
-0.149856 0.047176801 -1.4283 65280
-0.147081 0.047176801 -1.4283 65280
-0.144306 0.047176801 -1.4283 65280
-0.14153001 0.047176801 -1.4283 65280
-0.13875499 0.047176801 -1.4283 65280
-0.13598 0.047176801 -1.4283 65280
-0.133205 0.047176801 -1.4283 65280
-0.13043 0.047176801 -1.4283 65280
-0.127655 0.047176801 -1.4283 65280
-0.12488 0.047176801 -1.4283 65280
-0.122105 0.047176801 -1.4283 65280
-0.11933 0.047176801 -1.4283 65280
-0.116555 0.047176801 -1.4283 65280
-0.113779 0.047176801 -1.4283 65280
-0.111004 0.047176801 -1.4283 65280
-0.108229 0.047176801 -1.4283 65280
-0.105454 0.047176801 -1.4283 65280
-0.102679 0.047176801 -1.4283 65280
-0.099903896 0.047176801 -1.4283 65280
-0.097128801 0.047176801 -1.4283 65280
-0.094353698 0.047176801 -1.4283 65280
-0.091578498 0.047176801 -1.4283 65280
-0.088803403 0.047176801 -1.4283 65280
-0.0860283 0.047176801 -1.4283 65280
-0.083253197 0.047176801 -1.4283 65280
-0.080478102 0.047176801 -1.4283 65280
-0.077702999 0.047176801 -1.4283 65280
-0.074927904 0.047176801 -1.4283 65280
-0.072152801 0.047176801 -1.4283 65280
-0.069377698 0.047176801 -1.4283 65280
-0.066602603 0.047176801 -1.4283 65280
-0.0638275 0.047176801 -1.4283 65280
-0.061052401 0.047176801 -1.4283 65280
-0.058277301 0.047176801 -1.4283 65280
-0.055502102 0.047176801 -1.4283 65280
-0.052726999 0.047176801 -1.4283 65280
-0.0499519 0.047176801 -1.4283 65280
-0.047176801 0.047176801 -1.4283 65280
-0.044401702 0.047176801 -1.4283 65280
-0.041626599 0.047176801 -1.4283 65280
-0.0388515 0.047176801 -1.4283 65280
-0.0360764 0.047176801 -1.4283 65280
-0.033301301 0.047176801 -1.4283 65280
-0.0305262 0.047176801 -1.4283 65280
-0.027751099 0.047176801 -1.4283 65280
-0.024976 0.047176801 -1.4283 65280
-0.022200899 0.047176801 -1.4283 65280
-0.0194258 0.047176801 -1.4283 65280
-0.0166506 0.047176801 -1.4283 65280
-0.0138755 0.047176801 -1.4283 65280
-0.0111004 0.047176801 -1.4283 65280
-0.0083253197 0.047176801 -1.4283 65280
-0.0055502099 0.047176801 -1.4283 65280
-0.0027751101 0.047176801 -1.4283 65280
0 0.047176801 -1.4283 65280
0.0027751101 0.047176801 -1.4283 65280
0.0055502099 0.047176801 -1.4283 65280
0.0083253197 0.047176801 -1.4283 65280
0.0111004 0.047176801 -1.4283 65280
0.0138755 0.047176801 -1.4283 65280
0.0166506 0.047176801 -1.4283 65280
0.0194258 0.047176801 -1.4283 65280
0.022200899 0.047176801 -1.4283 65280
0.024976 0.047176801 -1.4283 65280
0.027751099 0.047176801 -1.4283 65280
0.0305262 0.047176801 -1.4283 65280
0.033301301 0.047176801 -1.4283 65280
0.0360764 0.047176801 -1.4283 65280
0.0388515 0.047176801 -1.4283 65280
0.041626599 0.047176801 -1.4283 65280
0.044401702 0.047176801 -1.4283 65280
0.047176801 0.047176801 -1.4283 65280
0.0499519 0.047176801 -1.4283 65280
0.052726999 0.047176801 -1.4283 65280
0.055502102 0.047176801 -1.4283 65280
0.058277301 0.047176801 -1.4283 65280
0.061052401 0.047176801 -1.4283 65280
0.0638275 0.047176801 -1.4283 65280
0.066602603 0.047176801 -1.4283 65280
0.069377698 0.047176801 -1.4283 65280
0.072152801 0.047176801 -1.4283 65280
0.074927904 0.047176801 -1.4283 65280
0.077702999 0.047176801 -1.4283 65280
0.080478102 0.047176801 -1.4283 65280
0.083253197 0.047176801 -1.4283 65280
0.0860283 0.047176801 -1.4283 65280
0.088803403 0.047176801 -1.4283 65280
0.091578498 0.047176801 -1.4283 65280
0.094353698 0.047176801 -1.4283 65280
0.097128801 0.047176801 -1.4283 65280
0.099903896 0.047176801 -1.4283 65280
0.102679 0.047176801 -1.4283 65280
0.105454 0.047176801 -1.4283 65280
0.108229 0.047176801 -1.4283 65280
0.111004 0.047176801 -1.4283 65280
0.113779 0.047176801 -1.4283 65280
0.116555 0.047176801 -1.4283 65280
0.11933 0.047176801 -1.4283 65280
0.122105 0.047176801 -1.4283 65280
0.12488 0.047176801 -1.4283 65280
0.127655 0.047176801 -1.4283 65280
0.13043 0.047176801 -1.4283 65280
0.133205 0.047176801 -1.4283 65280
0.13598 0.047176801 -1.4283 65280
0.13875499 0.047176801 -1.4283 65280
0.14153001 0.047176801 -1.4283 65280
0.144306 0.047176801 -1.4283 65280
0.147081 0.047176801 -1.4283 65280
0.149856 0.047176801 -1.4283 65280
0.152631 0.047176801 -1.4283 65280
0.155406 0.047176801 -1.4283 65280
0.158181 0.047176801 -1.4283 65280
0.160956 0.047176801 -1.4283 65280
0.16373099 0.047176801 -1.4283 65280
0.16650601 0.047176801 -1.4283 65280
0.169282 0.047176801 -1.4283 65280
0.172057 0.047176801 -1.4283 65280
0.174832 0.047176801 -1.4283 65280
0.177607 0.047176801 -1.4283 65280
0.180382 0.047176801 -1.4283 65280
0.183157 0.047176801 -1.4283 65280
0.185932 0.047176801 -1.4283 65280
0.18870699 0.047176801 -1.4283 65280
0.19148199 0.047176801 -1.4283 65280
0.194258 0.047176801 -1.4283 65280
0.197033 0.047176801 -1.4283 65280
0.199808 0.047176801 -1.4283 65280
0.202583 0.047176801 -1.4283 65280
0.205358 0.047176801 -1.4283 65280
0.208133 0.047176801 -1.4283 65280
0.210908 0.047176801 -1.4283 65280
0.21368299 0.047176801 -1.4283 65280
0.21645799 0.047176801 -1.4283 65280
0.21923301 0.047176801 -1.4283 65280
0.222009 0.047176801 -1.4283 65280
0.224784 0.047176801 -1.4283 65280
0.227559 0.047176801 -1.4283 65280
0.230334 0.047176801 -1.4283 65280
0.233109 0.047176801 -1.4283 65280
0.235884 0.047176801 -1.4283 65280
0.23865899 0.047176801 -1.4283 65280
0.24143399 0.047176801 -1.4283 65280
0.24420901 0.047176801 -1.4283 65280
0.246985 0.047176801 -1.4283 65280
0.24976 0.047176801 -1.4283 65280
0.25253499 0.047176801 -1.4283 65280
0.25531 0.047176801 -1.4283 65280
0.25808501 0.047176801 -1.4283 65280
0.26086 0.047176801 -1.4283 65280
0.26363501 0.047176801 -1.4283 65280
0.26640999 0.047176801 -1.4283 65280
0.26918501 0.047176801 -1.4283 65280
0.271961 0.047176801 -1.4283 65280
0.27473599 0.047176801 -1.4283 65280
0.277511 0.047176801 -1.4283 65280
0.28028601 0.047176801 -1.4283 65280
0.283061 0.047176801 -1.4283 65280
0.28583601 0.047176801 -1.4283 65280
0.28861099 0.047176801 -1.4283 65280
0.29138601 0.047176801 -1.4283 65280
0.29416099 0.047176801 -1.4283 65280
0.29693601 0.047176801 -1.4283 65280
0.299712 0.047176801 -1.4283 65280
0.30248699 0.047176801 -1.4283 65280
0.305262 0.047176801 -1.4283 65280
0.30803701 0.047176801 -1.4283 65280
0.310812 0.047176801 -1.4283 65280
0.31358701 0.047176801 -1.4283 65280
0.31636199 0.047176801 -1.4283 65280
0.31913701 0.047176801 -1.4283 65280
0.32191199 0.047176801 -1.4283 65280
0.32468799 0.047176801 -1.4283 65280
0.327463 0.047176801 -1.4283 65280
0.33023801 0.047176801 -1.4283 65280
0.333013 0.047176801 -1.4283 65280
0.33578801 0.047176801 -1.4283 65280
0.338563 0.047176801 -1.4283 65280
0.34133801 0.047176801 -1.4283 65280
0.34411299 0.047176801 -1.4283 65280
0.34688801 0.047176801 -1.4283 65280
0.349664 0.047176801 -1.4283 65280
0.35243899 0.047176801 -1.4283 65280
0.355214 0.047176801 -1.4283 65280
0.35798901 0.047176801 -1.4283 65280
0.360764 0.047176801 -1.4283 65280
0.36353901 0.047176801 -1.4283 65280
0.36631399 0.047176801 -1.4283 65280
0.36908901 0.047176801 -1.4283 65280
0.37186399 0.047176801 -1.4283 65280
0.374639 0.047176801 -1.4283 65280
0.377415 0.047176801 -1.4283 65280
0.38019001 0.047176801 -1.4283 65280
0.382965 0.047176801 -1.4283 65280
0.38574001 0.047176801 -1.4283 65280
0.388515 0.047176801 -1.4283 65280
0.39129001 0.047176801 -1.4283 65280
0.39406499 0.047176801 -1.4283 65280
0.39684001 0.047176801 -1.4283 65280
-0.399259 0.049907401 -1.42702 65280
-0.396487 0.049907401 -1.42702 65280
-0.39371401 0.049907401 -1.42702 65280
-0.39094201 0.049907401 -1.42702 65280
-0.38816899 0.049907401 -1.42702 65280
-0.385396 0.049907401 -1.42702 65280
-0.382624 0.049907401 -1.42702 65280
-0.37985101 0.049907401 -1.42702 65280
-0.377078 0.049907401 -1.42702 65280
-0.37430599 0.049907401 -1.42702 65280
-0.37153301 0.049907401 -1.42702 65280
-0.36875999 0.049907401 -1.42702 65280
-0.36598799 0.049907401 -1.42702 65280
-0.363215 0.049907401 -1.42702 65280
-0.360443 0.049907401 -1.42702 65280
-0.35767001 0.049907401 -1.42702 65280
-0.35489699 0.049907401 -1.42702 65280
-0.35212499 0.049907401 -1.42702 65280
-0.349352 0.049907401 -1.42702 65280
-0.34657899 0.049907401 -1.42702 65280
-0.34380701 0.049907401 -1.42702 65280
-0.341034 0.049907401 -1.42702 65280
-0.33826101 0.049907401 -1.42702 65280
-0.335489 0.049907401 -1.42702 65280
-0.33271599 0.049907401 -1.42702 65280
-0.32994401 0.049907401 -1.42702 65280
-0.327171 0.049907401 -1.42702 65280
-0.32439801 0.049907401 -1.42702 65280
-0.32162601 0.049907401 -1.42702 65280
-0.31885299 0.049907401 -1.42702 65280
-0.31608 0.049907401 -1.42702 65280
-0.313308 0.049907401 -1.42702 65280
-0.31053501 0.049907401 -1.42702 65280
-0.307762 0.049907401 -1.42702 65280
-0.30498999 0.049907401 -1.42702 65280
-0.30221701 0.049907401 -1.42702 65280
-0.299445 0.049907401 -1.42702 65280
-0.29667199 0.049907401 -1.42702 65280
-0.293899 0.049907401 -1.42702 65280
-0.291127 0.049907401 -1.42702 65280
-0.28835401 0.049907401 -1.42702 65280
-0.28558099 0.049907401 -1.42702 65280
-0.28280899 0.049907401 -1.42702 65280
-0.280036 0.049907401 -1.42702 65280
-0.27726299 0.049907401 -1.42702 65280
-0.27449101 0.049907401 -1.42702 65280
-0.271718 0.049907401 -1.42702 65280
-0.26894599 0.049907401 -1.42702 65280
-0.26617301 0.049907401 -1.42702 65280
-0.26339999 0.049907401 -1.42702 65280
-0.26062801 0.049907401 -1.42702 65280
-0.257855 0.049907401 -1.42702 65280
-0.25508201 0.049907401 -1.42702 65280
-0.25231001 0.049907401 -1.42702 65280
-0.24953701 0.049907401 -1.42702 65280
-0.246765 0.049907401 -1.42702 65280
-0.243992 0.049907401 -1.42702 65280
-0.241219 0.049907401 -1.42702 65280
-0.238447 0.049907401 -1.42702 65280
-0.23567399 0.049907401 -1.42702 65280
-0.23290101 0.049907401 -1.42702 65280
-0.230129 0.049907401 -1.42702 65280
-0.227356 0.049907401 -1.42702 65280
-0.218988 0.0486641 -1.39147 65280
-0.215703 0.048533101 -1.38773 65280
-0.203545 0.046377301 -1.32609 65280
-0.200554 0.0462818 -1.32335 65280
-0.197736 0.046224099 -1.3217 65280
-0.19501799 0.046188399 -1.32068 65280
-0.19234 0.046161499 -1.3199199 65280
-0.18971001 0.0461457 -1.31946 65280
-0.18711101 0.046136901 -1.3192101 65280
-0.184545 0.046136301 -1.3192 65280
-0.182005 0.046142198 -1.31936 65280
-0.179508 0.0461591 -1.31985 65280
-0.177046 0.0461859 -1.32061 65280
-0.174632 0.0462262 -1.32177 65280
-0.172252 0.0462767 -1.32321 65280
-0.16990601 0.046337899 -1.32496 65280
-0.16760001 0.0464123 -1.32709 65280
-0.16536801 0.046509702 -1.32987 65280
-0.16320699 0.046630699 -1.33333 65280
-0.16115899 0.046788201 -1.3378299 65280
-0.159385 0.0470316 -1.3448 65280
-0.160072 0.0480217 -1.3731 65280
-0.157775 0.048134699 -1.37633 65280
-0.155461 0.048246399 -1.37953 65280
-0.153191 0.048376098 -1.38324 65280
-0.151025 0.0485438 -1.3880301 65280
-0.152495 0.049907401 -1.42702 65280
-0.14972199 0.049907401 -1.42702 65280
-0.14695001 0.049907401 -1.42702 65280
-0.144177 0.049907401 -1.42702 65280
-0.141404 0.049907401 -1.42702 65280
-0.138632 0.049907401 -1.42702 65280
-0.135859 0.049907401 -1.42702 65280
-0.133086 0.049907401 -1.42702 65280
-0.13031401 0.049907401 -1.42702 65280
-0.12754101 0.049907401 -1.42702 65280
-0.124769 0.049907401 -1.42702 65280
-0.121996 0.049907401 -1.42702 65280
-0.119223 0.049907401 -1.42702 65280
-0.116451 0.049907401 -1.42702 65280
-0.113678 0.049907401 -1.42702 65280
-0.110905 0.049907401 -1.42702 65280
-0.108133 0.049907401 -1.42702 65280
-0.10536 0.049907401 -1.42702 65280
-0.102587 0.049907401 -1.42702 65280
-0.099814899 0.049907401 -1.42702 65280
-0.097042203 0.049907401 -1.42702 65280
-0.094269603 0.049907401 -1.42702 65280
-0.091496997 0.049907401 -1.42702 65280
-0.0887243 0.049907401 -1.42702 65280
-0.085951701 0.049907401 -1.42702 65280
-0.083178997 0.049907401 -1.42702 65280
-0.080406398 0.049907401 -1.42702 65280
-0.077633798 0.049907401 -1.42702 65280
-0.074861102 0.049907401 -1.42702 65280
-0.072088502 0.049907401 -1.42702 65280
-0.069315903 0.049907401 -1.42702 65280
-0.066543199 0.049907401 -1.42702 65280
-0.0637706 0.049907401 -1.42702 65280
-0.060998 0.049907401 -1.42702 65280
-0.0582253 0.049907401 -1.42702 65280
-0.055452701 0.049907401 -1.42702 65280
-0.052680101 0.049907401 -1.42702 65280
-0.049907401 0.049907401 -1.42702 65280
-0.047134802 0.049907401 -1.42702 65280
-0.044362199 0.049907401 -1.42702 65280
-0.041589499 0.049907401 -1.42702 65280
-0.038816899 0.049907401 -1.42702 65280
-0.0360443 0.049907401 -1.42702 65280
-0.0332716 0.049907401 -1.42702 65280
-0.030499 0.049907401 -1.42702 65280
-0.027726401 0.049907401 -1.42702 65280
-0.024953701 0.049907401 -1.42702 65280
-0.022181099 0.049907401 -1.42702 65280
-0.019408399 0.049907401 -1.42702 65280
-0.0166358 0.049907401 -1.42702 65280
-0.0138632 0.049907401 -1.42702 65280
-0.0110905 0.049907401 -1.42702 65280
-0.0083179101 0.049907401 -1.42702 65280
-0.0055452702 0.049907401 -1.42702 65280
-0.00277264 0.049907401 -1.42702 65280
0 0.049907401 -1.42702 65280
0.00277264 0.049907401 -1.42702 65280
0.0055452702 0.049907401 -1.42702 65280
0.0083179101 0.049907401 -1.42702 65280
0.0110905 0.049907401 -1.42702 65280
0.0138632 0.049907401 -1.42702 65280
0.0166358 0.049907401 -1.42702 65280
0.019408399 0.049907401 -1.42702 65280
0.022181099 0.049907401 -1.42702 65280
0.024953701 0.049907401 -1.42702 65280
0.027726401 0.049907401 -1.42702 65280
0.030499 0.049907401 -1.42702 65280
0.0332716 0.049907401 -1.42702 65280
0.0360443 0.049907401 -1.42702 65280
0.038816899 0.049907401 -1.42702 65280
0.041589499 0.049907401 -1.42702 65280
0.044362199 0.049907401 -1.42702 65280
0.047134802 0.049907401 -1.42702 65280
0.049907401 0.049907401 -1.42702 65280
0.052680101 0.049907401 -1.42702 65280
0.055452701 0.049907401 -1.42702 65280
0.0582253 0.049907401 -1.42702 65280
0.060998 0.049907401 -1.42702 65280
0.0637706 0.049907401 -1.42702 65280
0.066543199 0.049907401 -1.42702 65280
0.069315903 0.049907401 -1.42702 65280
0.072088502 0.049907401 -1.42702 65280
0.074861102 0.049907401 -1.42702 65280
0.077633798 0.049907401 -1.42702 65280
0.080406398 0.049907401 -1.42702 65280
0.083178997 0.049907401 -1.42702 65280
0.085951701 0.049907401 -1.42702 65280
0.0887243 0.049907401 -1.42702 65280
0.091496997 0.049907401 -1.42702 65280
0.094269603 0.049907401 -1.42702 65280
0.097042203 0.049907401 -1.42702 65280
0.099814899 0.049907401 -1.42702 65280
0.102587 0.049907401 -1.42702 65280
0.10536 0.049907401 -1.42702 65280
0.108133 0.049907401 -1.42702 65280
0.110905 0.049907401 -1.42702 65280
0.113678 0.049907401 -1.42702 65280
0.116451 0.049907401 -1.42702 65280
0.119223 0.049907401 -1.42702 65280
0.121996 0.049907401 -1.42702 65280
0.124769 0.049907401 -1.42702 65280
0.12754101 0.049907401 -1.42702 65280
0.13031401 0.049907401 -1.42702 65280
0.133086 0.049907401 -1.42702 65280
0.135859 0.049907401 -1.42702 65280
0.138632 0.049907401 -1.42702 65280
0.141404 0.049907401 -1.42702 65280
0.144177 0.049907401 -1.42702 65280
0.14695001 0.049907401 -1.42702 65280
0.14972199 0.049907401 -1.42702 65280
0.152495 0.049907401 -1.42702 65280
0.155268 0.049907401 -1.42702 65280
0.15804 0.049907401 -1.42702 65280
0.160813 0.049907401 -1.42702 65280
0.16358501 0.049907401 -1.42702 65280
0.16635799 0.049907401 -1.42702 65280
0.169131 0.049907401 -1.42702 65280
