# .PCD v0.7 - Point Cloud Data file format
VERSION 0.7
FIELDS x y z rgb
SIZE 4 4 4 4
TYPE F F F U
COUNT 1 1 1 1
WIDTH 1266
HEIGHT 1
VIEWPOINT 0 0 0 1 0 0 0
POINTS 1266
DATA ascii
0.36899099 -0.0227072 -1.46087 65280
0.37182999 -0.0227072 -1.46087 65280
0.374668 -0.0227072 -1.46087 65280
0.37750599 -0.0227072 -1.46087 65280
0.38034499 -0.0227072 -1.46087 65280
0.383183 -0.0227072 -1.46087 65280
0.386022 -0.0227072 -1.46087 65280
0.38885999 -0.0227072 -1.46087 65280
0.391698 -0.0227072 -1.46087 65280
0.394537 -0.0227072 -1.46087 65280
0.39737499 -0.0227072 -1.46087 65280
-0.399849 -0.019850699 -1.45954 65280
-0.39701301 -0.019850699 -1.45954 65280
-0.39417699 -0.019850699 -1.45954 65280
-0.39134201 -0.019850699 -1.45954 65280
-0.388506 -0.019850699 -1.45954 65280
-0.38567001 -0.019850699 -1.45954 65280
-0.38283399 -0.019850699 -1.45954 65280
-0.379998 -0.019850699 -1.45954 65280
-0.37716201 -0.019850699 -1.45954 65280
-0.374327 -0.019850699 -1.45954 65280
-0.37149099 -0.019850699 -1.45954 65280
-0.368655 -0.019850699 -1.45954 65280
-0.36581901 -0.019850699 -1.45954 65280
-0.36298299 -0.019850699 -1.45954 65280
-0.36014801 -0.019850699 -1.45954 65280
-0.35731199 -0.019850699 -1.45954 65280
-0.354476 -0.019850699 -1.45954 65280
-0.35163999 -0.019850699 -1.45954 65280
-0.348804 -0.019850699 -1.45954 65280
-0.34596899 -0.019850699 -1.45954 65280
-0.343133 -0.019850699 -1.45954 65280
-0.34029701 -0.019850699 -1.45954 65280
-0.33746099 -0.019850699 -1.45954 65280
-0.33462501 -0.019850699 -1.45954 65280
-0.33179 -0.019850699 -1.45954 65280
-0.32895401 -0.019850699 -1.45954 65280
-0.32611799 -0.019850699 -1.45954 65280
-0.323282 -0.019850699 -1.45954 65280
-0.32044601 -0.019850699 -1.45954 65280
-0.31761101 -0.019850699 -1.45954 65280
-0.31477499 -0.019850699 -1.45954 65280
-0.311939 -0.019850699 -1.45954 65280
-0.30910301 -0.019850699 -1.45954 65280
-0.30626699 -0.019850699 -1.45954 65280
-0.303431 -0.019850699 -1.45954 65280
-0.300596 -0.019850699 -1.45954 65280
-0.29776001 -0.019850699 -1.45954 65280
-0.29492399 -0.019850699 -1.45954 65280
-0.292088 -0.019850699 -1.45954 65280
-0.28925201 -0.019850699 -1.45954 65280
-0.27886799 -0.019327501 -1.42107 65280
-0.27512899 -0.019259101 -1.4160399 65280
-0.27175501 -0.019215001 -1.4128 65280
-0.26864401 -0.0191889 -1.41088 65280
-0.26561099 -0.0191678 -1.40933 65280
-0.26258299 -0.019146699 -1.4077801 65280
-0.25955001 -0.0191248 -1.40617 65280
-0.25647801 -0.019099399 -1.4043 65280
-0.25339901 -0.019073101 -1.40237 65280
-0.25038099 -0.019050701 -1.40072 65280
-0.247472 -0.0190363 -1.39966 65280
-0.244624 -0.0190263 -1.39893 65280
-0.241842 -0.0190212 -1.39856 65280
-0.239123 -0.0190212 -1.39855 65280
-0.23645701 -0.0190253 -1.39885 65280
-0.233863 -0.019035401 -1.39959 65280
-0.231328 -0.0190506 -1.40071 65280
-0.228824 -0.019068699 -1.40204 65280
-0.22633301 -0.0190883 -1.4034899 65280
-0.223873 -0.019111101 -1.40516 65280
-0.221415 -0.0191346 -1.40689 65280
-0.21897601 -0.019160399 -1.40878 65280
-0.216561 -0.0191889 -1.41089 65280
-0.214185 -0.019221701 -1.41329 65280
-0.211841 -0.0192583 -1.41598 65280
-0.209528 -0.0192986 -1.41895 65280
-0.207029 -0.019322701 -1.42072 65280
-0.204596 -0.019353701 -1.423 65280
-0.202343 -0.0194027 -1.4266 65280
-0.200378 -0.019481201 -1.4323699 65280
-0.201342 -0.019850699 -1.45954 65280
-0.198507 -0.019850699 -1.45954 65280
-0.19567101 -0.019850699 -1.45954 65280
-0.192835 -0.019850699 -1.45954 65280
-0.189999 -0.019850699 -1.45954 65280
-0.187163 -0.019850699 -1.45954 65280
-0.184328 -0.019850699 -1.45954 65280
-0.181492 -0.019850699 -1.45954 65280
-0.178656 -0.019850699 -1.45954 65280
-0.17581999 -0.019850699 -1.45954 65280
-0.172984 -0.019850699 -1.45954 65280
-0.170148 -0.019850699 -1.45954 65280
-0.16731299 -0.019850699 -1.45954 65280
-0.16447701 -0.019850699 -1.45954 65280
-0.161641 -0.019850699 -1.45954 65280
-0.158805 -0.019850699 -1.45954 65280
-0.15596899 -0.019850699 -1.45954 65280
-0.153134 -0.019850699 -1.45954 65280
-0.150298 -0.019850699 -1.45954 65280
-0.147462 -0.019850699 -1.45954 65280
-0.14462601 -0.019850699 -1.45954 65280
-0.14179 -0.019850699 -1.45954 65280
-0.138955 -0.019850699 -1.45954 65280
-0.13611899 -0.019850699 -1.45954 65280
-0.133283 -0.019850699 -1.45954 65280
-0.130447 -0.019850699 -1.45954 65280
-0.127611 -0.019850699 -1.45954 65280
-0.124776 -0.019850699 -1.45954 65280
-0.12194 -0.019850699 -1.45954 65280
-0.119104 -0.019850699 -1.45954 65280
-0.116268 -0.019850699 -1.45954 65280
-0.113432 -0.019850699 -1.45954 65280
-0.110597 -0.019850699 -1.45954 65280
-0.107761 -0.019850699 -1.45954 65280
-0.104925 -0.019850699 -1.45954 65280
-0.102089 -0.019850699 -1.45954 65280
-0.099253297 -0.019850699 -1.45954 65280
-0.096417502 -0.019850699 -1.45954 65280
-0.093581699 -0.019850699 -1.45954 65280
-0.090745904 -0.019850699 -1.45954 65280
-0.087909997 -0.019850699 -1.45954 65280
-0.085074201 -0.019850699 -1.45954 65280
-0.082238398 -0.019850699 -1.45954 65280
-0.079402603 -0.019850699 -1.45954 65280
-0.0765668 -0.019850699 -1.45954 65280
-0.073730998 -0.019850699 -1.45954 65280
-0.070895202 -0.019850699 -1.45954 65280
-0.0680594 -0.019850699 -1.45954 65280
-0.065223597 -0.019850699 -1.45954 65280
-0.062387802 -0.019850699 -1.45954 65280
-0.059551999 -0.019850699 -1.45954 65280
-0.0567162 -0.019850699 -1.45954 65280
-0.053880401 -0.019850699 -1.45954 65280
-0.051044501 -0.019850699 -1.45954 65280
-0.048208699 -0.019850699 -1.45954 65280
-0.0453729 -0.019850699 -1.45954 65280
-0.042537101 -0.019850699 -1.45954 65280
-0.039701302 -0.019850699 -1.45954 65280
-0.036865499 -0.019850699 -1.45954 65280
-0.0340297 -0.019850699 -1.45954 65280
-0.031193901 -0.019850699 -1.45954 65280
-0.0283581 -0.019850699 -1.45954 65280
-0.025522299 -0.019850699 -1.45954 65280
-0.0226865 -0.019850699 -1.45954 65280
-0.019850699 -0.019850699 -1.45954 65280
-0.0170148 -0.019850699 -1.45954 65280
-0.014179 -0.019850699 -1.45954 65280
-0.0113432 -0.019850699 -1.45954 65280
-0.0085074203 -0.019850699 -1.45954 65280
-0.0056716199 -0.019850699 -1.45954 65280
-0.00283581 -0.019850699 -1.45954 65280
0 -0.019850699 -1.45954 65280
0.00283581 -0.019850699 -1.45954 65280
0.0056716199 -0.019850699 -1.45954 65280
0.0085074203 -0.019850699 -1.45954 65280
0.0113432 -0.019850699 -1.45954 65280
0.014179 -0.019850699 -1.45954 65280
0.0170148 -0.019850699 -1.45954 65280
0.019850699 -0.019850699 -1.45954 65280
0.0226865 -0.019850699 -1.45954 65280
0.025522299 -0.019850699 -1.45954 65280
0.0283581 -0.019850699 -1.45954 65280
0.031193901 -0.019850699 -1.45954 65280
0.0340297 -0.019850699 -1.45954 65280
0.036865499 -0.019850699 -1.45954 65280
0.039701302 -0.019850699 -1.45954 65280
0.042537101 -0.019850699 -1.45954 65280
0.0453729 -0.019850699 -1.45954 65280
0.048208699 -0.019850699 -1.45954 65280
0.051044501 -0.019850699 -1.45954 65280
0.053880401 -0.019850699 -1.45954 65280
0.0567162 -0.019850699 -1.45954 65280
0.059551999 -0.019850699 -1.45954 65280
0.062387802 -0.019850699 -1.45954 65280
0.065223597 -0.019850699 -1.45954 65280
0.0680594 -0.019850699 -1.45954 65280
0.070895202 -0.019850699 -1.45954 65280
0.073730998 -0.019850699 -1.45954 65280
0.0765668 -0.019850699 -1.45954 65280
0.079402603 -0.019850699 -1.45954 65280
0.082238398 -0.019850699 -1.45954 65280
0.085074201 -0.019850699 -1.45954 65280
0.087909997 -0.019850699 -1.45954 65280
0.090745904 -0.019850699 -1.45954 65280
0.093581699 -0.019850699 -1.45954 65280
0.096417502 -0.019850699 -1.45954 65280
0.099253297 -0.019850699 -1.45954 65280
0.102089 -0.019850699 -1.45954 65280
0.104925 -0.019850699 -1.45954 65280
0.107761 -0.019850699 -1.45954 65280
0.110597 -0.019850699 -1.45954 65280
0.113432 -0.019850699 -1.45954 65280
0.116268 -0.019850699 -1.45954 65280
0.119104 -0.019850699 -1.45954 65280
0.12194 -0.019850699 -1.45954 65280
0.124776 -0.019850699 -1.45954 65280
0.127611 -0.019850699 -1.45954 65280
0.130447 -0.019850699 -1.45954 65280
0.133283 -0.019850699 -1.45954 65280
0.13611899 -0.019850699 -1.45954 65280
0.138955 -0.019850699 -1.45954 65280
0.14179 -0.019850699 -1.45954 65280
0.14462601 -0.019850699 -1.45954 65280
0.147462 -0.019850699 -1.45954 65280
0.150298 -0.019850699 -1.45954 65280
0.153134 -0.019850699 -1.45954 65280
0.15596899 -0.019850699 -1.45954 65280
0.158805 -0.019850699 -1.45954 65280
0.161641 -0.019850699 -1.45954 65280
0.16447701 -0.019850699 -1.45954 65280
0.16731299 -0.019850699 -1.45954 65280
0.170148 -0.019850699 -1.45954 65280
0.172984 -0.019850699 -1.45954 65280
0.17581999 -0.019850699 -1.45954 65280
0.178656 -0.019850699 -1.45954 65280
0.181492 -0.019850699 -1.45954 65280
0.184328 -0.019850699 -1.45954 65280
0.187163 -0.019850699 -1.45954 65280
0.189999 -0.019850699 -1.45954 65280
0.192835 -0.019850699 -1.45954 65280
0.19567101 -0.019850699 -1.45954 65280
0.198507 -0.019850699 -1.45954 65280
0.201342 -0.019850699 -1.45954 65280
0.20417801 -0.019850699 -1.45954 65280
0.20701399 -0.019850699 -1.45954 65280
0.20985 -0.019850699 -1.45954 65280
0.212686 -0.019850699 -1.45954 65280
0.21552099 -0.019850699 -1.45954 65280
0.218357 -0.019850699 -1.45954 65280
0.221193 -0.019850699 -1.45954 65280
0.224029 -0.019850699 -1.45954 65280
0.22686499 -0.019850699 -1.45954 65280
0.2297 -0.019850699 -1.45954 65280
0.232536 -0.019850699 -1.45954 65280
0.23537201 -0.019850699 -1.45954 65280
0.238208 -0.019850699 -1.45954 65280
0.241044 -0.019850699 -1.45954 65280
0.24387901 -0.019850699 -1.45954 65280
0.24671499 -0.019850699 -1.45954 65280
0.249551 -0.019850699 -1.45954 65280
0.25238699 -0.019850699 -1.45954 65280
0.25522301 -0.019850699 -1.45954 65280
0.258059 -0.019850699 -1.45954 65280
0.260894 -0.019850699 -1.45954 65280
0.26372999 -0.019850699 -1.45954 65280
0.26656601 -0.019850699 -1.45954 65280
0.269402 -0.019850699 -1.45954 65280
0.27223799 -0.019850699 -1.45954 65280
0.27507299 -0.019850699 -1.45954 65280
0.27790901 -0.019850699 -1.45954 65280
0.280745 -0.019850699 -1.45954 65280
0.28358099 -0.019850699 -1.45954 65280
0.28641701 -0.019850699 -1.45954 65280
0.28925201 -0.019850699 -1.45954 65280
0.292088 -0.019850699 -1.45954 65280
0.29492399 -0.019850699 -1.45954 65280
0.29776001 -0.019850699 -1.45954 65280
0.300596 -0.019850699 -1.45954 65280
0.303431 -0.019850699 -1.45954 65280
0.30626699 -0.019850699 -1.45954 65280
0.30910301 -0.019850699 -1.45954 65280
0.311939 -0.019850699 -1.45954 65280
0.31477499 -0.019850699 -1.45954 65280
0.31761101 -0.019850699 -1.45954 65280
0.32044601 -0.019850699 -1.45954 65280
0.323282 -0.019850699 -1.45954 65280
0.32611799 -0.019850699 -1.45954 65280
0.32895401 -0.019850699 -1.45954 65280
0.33179 -0.019850699 -1.45954 65280
0.33462501 -0.019850699 -1.45954 65280
0.33746099 -0.019850699 -1.45954 65280
0.34029701 -0.019850699 -1.45954 65280
0.343133 -0.019850699 -1.45954 65280
0.34596899 -0.019850699 -1.45954 65280
0.348804 -0.019850699 -1.45954 65280
0.35163999 -0.019850699 -1.45954 65280
0.354476 -0.019850699 -1.45954 65280
0.35731199 -0.019850699 -1.45954 65280
0.36014801 -0.019850699 -1.45954 65280
0.36298299 -0.019850699 -1.45954 65280
0.36581901 -0.019850699 -1.45954 65280
0.368655 -0.019850699 -1.45954 65280
0.37149099 -0.019850699 -1.45954 65280
0.374327 -0.019850699 -1.45954 65280
0.37716201 -0.019850699 -1.45954 65280
0.379998 -0.019850699 -1.45954 65280
0.38283399 -0.019850699 -1.45954 65280
0.38567001 -0.019850699 -1.45954 65280
0.388506 -0.019850699 -1.45954 65280
0.39134201 -0.019850699 -1.45954 65280
0.39417699 -0.019850699 -1.45954 65280
0.39701301 -0.019850699 -1.45954 65280
-0.39948499 -0.016999399 -1.45821 65280
-0.39665201 -0.016999399 -1.45821 65280
-0.39381799 -0.016999399 -1.45821 65280
-0.39098501 -0.016999399 -1.45821 65280
-0.388152 -0.016999399 -1.45821 65280
-0.38531899 -0.016999399 -1.45821 65280
-0.38248599 -0.016999399 -1.45821 65280
-0.37965199 -0.016999399 -1.45821 65280
-0.37681901 -0.016999399 -1.45821 65280
-0.37398601 -0.016999399 -1.45821 65280
-0.371153 -0.016999399 -1.45821 65280
-0.368319 -0.016999399 -1.45821 65280
-0.365486 -0.016999399 -1.45821 65280
-0.36265299 -0.016999399 -1.45821 65280
-0.35982001 -0.016999399 -1.45821 65280
-0.356987 -0.016999399 -1.45821 65280
-0.35415301 -0.016999399 -1.45821 65280
-0.35132 -0.016999399 -1.45821 65280
-0.34848699 -0.016999399 -1.45821 65280
-0.34565401 -0.016999399 -1.45821 65280
-0.34281999 -0.016999399 -1.45821 65280
-0.33998701 -0.016999399 -1.45821 65280
-0.337154 -0.016999399 -1.45821 65280
-0.33432099 -0.016999399 -1.45821 65280
-0.331487 -0.016999399 -1.45821 65280
-0.32865399 -0.016999399 -1.45821 65280
-0.32582101 -0.016999399 -1.45821 65280
-0.322988 -0.016999399 -1.45821 65280
-0.32015499 -0.016999399 -1.45821 65280
-0.317321 -0.016999399 -1.45821 65280
-0.31448799 -0.016999399 -1.45821 65280
-0.31165501 -0.016999399 -1.45821 65280
-0.30882201 -0.016999399 -1.45821 65280
-0.30598801 -0.016999399 -1.45821 65280
-0.303155 -0.016999399 -1.45821 65280
-0.300322 -0.016999399 -1.45821 65280
-0.29748899 -0.016999399 -1.45821 65280
-0.29465601 -0.016999399 -1.45821 65280
-0.29182199 -0.016999399 -1.45821 65280
-0.28898901 -0.016999399 -1.45821 65280
-0.278961 -0.016572 -1.42155 65280
-0.27518901 -0.016511399 -1.41635 65280
-0.27175501 -0.01647 -1.4128 65280
-0.26855201 -0.016442001 -1.4104 65280
-0.26555601 -0.0164262 -1.40904 65280
-0.26258099 -0.016411301 -1.40776 65280
-0.25960201 -0.0163959 -1.40645 65280
-0.25662601 -0.016380399 -1.40512 65280
-0.25363001 -0.0163632 -1.40364 65280
-0.25066501 -0.016347701 -1.40231 65280
-0.247743 -0.016334699 -1.4012001 65280
-0.244873 -0.0163248 -1.40035 65280
-0.242053 -0.0163182 -1.39978 65280
-0.23930401 -0.0163162 -1.39961 65280
-0.236591 -0.0163166 -1.39965 65280
-0.23391999 -0.016319999 -1.39993 65280
-0.231299 -0.016326999 -1.40054 65280
-0.228735 -0.016338199 -1.4015 65280
-0.226198 -0.0163517 -1.40265 65280
-0.223667 -0.016365901 -1.40387 65280
-0.221149 -0.0163814 -1.4052 65280
-0.21867301 -0.016400401 -1.40683 65280
-0.216215 -0.0164214 -1.40863 65280
-0.213801 -0.016446199 -1.41076 65280
-0.211432 -0.016475299 -1.41325 65280
-0.209113 -0.016509 -1.41614 65280
-0.206788 -0.016542999 -1.41906 65280
-0.204281 -0.0165633 -1.4208 65280
-0.20196401 -0.0165998 -1.4239399 65280
-0.19985101 -0.016654201 -1.4286 65280
-0.201159 -0.016999399 -1.45821 65280
-0.19832601 -0.016999399 -1.45821 65280
-0.195493 -0.016999399 -1.45821 65280
-0.19265901 -0.016999399 -1.45821 65280
-0.189826 -0.016999399 -1.45821 65280
-0.186993 -0.016999399 -1.45821 65280
-0.18415999 -0.016999399 -1.45821 65280
-0.181326 -0.016999399 -1.45821 65280
-0.17849299 -0.016999399 -1.45821 65280
-0.17566 -0.016999399 -1.45821 65280
-0.17282701 -0.016999399 -1.45821 65280
-0.169994 -0.016999399 -1.45821 65280
-0.16716 -0.016999399 -1.45821 65280
-0.164327 -0.016999399 -1.45821 65280
-0.161494 -0.016999399 -1.45821 65280
-0.15866099 -0.016999399 -1.45821 65280
-0.155827 -0.016999399 -1.45821 65280
-0.15299401 -0.016999399 -1.45821 65280
-0.150161 -0.016999399 -1.45821 65280
-0.147328 -0.016999399 -1.45821 65280
-0.144495 -0.016999399 -1.45821 65280
-0.141661 -0.016999399 -1.45821 65280
-0.13882799 -0.016999399 -1.45821 65280
-0.135995 -0.016999399 -1.45821 65280
-0.13316201 -0.016999399 -1.45821 65280
-0.130328 -0.016999399 -1.45821 65280
-0.12749501 -0.016999399 -1.45821 65280
-0.124662 -0.016999399 -1.45821 65280
-0.121829 -0.016999399 -1.45821 65280
-0.118996 -0.016999399 -1.45821 65280
-0.116162 -0.016999399 -1.45821 65280
-0.113329 -0.016999399 -1.45821 65280
-0.110496 -0.016999399 -1.45821 65280
-0.107663 -0.016999399 -1.45821 65280
-0.104829 -0.016999399 -1.45821 65280
-0.101996 -0.016999399 -1.45821 65280
-0.099162899 -0.016999399 -1.45821 65280
-0.096329696 -0.016999399 -1.45821 65280
-0.093496501 -0.016999399 -1.45821 65280
-0.090663202 -0.016999399 -1.45821 65280
-0.08783 -0.016999399 -1.45821 65280
-0.084996797 -0.016999399 -1.45821 65280
-0.082163602 -0.016999399 -1.45821 65280
-0.079330303 -0.016999399 -1.45821 65280
-0.0764971 -0.016999399 -1.45821 65280
-0.073663898 -0.016999399 -1.45821 65280
-0.070830703 -0.016999399 -1.45821 65280
-0.067997403 -0.016999399 -1.45821 65280
-0.065164201 -0.016999399 -1.45821 65280
-0.062330998 -0.016999399 -1.45821 65280
-0.0594978 -0.016999399 -1.45821 65280
-0.0566645 -0.016999399 -1.45821 65280
-0.053831302 -0.016999399 -1.45821 65280
-0.050998099 -0.016999399 -1.45821 65280
-0.0481648 -0.016999399 -1.45821 65280
-0.045331601 -0.016999399 -1.45821 65280
-0.042498399 -0.016999399 -1.45821 65280
-0.0396652 -0.016999399 -1.45821 65280
-0.0368319 -0.016999399 -1.45821 65280
-0.033998702 -0.016999399 -1.45821 65280
-0.031165499 -0.016999399 -1.45821 65280
-0.0283323 -0.016999399 -1.45821 65280
-0.025498999 -0.016999399 -1.45821 65280
-0.022665801 -0.016999399 -1.45821 65280
-0.0198326 -0.016999399 -1.45821 65280
-0.016999399 -0.016999399 -1.45821 65280
-0.0141661 -0.016999399 -1.45821 65280
-0.0113329 -0.016999399 -1.45821 65280
-0.0084996801 -0.016999399 -1.45821 65280
-0.0056664501 -0.016999399 -1.45821 65280
-0.00283323 -0.016999399 -1.45821 65280
0 -0.016999399 -1.45821 65280
0.00283323 -0.016999399 -1.45821 65280
0.0056664501 -0.016999399 -1.45821 65280
0.0084996801 -0.016999399 -1.45821 65280
0.0113329 -0.016999399 -1.45821 65280
0.0141661 -0.016999399 -1.45821 65280
0.016999399 -0.016999399 -1.45821 65280
0.0198326 -0.016999399 -1.45821 65280
0.022665801 -0.016999399 -1.45821 65280
0.025498999 -0.016999399 -1.45821 65280
0.0283323 -0.016999399 -1.45821 65280
0.031165499 -0.016999399 -1.45821 65280
0.033998702 -0.016999399 -1.45821 65280
0.0368319 -0.016999399 -1.45821 65280
0.0396652 -0.016999399 -1.45821 65280
0.042498399 -0.016999399 -1.45821 65280
0.045331601 -0.016999399 -1.45821 65280
0.0481648 -0.016999399 -1.45821 65280
0.050998099 -0.016999399 -1.45821 65280
0.053831302 -0.016999399 -1.45821 65280
0.0566645 -0.016999399 -1.45821 65280
0.0594978 -0.016999399 -1.45821 65280
0.062330998 -0.016999399 -1.45821 65280
0.065164201 -0.016999399 -1.45821 65280
0.067997403 -0.016999399 -1.45821 65280
0.070830703 -0.016999399 -1.45821 65280
0.073663898 -0.016999399 -1.45821 65280
0.0764971 -0.016999399 -1.45821 65280
0.079330303 -0.016999399 -1.45821 65280
0.082163602 -0.016999399 -1.45821 65280
0.084996797 -0.016999399 -1.45821 65280
0.08783 -0.016999399 -1.45821 65280
0.090663202 -0.016999399 -1.45821 65280
0.093496501 -0.016999399 -1.45821 65280
0.096329696 -0.016999399 -1.45821 65280
0.099162899 -0.016999399 -1.45821 65280
0.101996 -0.016999399 -1.45821 65280
0.104829 -0.016999399 -1.45821 65280
0.107663 -0.016999399 -1.45821 65280
0.110496 -0.016999399 -1.45821 65280
0.113329 -0.016999399 -1.45821 65280
0.116162 -0.016999399 -1.45821 65280
0.118996 -0.016999399 -1.45821 65280
0.121829 -0.016999399 -1.45821 65280
0.124662 -0.016999399 -1.45821 65280
0.12749501 -0.016999399 -1.45821 65280
0.130328 -0.016999399 -1.45821 65280
0.13316201 -0.016999399 -1.45821 65280
0.135995 -0.016999399 -1.45821 65280
0.13882799 -0.016999399 -1.45821 65280
0.141661 -0.016999399 -1.45821 65280
0.144495 -0.016999399 -1.45821 65280
0.147328 -0.016999399 -1.45821 65280
0.150161 -0.016999399 -1.45821 65280
0.15299401 -0.016999399 -1.45821 65280
0.155827 -0.016999399 -1.45821 65280
0.15866099 -0.016999399 -1.45821 65280
0.161494 -0.016999399 -1.45821 65280
0.164327 -0.016999399 -1.45821 65280
0.16716 -0.016999399 -1.45821 65280
0.169994 -0.016999399 -1.45821 65280
0.17282701 -0.016999399 -1.45821 65280
0.17566 -0.016999399 -1.45821 65280
0.17849299 -0.016999399 -1.45821 65280
0.181326 -0.016999399 -1.45821 65280
0.18415999 -0.016999399 -1.45821 65280
0.186993 -0.016999399 -1.45821 65280
0.189826 -0.016999399 -1.45821 65280
0.19265901 -0.016999399 -1.45821 65280
0.195493 -0.016999399 -1.45821 65280
0.19832601 -0.016999399 -1.45821 65280
0.201159 -0.016999399 -1.45821 65280
0.20399199 -0.016999399 -1.45821 65280
0.206826 -0.016999399 -1.45821 65280
0.209659 -0.016999399 -1.45821 65280
0.212492 -0.016999399 -1.45821 65280
0.215325 -0.016999399 -1.45821 65280
0.21815801 -0.016999399 -1.45821 65280
0.220992 -0.016999399 -1.45821 65280
0.22382499 -0.016999399 -1.45821 65280
0.226658 -0.016999399 -1.45821 65280
0.229491 -0.016999399 -1.45821 65280
0.232325 -0.016999399 -1.45821 65280
0.235158 -0.016999399 -1.45821 65280
0.23799101 -0.016999399 -1.45821 65280
0.240824 -0.016999399 -1.45821 65280
0.24365699 -0.016999399 -1.45821 65280
0.246491 -0.016999399 -1.45821 65280
0.24932399 -0.016999399 -1.45821 65280
0.252157 -0.016999399 -1.45821 65280
0.25499001 -0.016999399 -1.45821 65280
0.257824 -0.016999399 -1.45821 65280
0.26065701 -0.016999399 -1.45821 65280
0.26348999 -0.016999399 -1.45821 65280
0.266323 -0.016999399 -1.45821 65280
0.26915699 -0.016999399 -1.45821 65280
0.27199 -0.016999399 -1.45821 65280
0.27482301 -0.016999399 -1.45821 65280
0.27765599 -0.016999399 -1.45821 65280
0.280489 -0.016999399 -1.45821 65280
0.28332299 -0.016999399 -1.45821 65280
0.286156 -0.016999399 -1.45821 65280
0.28898901 -0.016999399 -1.45821 65280
0.29182199 -0.016999399 -1.45821 65280
0.29465601 -0.016999399 -1.45821 65280
0.29748899 -0.016999399 -1.45821 65280
0.300322 -0.016999399 -1.45821 65280
0.303155 -0.016999399 -1.45821 65280
0.30598801 -0.016999399 -1.45821 65280
0.30882201 -0.016999399 -1.45821 65280
0.31165501 -0.016999399 -1.45821 65280
0.31448799 -0.016999399 -1.45821 65280
0.317321 -0.016999399 -1.45821 65280
0.32015499 -0.016999399 -1.45821 65280
0.322988 -0.016999399 -1.45821 65280
0.32582101 -0.016999399 -1.45821 65280
0.32865399 -0.016999399 -1.45821 65280
0.331487 -0.016999399 -1.45821 65280
0.33432099 -0.016999399 -1.45821 65280
0.337154 -0.016999399 -1.45821 65280
0.33998701 -0.016999399 -1.45821 65280
0.34281999 -0.016999399 -1.45821 65280
0.34565401 -0.016999399 -1.45821 65280
0.34848699 -0.016999399 -1.45821 65280
0.35132 -0.016999399 -1.45821 65280
0.35415301 -0.016999399 -1.45821 65280
0.356987 -0.016999399 -1.45821 65280
0.35982001 -0.016999399 -1.45821 65280
0.36265299 -0.016999399 -1.45821 65280
0.365486 -0.016999399 -1.45821 65280
0.368319 -0.016999399 -1.45821 65280
0.371153 -0.016999399 -1.45821 65280
0.37398601 -0.016999399 -1.45821 65280
0.37681901 -0.016999399 -1.45821 65280
0.37965199 -0.016999399 -1.45821 65280
0.38248599 -0.016999399 -1.45821 65280
0.38531899 -0.016999399 -1.45821 65280
0.388152 -0.016999399 -1.45821 65280
0.39098501 -0.016999399 -1.45821 65280
0.39381799 -0.016999399 -1.45821 65280
0.39665201 -0.016999399 -1.45821 65280
-0.39912099 -0.0141532 -1.45688 65280
-0.39629099 -0.0141532 -1.45688 65280
-0.39346001 -0.0141532 -1.45688 65280
-0.39062899 -0.0141532 -1.45688 65280
-0.38779899 -0.0141532 -1.45688 65280
-0.38496801 -0.0141532 -1.45688 65280
-0.382137 -0.0141532 -1.45688 65280
-0.379307 -0.0141532 -1.45688 65280
-0.37647599 -0.0141532 -1.45688 65280
-0.37364501 -0.0141532 -1.45688 65280
-0.37081501 -0.0141532 -1.45688 65280
-0.367984 -0.0141532 -1.45688 65280
-0.36515301 -0.0141532 -1.45688 65280
-0.36232299 -0.0141532 -1.45688 65280
-0.359492 -0.0141532 -1.45688 65280
-0.35666201 -0.0141532 -1.45688 65280
-0.35383099 -0.0141532 -1.45688 65280
-0.35100001 -0.0141532 -1.45688 65280
-0.34817001 -0.0141532 -1.45688 65280
-0.345339 -0.0141532 -1.45688 65280
-0.34250799 -0.0141532 -1.45688 65280
-0.33967799 -0.0141532 -1.45688 65280
-0.33684701 -0.0141532 -1.45688 65280
-0.334016 -0.0141532 -1.45688 65280
-0.331186 -0.0141532 -1.45688 65280
-0.32835501 -0.0141532 -1.45688 65280
-0.325524 -0.0141532 -1.45688 65280
-0.322694 -0.0141532 -1.45688 65280
-0.31986299 -0.0141532 -1.45688 65280
-0.31703201 -0.0141532 -1.45688 65280
-0.31420201 -0.0141532 -1.45688 65280
-0.311371 -0.0141532 -1.45688 65280
-0.308541 -0.0141532 -1.45688 65280
-0.30570999 -0.0141532 -1.45688 65280
-0.30287901 -0.0141532 -1.45688 65280
-0.30004901 -0.0141532 -1.45688 65280
-0.29721799 -0.0141532 -1.45688 65280
-0.29438701 -0.0141532 -1.45688 65280
-0.29155701 -0.0141532 -1.45688 65280
-0.288726 -0.0141532 -1.45688 65280
-0.27921799 -0.0138227 -1.42286 65280
-0.275316 -0.0137658 -1.4170001 65280
-0.27183899 -0.0137292 -1.41324 65280
-0.26856899 -0.0137025 -1.41049 65280
-0.265497 -0.0136854 -1.40873 65280
-0.262575 -0.0136758 -1.40773 65280
-0.25964701 -0.0136656 -1.40669 65280
-0.25670299 -0.0136544 -1.40554 65280
-0.253768 -0.0136434 -1.40441 65280
-0.25083199 -0.0136322 -1.40324 65280
-0.247925 -0.0136223 -1.40222 65280
-0.245033 -0.0136129 -1.40126 65280
-0.24221399 -0.0136075 -1.40071 65280
-0.239425 -0.0136037 -1.40031 65280
-0.23667 -0.0136017 -1.40011 65280
-0.23395599 -0.0136021 -1.4001499 65280
-0.231289 -0.0136053 -1.40047 65280
-0.22864901 -0.01361 -1.40097 65280
-0.22604001 -0.0136169 -1.40167 65280
-0.223456 -0.0136254 -1.40255 65280
-0.220897 -0.0136356 -1.4036 65280
-0.21833999 -0.0136462 -1.40469 65280
-0.215829 -0.01366 -1.4061199 65280
-0.213358 -0.0136768 -1.40784 65280
-0.210958 -0.0136985 -1.41008 65280
-0.208627 -0.0137254 -1.41285 65280
-0.206398 -0.0137598 -1.4163899 65280
-0.203997 -0.0137836 -1.41883 65280
-0.20159601 -0.0138079 -1.42134 65280
-0.199435 -0.0138496 -1.42563 65280
-0.200976 -0.0141532 -1.45688 65280
-0.198145 -0.0141532 -1.45688 65280
-0.195315 -0.0141532 -1.45688 65280
-0.19248401 -0.0141532 -1.45688 65280
-0.18965299 -0.0141532 -1.45688 65280
-0.186823 -0.0141532 -1.45688 65280
-0.183992 -0.0141532 -1.45688 65280
-0.181161 -0.0141532 -1.45688 65280
-0.178331 -0.0141532 -1.45688 65280
-0.17550001 -0.0141532 -1.45688 65280
-0.17266899 -0.0141532 -1.45688 65280
-0.16983899 -0.0141532 -1.45688 65280
-0.167008 -0.0141532 -1.45688 65280
-0.164178 -0.0141532 -1.45688 65280
-0.161347 -0.0141532 -1.45688 65280
-0.158516 -0.0141532 -1.45688 65280
-0.15568601 -0.0141532 -1.45688 65280
-0.15285499 -0.0141532 -1.45688 65280
-0.150024 -0.0141532 -1.45688 65280
-0.147194 -0.0141532 -1.45688 65280
-0.144363 -0.0141532 -1.45688 65280
-0.141532 -0.0141532 -1.45688 65280
-0.13870201 -0.0141532 -1.45688 65280
-0.13587099 -0.0141532 -1.45688 65280
-0.13304 -0.0141532 -1.45688 65280
-0.13021 -0.0141532 -1.45688 65280
-0.127379 -0.0141532 -1.45688 65280
-0.124548 -0.0141532 -1.45688 65280
-0.121718 -0.0141532 -1.45688 65280
-0.118887 -0.0141532 -1.45688 65280
-0.116057 -0.0141532 -1.45688 65280
-0.113226 -0.0141532 -1.45688 65280
-0.110395 -0.0141532 -1.45688 65280
-0.107565 -0.0141532 -1.45688 65280
-0.104734 -0.0141532 -1.45688 65280
-0.101903 -0.0141532 -1.45688 65280
-0.099072598 -0.0141532 -1.45688 65280
-0.096242003 -0.0141532 -1.45688 65280
-0.093411297 -0.0141532 -1.45688 65280
-0.090580702 -0.0141532 -1.45688 65280
-0.0877501 -0.0141532 -1.45688 65280
-0.084919401 -0.0141532 -1.45688 65280
-0.082088798 -0.0141532 -1.45688 65280
-0.079258099 -0.0141532 -1.45688 65280
-0.076427497 -0.0141532 -1.45688 65280
-0.073596798 -0.0141532 -1.45688 65280
-0.070766203 -0.0141532 -1.45688 65280
-0.067935497 -0.0141532 -1.45688 65280
-0.065104902 -0.0141532 -1.45688 65280
-0.062274199 -0.0141532 -1.45688 65280
-0.0594436 -0.0141532 -1.45688 65280
-0.056612901 -0.0141532 -1.45688 65280
-0.053782299 -0.0141532 -1.45688 65280
-0.0509516 -0.0141532 -1.45688 65280
-0.048121002 -0.0141532 -1.45688 65280
-0.045290399 -0.0141532 -1.45688 65280
-0.0424597 -0.0141532 -1.45688 65280
-0.039629102 -0.0141532 -1.45688 65280
-0.036798399 -0.0141532 -1.45688 65280
-0.0339678 -0.0141532 -1.45688 65280
-0.031137099 -0.0141532 -1.45688 65280
-0.028306499 -0.0141532 -1.45688 65280
-0.0254758 -0.0141532 -1.45688 65280
-0.0226452 -0.0141532 -1.45688 65280
-0.019814501 -0.0141532 -1.45688 65280
-0.0169839 -0.0141532 -1.45688 65280
-0.0141532 -0.0141532 -1.45688 65280
-0.0113226 -0.0141532 -1.45688 65280
-0.0084919399 -0.0141532 -1.45688 65280
-0.0056612901 -0.0141532 -1.45688 65280
-0.00283065 -0.0141532 -1.45688 65280
0 -0.0141532 -1.45688 65280
0.00283065 -0.0141532 -1.45688 65280
0.0056612901 -0.0141532 -1.45688 65280
0.0084919399 -0.0141532 -1.45688 65280
0.0113226 -0.0141532 -1.45688 65280
0.0141532 -0.0141532 -1.45688 65280
0.0169839 -0.0141532 -1.45688 65280
0.019814501 -0.0141532 -1.45688 65280
0.0226452 -0.0141532 -1.45688 65280
0.0254758 -0.0141532 -1.45688 65280
0.028306499 -0.0141532 -1.45688 65280
0.031137099 -0.0141532 -1.45688 65280
0.0339678 -0.0141532 -1.45688 65280
0.036798399 -0.0141532 -1.45688 65280
0.039629102 -0.0141532 -1.45688 65280
0.0424597 -0.0141532 -1.45688 65280
0.045290399 -0.0141532 -1.45688 65280
0.048121002 -0.0141532 -1.45688 65280
0.0509516 -0.0141532 -1.45688 65280
0.053782299 -0.0141532 -1.45688 65280
0.056612901 -0.0141532 -1.45688 65280
0.0594436 -0.0141532 -1.45688 65280
0.062274199 -0.0141532 -1.45688 65280
0.065104902 -0.0141532 -1.45688 65280
0.067935497 -0.0141532 -1.45688 65280
0.070766203 -0.0141532 -1.45688 65280
0.073596798 -0.0141532 -1.45688 65280
0.076427497 -0.0141532 -1.45688 65280
0.079258099 -0.0141532 -1.45688 65280
0.082088798 -0.0141532 -1.45688 65280
0.084919401 -0.0141532 -1.45688 65280
0.0877501 -0.0141532 -1.45688 65280
0.090580702 -0.0141532 -1.45688 65280
0.093411297 -0.0141532 -1.45688 65280
0.096242003 -0.0141532 -1.45688 65280
0.099072598 -0.0141532 -1.45688 65280
0.101903 -0.0141532 -1.45688 65280
0.104734 -0.0141532 -1.45688 65280
0.107565 -0.0141532 -1.45688 65280
0.110395 -0.0141532 -1.45688 65280
0.113226 -0.0141532 -1.45688 65280
0.116057 -0.0141532 -1.45688 65280
0.118887 -0.0141532 -1.45688 65280
0.121718 -0.0141532 -1.45688 65280
0.124548 -0.0141532 -1.45688 65280
0.127379 -0.0141532 -1.45688 65280
0.13021 -0.0141532 -1.45688 65280
0.13304 -0.0141532 -1.45688 65280
0.13587099 -0.0141532 -1.45688 65280
0.13870201 -0.0141532 -1.45688 65280
0.141532 -0.0141532 -1.45688 65280
0.144363 -0.0141532 -1.45688 65280
0.147194 -0.0141532 -1.45688 65280
0.150024 -0.0141532 -1.45688 65280
0.15285499 -0.0141532 -1.45688 65280
0.15568601 -0.0141532 -1.45688 65280
0.158516 -0.0141532 -1.45688 65280
0.161347 -0.0141532 -1.45688 65280
0.164178 -0.0141532 -1.45688 65280
0.167008 -0.0141532 -1.45688 65280
0.16983899 -0.0141532 -1.45688 65280
0.17266899 -0.0141532 -1.45688 65280
0.17550001 -0.0141532 -1.45688 65280
0.178331 -0.0141532 -1.45688 65280
0.181161 -0.0141532 -1.45688 65280
0.183992 -0.0141532 -1.45688 65280
0.186823 -0.0141532 -1.45688 65280
0.18965299 -0.0141532 -1.45688 65280
0.19248401 -0.0141532 -1.45688 65280
0.195315 -0.0141532 -1.45688 65280
0.198145 -0.0141532 -1.45688 65280
0.200976 -0.0141532 -1.45688 65280
0.203807 -0.0141532 -1.45688 65280
0.206637 -0.0141532 -1.45688 65280
0.20946801 -0.0141532 -1.45688 65280
0.212299 -0.0141532 -1.45688 65280
0.215129 -0.0141532 -1.45688 65280
0.21796 -0.0141532 -1.45688 65280
0.22079 -0.0141532 -1.45688 65280
0.223621 -0.0141532 -1.45688 65280
0.22645199 -0.0141532 -1.45688 65280
0.22928201 -0.0141532 -1.45688 65280
0.232113 -0.0141532 -1.45688 65280
0.234944 -0.0141532 -1.45688 65280
0.237774 -0.0141532 -1.45688 65280
0.240605 -0.0141532 -1.45688 65280
0.24343599 -0.0141532 -1.45688 65280
0.24626601 -0.0141532 -1.45688 65280
0.249097 -0.0141532 -1.45688 65280
0.251928 -0.0141532 -1.45688 65280
0.254758 -0.0141532 -1.45688 65280
0.25758901 -0.0141532 -1.45688 65280
0.26041999 -0.0141532 -1.45688 65280
0.26324999 -0.0141532 -1.45688 65280
0.26608101 -0.0141532 -1.45688 65280
0.268911 -0.0141532 -1.45688 65280
0.27174199 -0.0141532 -1.45688 65280
0.274573 -0.0141532 -1.45688 65280
0.277403 -0.0141532 -1.45688 65280
0.28023401 -0.0141532 -1.45688 65280
0.28306499 -0.0141532 -1.45688 65280
0.28589499 -0.0141532 -1.45688 65280
0.288726 -0.0141532 -1.45688 65280
0.29155701 -0.0141532 -1.45688 65280
0.29438701 -0.0141532 -1.45688 65280
0.29721799 -0.0141532 -1.45688 65280
0.30004901 -0.0141532 -1.45688 65280
0.30287901 -0.0141532 -1.45688 65280
0.30570999 -0.0141532 -1.45688 65280
0.308541 -0.0141532 -1.45688 65280
0.311371 -0.0141532 -1.45688 65280
0.31420201 -0.0141532 -1.45688 65280
0.31703201 -0.0141532 -1.45688 65280
0.31986299 -0.0141532 -1.45688 65280
0.322694 -0.0141532 -1.45688 65280
0.325524 -0.0141532 -1.45688 65280
0.32835501 -0.0141532 -1.45688 65280
0.331186 -0.0141532 -1.45688 65280
0.334016 -0.0141532 -1.45688 65280
0.33684701 -0.0141532 -1.45688 65280
0.33967799 -0.0141532 -1.45688 65280
0.34250799 -0.0141532 -1.45688 65280
0.345339 -0.0141532 -1.45688 65280
0.34817001 -0.0141532 -1.45688 65280
0.35100001 -0.0141532 -1.45688 65280
0.35383099 -0.0141532 -1.45688 65280
0.35666201 -0.0141532 -1.45688 65280
0.359492 -0.0141532 -1.45688 65280
0.36232299 -0.0141532 -1.45688 65280
0.36515301 -0.0141532 -1.45688 65280
0.367984 -0.0141532 -1.45688 65280
0.37081501 -0.0141532 -1.45688 65280
0.37364501 -0.0141532 -1.45688 65280
0.37647599 -0.0141532 -1.45688 65280
0.379307 -0.0141532 -1.45688 65280
0.382137 -0.0141532 -1.45688 65280
0.38496801 -0.0141532 -1.45688 65280
0.38779899 -0.0141532 -1.45688 65280
0.39062899 -0.0141532 -1.45688 65280
0.39346001 -0.0141532 -1.45688 65280
0.39629099 -0.0141532 -1.45688 65280
-0.39875901 -0.0113123 -1.45556 65280
-0.39592999 -0.0113123 -1.45556 65280
-0.39310199 -0.0113123 -1.45556 65280
-0.39027399 -0.0113123 -1.45556 65280
-0.38744599 -0.0113123 -1.45556 65280
-0.38461801 -0.0113123 -1.45556 65280
-0.38179001 -0.0113123 -1.45556 65280
-0.37896201 -0.0113123 -1.45556 65280
-0.37613401 -0.0113123 -1.45556 65280
-0.37330601 -0.0113123 -1.45556 65280
-0.370478 -0.0113123 -1.45556 65280
-0.36765 -0.0113123 -1.45556 65280
-0.364822 -0.0113123 -1.45556 65280
-0.361994 -0.0113123 -1.45556 65280
-0.35916501 -0.0113123 -1.45556 65280
-0.35633701 -0.0113123 -1.45556 65280
-0.35350901 -0.0113123 -1.45556 65280
-0.35068101 -0.0113123 -1.45556 65280
-0.347853 -0.0113123 -1.45556 65280
-0.345025 -0.0113123 -1.45556 65280
-0.342197 -0.0113123 -1.45556 65280
-0.339369 -0.0113123 -1.45556 65280
-0.336541 -0.0113123 -1.45556 65280
-0.333713 -0.0113123 -1.45556 65280
-0.33088499 -0.0113123 -1.45556 65280
-0.32805699 -0.0113123 -1.45556 65280
-0.32522899 -0.0113123 -1.45556 65280
-0.32240099 -0.0113123 -1.45556 65280
-0.319572 -0.0113123 -1.45556 65280
-0.316744 -0.0113123 -1.45556 65280
-0.313916 -0.0113123 -1.45556 65280
-0.311088 -0.0113123 -1.45556 65280
-0.30825999 -0.0113123 -1.45556 65280
-0.30543199 -0.0113123 -1.45556 65280
-0.30260399 -0.0113123 -1.45556 65280
-0.29977599 -0.0113123 -1.45556 65280
-0.29694799 -0.0113123 -1.45556 65280
-0.29412001 -0.0113123 -1.45556 65280
-0.29129201 -0.0113123 -1.45556 65280
-0.28846401 -0.0113123 -1.45556 65280
-0.279856 -0.0110834 -1.42611 65280
-0.27550799 -0.0110203 -1.41799 65280
-0.27196699 -0.0109886 -1.4139 65280
-0.26865101 -0.0109654 -1.41092 65280
-0.26551801 -0.0109492 -1.4088399 65280
-0.26256299 -0.0109401 -1.40767 65280
-0.25968301 -0.010934 -1.40689 65280
-0.25677899 -0.0109268 -1.40595 65280
-0.25386199 -0.0109188 -1.40493 65280
-0.25095299 -0.010911 -1.4039201 65280
-0.24804799 -0.0109032 -1.40292 65280
-0.245166 -0.0108963 -1.40203 65280
-0.24232399 -0.010891 -1.40135 65280
-0.23950499 -0.0108866 -1.40078 65280
-0.23673099 -0.0108842 -1.40047 65280
-0.23397601 -0.0108826 -1.40027 65280
-0.23124 -0.0108819 -1.40017 65280
-0.228559 -0.0108837 -1.40042 65280
-0.22588 -0.0108858 -1.4006799 65280
-0.223231 -0.0108893 -1.40113 65280
-0.220596 -0.0108936 -1.40169 65280
-0.217999 -0.0109 -1.4025 65280
-0.215413 -0.010907 -1.4033999 65280
-0.212881 -0.010917 -1.40469 65280
-0.210418 -0.0109308 -1.4064699 65280
-0.208079 -0.0109515 -1.40914 65280
-0.20587599 -0.01098 -1.41281 65280
-0.20370901 -0.0110113 -1.4168299 65280
-0.201271 -0.0110285 -1.41905 65280
-0.19904 -0.0110578 -1.42281 65280
-0.19717801 -0.0111086 -1.42935 65280
-0.197965 -0.0113123 -1.45556 65280
-0.19513699 -0.0113123 -1.45556 65280
-0.19230901 -0.0113123 -1.45556 65280
-0.18948101 -0.0113123 -1.45556 65280
-0.186653 -0.0113123 -1.45556 65280
-0.183825 -0.0113123 -1.45556 65280
-0.180997 -0.0113123 -1.45556 65280
-0.178169 -0.0113123 -1.45556 65280
-0.175341 -0.0113123 -1.45556 65280
-0.17251299 -0.0113123 -1.45556 65280
-0.16968399 -0.0113123 -1.45556 65280
-0.16685601 -0.0113123 -1.45556 65280
-0.164028 -0.0113123 -1.45556 65280
-0.1612 -0.0113123 -1.45556 65280
-0.158372 -0.0113123 -1.45556 65280
-0.155544 -0.0113123 -1.45556 65280
-0.152716 -0.0113123 -1.45556 65280
-0.14988799 -0.0113123 -1.45556 65280
-0.14706001 -0.0113123 -1.45556 65280
-0.144232 -0.0113123 -1.45556 65280
-0.141404 -0.0113123 -1.45556 65280
-0.138576 -0.0113123 -1.45556 65280
-0.135748 -0.0113123 -1.45556 65280
-0.13292 -0.0113123 -1.45556 65280
-0.130091 -0.0113123 -1.45556 65280
-0.12726299 -0.0113123 -1.45556 65280
-0.124435 -0.0113123 -1.45556 65280
-0.121607 -0.0113123 -1.45556 65280
-0.118779 -0.0113123 -1.45556 65280
-0.115951 -0.0113123 -1.45556 65280
-0.113123 -0.0113123 -1.45556 65280
-0.110295 -0.0113123 -1.45556 65280
-0.107467 -0.0113123 -1.45556 65280
-0.104639 -0.0113123 -1.45556 65280
-0.101811 -0.0113123 -1.45556 65280
-0.098982602 -0.0113123 -1.45556 65280
-0.096154504 -0.0113123 -1.45556 65280
-0.093326502 -0.0113123 -1.45556 65280
-0.090498403 -0.0113123 -1.45556 65280
-0.087670296 -0.0113123 -1.45556 65280
-0.084842198 -0.0113123 -1.45556 65280
-0.082014203 -0.0113123 -1.45556 65280
-0.079186097 -0.0113123 -1.45556 65280
-0.076357998 -0.0113123 -1.45556 65280
-0.073529899 -0.0113123 -1.45556 65280
-0.070701897 -0.0113123 -1.45556 65280
-0.067873798 -0.0113123 -1.45556 65280
-0.065045699 -0.0113123 -1.45556 65280
-0.062217601 -0.0113123 -1.45556 65280
-0.059389599 -0.0113123 -1.45556 65280
-0.0565615 -0.0113123 -1.45556 65280
-0.053733401 -0.0113123 -1.45556 65280
-0.050905298 -0.0113123 -1.45556 65280
-0.0480773 -0.0113123 -1.45556 65280
-0.045249201 -0.0113123 -1.45556 65280
-0.042421099 -0.0113123 -1.45556 65280
-0.039593 -0.0113123 -1.45556 65280
-0.036765002 -0.0113123 -1.45556 65280
-0.033936899 -0.0113123 -1.45556 65280
-0.0311088 -0.0113123 -1.45556 65280
-0.0282807 -0.0113123 -1.45556 65280
-0.0254527 -0.0113123 -1.45556 65280
-0.022624601 -0.0113123 -1.45556 65280
-0.0197965 -0.0113123 -1.45556 65280
-0.016968399 -0.0113123 -1.45556 65280
-0.0141404 -0.0113123 -1.45556 65280
-0.0113123 -0.0113123 -1.45556 65280
-0.0084842201 -0.0113123 -1.45556 65280
-0.0056561502 -0.0113123 -1.45556 65280
-0.00282807 -0.0113123 -1.45556 65280
0 -0.0113123 -1.45556 65280
0.00282807 -0.0113123 -1.45556 65280
0.0056561502 -0.0113123 -1.45556 65280
0.0084842201 -0.0113123 -1.45556 65280
0.0113123 -0.0113123 -1.45556 65280
0.0141404 -0.0113123 -1.45556 65280
0.016968399 -0.0113123 -1.45556 65280
0.0197965 -0.0113123 -1.45556 65280
0.022624601 -0.0113123 -1.45556 65280
0.0254527 -0.0113123 -1.45556 65280
0.0282807 -0.0113123 -1.45556 65280
0.0311088 -0.0113123 -1.45556 65280
0.033936899 -0.0113123 -1.45556 65280
0.036765002 -0.0113123 -1.45556 65280
0.039593 -0.0113123 -1.45556 65280
0.042421099 -0.0113123 -1.45556 65280
0.045249201 -0.0113123 -1.45556 65280
0.0480773 -0.0113123 -1.45556 65280
0.050905298 -0.0113123 -1.45556 65280
0.053733401 -0.0113123 -1.45556 65280
0.0565615 -0.0113123 -1.45556 65280
0.059389599 -0.0113123 -1.45556 65280
0.062217601 -0.0113123 -1.45556 65280
0.065045699 -0.0113123 -1.45556 65280
0.067873798 -0.0113123 -1.45556 65280
0.070701897 -0.0113123 -1.45556 65280
0.073529899 -0.0113123 -1.45556 65280
0.076357998 -0.0113123 -1.45556 65280
0.079186097 -0.0113123 -1.45556 65280
0.082014203 -0.0113123 -1.45556 65280
0.084842198 -0.0113123 -1.45556 65280
0.087670296 -0.0113123 -1.45556 65280
0.090498403 -0.0113123 -1.45556 65280
0.093326502 -0.0113123 -1.45556 65280
0.096154504 -0.0113123 -1.45556 65280
0.098982602 -0.0113123 -1.45556 65280
0.101811 -0.0113123 -1.45556 65280
0.104639 -0.0113123 -1.45556 65280
0.107467 -0.0113123 -1.45556 65280
0.110295 -0.0113123 -1.45556 65280
0.113123 -0.0113123 -1.45556 65280
0.115951 -0.0113123 -1.45556 65280
0.118779 -0.0113123 -1.45556 65280
0.121607 -0.0113123 -1.45556 65280
0.124435 -0.0113123 -1.45556 65280
0.12726299 -0.0113123 -1.45556 65280
0.130091 -0.0113123 -1.45556 65280
0.13292 -0.0113123 -1.45556 65280
0.135748 -0.0113123 -1.45556 65280
0.138576 -0.0113123 -1.45556 65280
0.141404 -0.0113123 -1.45556 65280
0.144232 -0.0113123 -1.45556 65280
0.14706001 -0.0113123 -1.45556 65280
0.14988799 -0.0113123 -1.45556 65280
0.152716 -0.0113123 -1.45556 65280
0.155544 -0.0113123 -1.45556 65280
0.158372 -0.0113123 -1.45556 65280
0.1612 -0.0113123 -1.45556 65280
0.164028 -0.0113123 -1.45556 65280
0.16685601 -0.0113123 -1.45556 65280
0.16968399 -0.0113123 -1.45556 65280
0.17251299 -0.0113123 -1.45556 65280
0.175341 -0.0113123 -1.45556 65280
0.178169 -0.0113123 -1.45556 65280
0.180997 -0.0113123 -1.45556 65280
0.183825 -0.0113123 -1.45556 65280
0.186653 -0.0113123 -1.45556 65280
0.18948101 -0.0113123 -1.45556 65280
0.19230901 -0.0113123 -1.45556 65280
0.19513699 -0.0113123 -1.45556 65280
0.197965 -0.0113123 -1.45556 65280
0.200793 -0.0113123 -1.45556 65280
0.203621 -0.0113123 -1.45556 65280
0.206449 -0.0113123 -1.45556 65280
0.209278 -0.0113123 -1.45556 65280
0.212106 -0.0113123 -1.45556 65280
0.21493401 -0.0113123 -1.45556 65280
0.21776199 -0.0113123 -1.45556 65280
0.22059 -0.0113123 -1.45556 65280
0.223418 -0.0113123 -1.45556 65280
0.226246 -0.0113123 -1.45556 65280
0.229074 -0.0113123 -1.45556 65280
0.231902 -0.0113123 -1.45556 65280
0.23473001 -0.0113123 -1.45556 65280
0.23755801 -0.0113123 -1.45556 65280
0.24038599 -0.0113123 -1.45556 65280
0.243214 -0.0113123 -1.45556 65280
0.246042 -0.0113123 -1.45556 65280
0.248871 -0.0113123 -1.45556 65280
0.251699 -0.0113123 -1.45556 65280
0.254527 -0.0113123 -1.45556 65280
0.257355 -0.0113123 -1.45556 65280
0.26018301 -0.0113123 -1.45556 65280
0.26301101 -0.0113123 -1.45556 65280
0.26583901 -0.0113123 -1.45556 65280
0.26866701 -0.0113123 -1.45556 65280
0.27149501 -0.0113123 -1.45556 65280
0.27432299 -0.0113123 -1.45556 65280
0.27715099 -0.0113123 -1.45556 65280
0.27997899 -0.0113123 -1.45556 65280
0.28280699 -0.0113123 -1.45556 65280
0.28563601 -0.0113123 -1.45556 65280
0.28846401 -0.0113123 -1.45556 65280
0.29129201 -0.0113123 -1.45556 65280
0.29412001 -0.0113123 -1.45556 65280
0.29694799 -0.0113123 -1.45556 65280
0.29977599 -0.0113123 -1.45556 65280
0.30260399 -0.0113123 -1.45556 65280
0.30543199 -0.0113123 -1.45556 65280
0.30825999 -0.0113123 -1.45556 65280
0.311088 -0.0113123 -1.45556 65280
0.313916 -0.0113123 -1.45556 65280
0.316744 -0.0113123 -1.45556 65280
0.319572 -0.0113123 -1.45556 65280
0.32240099 -0.0113123 -1.45556 65280
0.32522899 -0.0113123 -1.45556 65280
0.32805699 -0.0113123 -1.45556 65280
0.33088499 -0.0113123 -1.45556 65280
0.333713 -0.0113123 -1.45556 65280
0.336541 -0.0113123 -1.45556 65280
0.339369 -0.0113123 -1.45556 65280
0.342197 -0.0113123 -1.45556 65280
0.345025 -0.0113123 -1.45556 65280
0.347853 -0.0113123 -1.45556 65280
0.35068101 -0.0113123 -1.45556 65280
0.35350901 -0.0113123 -1.45556 65280
0.35633701 -0.0113123 -1.45556 65280
0.35916501 -0.0113123 -1.45556 65280
0.361994 -0.0113123 -1.45556 65280
0.364822 -0.0113123 -1.45556 65280
0.36765 -0.0113123 -1.45556 65280
0.370478 -0.0113123 -1.45556 65280
0.37330601 -0.0113123 -1.45556 65280
0.37613401 -0.0113123 -1.45556 65280
0.37896201 -0.0113123 -1.45556 65280
0.38179001 -0.0113123 -1.45556 65280
0.38461801 -0.0113123 -1.45556 65280
0.38744599 -0.0113123 -1.45556 65280
0.39027399 -0.0113123 -1.45556 65280
0.39310199 -0.0113123 -1.45556 65280
0.39592999 -0.0113123 -1.45556 65280
-0.40122199 -0.00847652 -1.45424 65280
-0.39839599 -0.00847652 -1.45424 65280
-0.39557099 -0.00847652 -1.45424 65280
-0.39274499 -0.00847652 -1.45424 65280
-0.38992 -0.00847652 -1.45424 65280
-0.38709399 -0.00847652 -1.45424 65280
-0.384269 -0.00847652 -1.45424 65280
-0.38144299 -0.00847652 -1.45424 65280
-0.378618 -0.00847652 -1.45424 65280
-0.375792 -0.00847652 -1.45424 65280
-0.372967 -0.00847652 -1.45424 65280
-0.370141 -0.00847652 -1.45424 65280
-0.36731601 -0.00847652 -1.45424 65280
-0.36449 -0.00847652 -1.45424 65280
-0.36166501 -0.00847652 -1.45424 65280
-0.35883901 -0.00847652 -1.45424 65280
-0.35601401 -0.00847652 -1.45424 65280
-0.35318801 -0.00847652 -1.45424 65280
-0.35036299 -0.00847652 -1.45424 65280
-0.34753701 -0.00847652 -1.45424 65280
-0.34471199 -0.00847652 -1.45424 65280
-0.34188601 -0.00847652 -1.45424 65280
-0.33906099 -0.00847652 -1.45424 65280
-0.33623499 -0.00847652 -1.45424 65280
-0.33340999 -0.00847652 -1.45424 65280
-0.33058399 -0.00847652 -1.45424 65280
-0.327759 -0.00847652 -1.45424 65280
-0.32493299 -0.00847652 -1.45424 65280
-0.322108 -0.00847652 -1.45424 65280
-0.319282 -0.00847652 -1.45424 65280
-0.316457 -0.00847652 -1.45424 65280
-0.313631 -0.00847652 -1.45424 65280
-0.31080601 -0.00847652 -1.45424 65280
-0.30798 -0.00847652 -1.45424 65280
-0.30515501 -0.00847652 -1.45424 65280
-0.302329 -0.00847652 -1.45424 65280
-0.29950401 -0.00847652 -1.45424 65280
-0.29667801 -0.00847652 -1.45424 65280
-0.29385301 -0.00847652 -1.45424 65280
-0.29102701 -0.00847652 -1.45424 65280
-0.28820199 -0.00847652 -1.45424 65280
-0.28537601 -0.00847652 -1.45424 65280
-0.275805 -0.0082741398 -1.41952 65280
-0.27214101 -0.0082467003 -1.4148099 65280
-0.26878601 -0.0082281502 -1.41163 65280
-0.26561099 -0.0082147801 -1.40933 65280
-0.26258001 -0.0082056299 -1.40776 65280
-0.25971901 -0.0082016597 -1.4070801 65280
-0.25685301 -0.0081974296 -1.40636 65280
-0.253959 -0.0081922403 -1.40546 65280
-0.251057 -0.0081866402 -1.4045 65280
-0.248163 -0.0081811901 -1.4035701 65280
-0.245276 -0.0081758704 -1.40266 65280
-0.24241801 -0.0081714001 -1.40189 65280
-0.239577 -0.0081674103 -1.40121 65280
-0.236755 -0.0081639802 -1.40062 65280
-0.233968 -0.0081616798 -1.40022 65280
-0.23119 -0.0081596496 -1.39987 65280
-0.228433 -0.0081583401 -1.39965 65280
-0.225694 -0.0081576305 -1.3995301 65280
-0.222987 -0.0081580803 -1.3996 65280
-0.220287 -0.0081587797 -1.39972 65280
-0.21761 -0.0081603797 -1.4 65280
-0.214974 -0.0081635602 -1.40055 65280
-0.21238001 -0.0081684599 -1.40139 65280
-0.209868 -0.0081766704 -1.40279 65280
-0.207505 -0.0081909904 -1.40525 65280
-0.20528799 -0.0082115298 -1.40877 65280
-0.20323201 -0.0082391202 -1.41351 65280
-0.201002 -0.0082603497 -1.41715 65280
-0.19870301 -0.0082792901 -1.4204 65280
-0.19673599 -0.0083128 -1.42615 65280
-0.197785 -0.00847652 -1.45424 65280
-0.19496 -0.00847652 -1.45424 65280
-0.19213399 -0.00847652 -1.45424 65280
-0.189309 -0.00847652 -1.45424 65280
-0.186483 -0.00847652 -1.45424 65280
-0.183658 -0.00847652 -1.45424 65280
-0.180832 -0.00847652 -1.45424 65280
-0.17800701 -0.00847652 -1.45424 65280
-0.175181 -0.00847652 -1.45424 65280
-0.17235599 -0.00847652 -1.45424 65280
-0.16953 -0.00847652 -1.45424 65280
-0.166705 -0.00847652 -1.45424 65280
-0.16387901 -0.00847652 -1.45424 65280
-0.161054 -0.00847652 -1.45424 65280
-0.158228 -0.00847652 -1.45424 65280
-0.155403 -0.00847652 -1.45424 65280
-0.152577 -0.00847652 -1.45424 65280
-0.14975201 -0.00847652 -1.45424 65280
-0.146926 -0.00847652 -1.45424 65280
-0.14410099 -0.00847652 -1.45424 65280
-0.141275 -0.00847652 -1.45424 65280
-0.13845 -0.00847652 -1.45424 65280
-0.13562401 -0.00847652 -1.45424 65280
-0.132799 -0.00847652 -1.45424 65280
-0.12997299 -0.00847652 -1.45424 65280
-0.127148 -0.00847652 -1.45424 65280
-0.124322 -0.00847652 -1.45424 65280
-0.121497 -0.00847652 -1.45424 65280
-0.118671 -0.00847652 -1.45424 65280
-0.115846 -0.00847652 -1.45424 65280
-0.11302 -0.00847652 -1.45424 65280
-0.110195 -0.00847652 -1.45424 65280
-0.107369 -0.00847652 -1.45424 65280
-0.104544 -0.00847652 -1.45424 65280
-0.101718 -0.00847652 -1.45424 65280
-0.098892704 -0.00847652 -1.45424 65280
-0.096067198 -0.00847652 -1.45424 65280
-0.093241699 -0.00847652 -1.45424 65280
-0.0904162 -0.00847652 -1.45424 65280
-0.087590702 -0.00847652 -1.45424 65280
-0.084765203 -0.00847652 -1.45424 65280
-0.081939697 -0.00847652 -1.45424 65280
-0.079114199 -0.00847652 -1.45424 65280
-0.0762887 -0.00847652 -1.45424 65280
-0.073463202 -0.00847652 -1.45424 65280
-0.070637703 -0.00847652 -1.45424 65280
-0.067812197 -0.00847652 -1.45424 65280
-0.064986698 -0.00847652 -1.45424 65280
-0.0621612 -0.00847652 -1.45424 65280
-0.059335601 -0.00847652 -1.45424 65280
-0.056510098 -0.00847652 -1.45424 65280
-0.0536846 -0.00847652 -1.45424 65280
-0.050859101 -0.00847652 -1.45424 65280
-0.048033599 -0.00847652 -1.45424 65280
-0.0452081 -0.00847652 -1.45424 65280
