# .PCD v0.7 - Point Cloud Data file format
VERSION 0.7
FIELDS x y z rgb
SIZE 4 4 4 4
TYPE F F F U
COUNT 1 1 1 1
WIDTH 1268
HEIGHT 1
VIEWPOINT 0 0 0 1 0 0 0
POINTS 1268
DATA ascii
-0.183816 0.0027031701 -1.39127 65280
-0.181145 0.0027036499 -1.39152 65280
-0.178634 0.0027065701 -1.39302 65280
-0.17626899 0.00271184 -1.39573 65280
-0.17410401 0.00272037 -1.40013 65280
-0.172043 0.0027308301 -1.4055099 65280
-0.169992 0.0027417999 -1.41116 65280
-0.167759 0.0027501599 -1.41545 65280
-0.16552299 0.0027587099 -1.41986 65280
-0.16610201 0.0028152801 -1.44897 65280
-0.163286 0.0028152801 -1.44897 65280
-0.16047101 0.0028152801 -1.44897 65280
-0.157656 0.0028152801 -1.44897 65280
-0.15484001 0.0028152801 -1.44897 65280
-0.152025 0.0028152801 -1.44897 65280
-0.14921001 0.0028152801 -1.44897 65280
-0.146395 0.0028152801 -1.44897 65280
-0.14357901 0.0028152801 -1.44897 65280
-0.140764 0.0028152801 -1.44897 65280
-0.137949 0.0028152801 -1.44897 65280
-0.135133 0.0028152801 -1.44897 65280
-0.132318 0.0028152801 -1.44897 65280
-0.129503 0.0028152801 -1.44897 65280
-0.126688 0.0028152801 -1.44897 65280
-0.123872 0.0028152801 -1.44897 65280
-0.121057 0.0028152801 -1.44897 65280
-0.118242 0.0028152801 -1.44897 65280
-0.115427 0.0028152801 -1.44897 65280
-0.112611 0.0028152801 -1.44897 65280
-0.109796 0.0028152801 -1.44897 65280
-0.106981 0.0028152801 -1.44897 65280
-0.104165 0.0028152801 -1.44897 65280
-0.10135 0.0028152801 -1.44897 65280
-0.0985348 0.0028152801 -1.44897 65280
-0.095719501 0.0028152801 -1.44897 65280
-0.092904299 0.0028152801 -1.44897 65280
-0.090089001 0.0028152801 -1.44897 65280
-0.087273702 0.0028152801 -1.44897 65280
-0.084458403 0.0028152801 -1.44897 65280
-0.081643097 0.0028152801 -1.44897 65280
-0.078827903 0.0028152801 -1.44897 65280
-0.076012596 0.0028152801 -1.44897 65280
-0.073197298 0.0028152801 -1.44897 65280
-0.070381999 0.0028152801 -1.44897 65280
-0.0675667 0.0028152801 -1.44897 65280
-0.064751498 0.0028152801 -1.44897 65280
-0.0619362 0.0028152801 -1.44897 65280
-0.059120901 0.0028152801 -1.44897 65280
-0.056305598 0.0028152801 -1.44897 65280
-0.0534903 0.0028152801 -1.44897 65280
-0.050675102 0.0028152801 -1.44897 65280
-0.047859799 0.0028152801 -1.44897 65280
-0.0450445 0.0028152801 -1.44897 65280
-0.042229202 0.0028152801 -1.44897 65280
-0.039413899 0.0028152801 -1.44897 65280
-0.0365986 0.0028152801 -1.44897 65280
-0.033783399 0.0028152801 -1.44897 65280
-0.0309681 0.0028152801 -1.44897 65280
-0.028152799 0.0028152801 -1.44897 65280
-0.0253375 0.0028152801 -1.44897 65280
-0.0225222 0.0028152801 -1.44897 65280
-0.019707 0.0028152801 -1.44897 65280
-0.016891699 0.0028152801 -1.44897 65280
-0.0140764 0.0028152801 -1.44897 65280
-0.0112611 0.0028152801 -1.44897 65280
-0.0084458403 0.0028152801 -1.44897 65280
-0.0056305602 0.0028152801 -1.44897 65280
-0.0028152801 0.0028152801 -1.44897 65280
0 0.0028152801 -1.44897 65280
0.0028152801 0.0028152801 -1.44897 65280
0.0056305602 0.0028152801 -1.44897 65280
0.0084458403 0.0028152801 -1.44897 65280
0.0112611 0.0028152801 -1.44897 65280
0.0140764 0.0028152801 -1.44897 65280
0.016891699 0.0028152801 -1.44897 65280
0.019707 0.0028152801 -1.44897 65280
0.0225222 0.0028152801 -1.44897 65280
0.0253375 0.0028152801 -1.44897 65280
0.028152799 0.0028152801 -1.44897 65280
0.0309681 0.0028152801 -1.44897 65280
0.033783399 0.0028152801 -1.44897 65280
0.0365986 0.0028152801 -1.44897 65280
0.039413899 0.0028152801 -1.44897 65280
0.042229202 0.0028152801 -1.44897 65280
0.0450445 0.0028152801 -1.44897 65280
0.047859799 0.0028152801 -1.44897 65280
0.050675102 0.0028152801 -1.44897 65280
0.0534903 0.0028152801 -1.44897 65280
0.056305598 0.0028152801 -1.44897 65280
0.059120901 0.0028152801 -1.44897 65280
0.0619362 0.0028152801 -1.44897 65280
0.064751498 0.0028152801 -1.44897 65280
0.0675667 0.0028152801 -1.44897 65280
0.070381999 0.0028152801 -1.44897 65280
0.073197298 0.0028152801 -1.44897 65280
0.076012596 0.0028152801 -1.44897 65280
0.078827903 0.0028152801 -1.44897 65280
0.081643097 0.0028152801 -1.44897 65280
0.084458403 0.0028152801 -1.44897 65280
0.087273702 0.0028152801 -1.44897 65280
0.090089001 0.0028152801 -1.44897 65280
0.092904299 0.0028152801 -1.44897 65280
0.095719501 0.0028152801 -1.44897 65280
0.0985348 0.0028152801 -1.44897 65280
0.10135 0.0028152801 -1.44897 65280
0.104165 0.0028152801 -1.44897 65280
0.106981 0.0028152801 -1.44897 65280
0.109796 0.0028152801 -1.44897 65280
0.112611 0.0028152801 -1.44897 65280
0.115427 0.0028152801 -1.44897 65280
0.118242 0.0028152801 -1.44897 65280
0.121057 0.0028152801 -1.44897 65280
0.123872 0.0028152801 -1.44897 65280
0.126688 0.0028152801 -1.44897 65280
0.129503 0.0028152801 -1.44897 65280
0.132318 0.0028152801 -1.44897 65280
0.135133 0.0028152801 -1.44897 65280
0.137949 0.0028152801 -1.44897 65280
0.140764 0.0028152801 -1.44897 65280
0.14357901 0.0028152801 -1.44897 65280
0.146395 0.0028152801 -1.44897 65280
0.14921001 0.0028152801 -1.44897 65280
0.152025 0.0028152801 -1.44897 65280
0.15484001 0.0028152801 -1.44897 65280
0.157656 0.0028152801 -1.44897 65280
0.16047101 0.0028152801 -1.44897 65280
0.163286 0.0028152801 -1.44897 65280
0.16610201 0.0028152801 -1.44897 65280
0.168917 0.0028152801 -1.44897 65280
0.17173199 0.0028152801 -1.44897 65280
0.174547 0.0028152801 -1.44897 65280
0.17736299 0.0028152801 -1.44897 65280
0.180178 0.0028152801 -1.44897 65280
0.18299299 0.0028152801 -1.44897 65280
0.185809 0.0028152801 -1.44897 65280
0.18862399 0.0028152801 -1.44897 65280
0.191439 0.0028152801 -1.44897 65280
0.194254 0.0028152801 -1.44897 65280
0.19707 0.0028152801 -1.44897 65280
0.199885 0.0028152801 -1.44897 65280
0.2027 0.0028152801 -1.44897 65280
0.205515 0.0028152801 -1.44897 65280
0.208331 0.0028152801 -1.44897 65280
0.211146 0.0028152801 -1.44897 65280
0.21396101 0.0028152801 -1.44897 65280
0.216777 0.0028152801 -1.44897 65280
0.21959201 0.0028152801 -1.44897 65280
0.222407 0.0028152801 -1.44897 65280
0.22522201 0.0028152801 -1.44897 65280
0.228038 0.0028152801 -1.44897 65280
0.23085301 0.0028152801 -1.44897 65280
0.233668 0.0028152801 -1.44897 65280
0.23648401 0.0028152801 -1.44897 65280
0.239299 0.0028152801 -1.44897 65280
0.24211399 0.0028152801 -1.44897 65280
0.244929 0.0028152801 -1.44897 65280
0.24774501 0.0028152801 -1.44897 65280
0.25055999 0.0028152801 -1.44897 65280
0.25337499 0.0028152801 -1.44897 65280
0.25619099 0.0028152801 -1.44897 65280
0.25900599 0.0028152801 -1.44897 65280
0.261821 0.0028152801 -1.44897 65280
0.26463601 0.0028152801 -1.44897 65280
0.267452 0.0028152801 -1.44897 65280
0.27026701 0.0028152801 -1.44897 65280
0.27308199 0.0028152801 -1.44897 65280
0.27589801 0.0028152801 -1.44897 65280
0.27871299 0.0028152801 -1.44897 65280
0.281528 0.0028152801 -1.44897 65280
0.284343 0.0028152801 -1.44897 65280
0.287159 0.0028152801 -1.44897 65280
0.289974 0.0028152801 -1.44897 65280
0.29278901 0.0028152801 -1.44897 65280
0.29560399 0.0028152801 -1.44897 65280
0.29842001 0.0028152801 -1.44897 65280
0.30123499 0.0028152801 -1.44897 65280
0.30405 0.0028152801 -1.44897 65280
0.30686599 0.0028152801 -1.44897 65280
0.309681 0.0028152801 -1.44897 65280
0.31249601 0.0028152801 -1.44897 65280
0.31531101 0.0028152801 -1.44897 65280
0.31812701 0.0028152801 -1.44897 65280
0.32094201 0.0028152801 -1.44897 65280
0.32375699 0.0028152801 -1.44897 65280
0.32657301 0.0028152801 -1.44897 65280
0.32938799 0.0028152801 -1.44897 65280
0.332203 0.0028152801 -1.44897 65280
0.33501801 0.0028152801 -1.44897 65280
0.337834 0.0028152801 -1.44897 65280
0.34064901 0.0028152801 -1.44897 65280
0.34346399 0.0028152801 -1.44897 65280
0.34628001 0.0028152801 -1.44897 65280
0.34909499 0.0028152801 -1.44897 65280
0.35191 0.0028152801 -1.44897 65280
0.354725 0.0028152801 -1.44897 65280
0.35754099 0.0028152801 -1.44897 65280
0.360356 0.0028152801 -1.44897 65280
0.36317101 0.0028152801 -1.44897 65280
0.36598599 0.0028152801 -1.44897 65280
0.36880201 0.0028152801 -1.44897 65280
0.37161699 0.0028152801 -1.44897 65280
0.374432 0.0028152801 -1.44897 65280
0.37724799 0.0028152801 -1.44897 65280
0.380063 0.0028152801 -1.44897 65280
0.38287801 0.0028152801 -1.44897 65280
0.38569301 0.0028152801 -1.44897 65280
0.38850901 0.0028152801 -1.44897 65280
0.39132401 0.0028152801 -1.44897 65280
0.39413899 0.0028152801 -1.44897 65280
0.39695501 0.0028152801 -1.44897 65280
-0.399409 0.0056254701 -1.44766 65280
-0.39659601 0.0056254701 -1.44766 65280
-0.393783 0.0056254701 -1.44766 65280
-0.39096999 0.0056254701 -1.44766 65280
-0.38815799 0.0056254701 -1.44766 65280
-0.38534501 0.0056254701 -1.44766 65280
-0.382532 0.0056254701 -1.44766 65280
-0.37971899 0.0056254701 -1.44766 65280
-0.37690699 0.0056254701 -1.44766 65280
-0.37409401 0.0056254701 -1.44766 65280
-0.371281 0.0056254701 -1.44766 65280
-0.36846799 0.0056254701 -1.44766 65280
-0.36565599 0.0056254701 -1.44766 65280
-0.36284301 0.0056254701 -1.44766 65280
-0.36003 0.0056254701 -1.44766 65280
-0.357218 0.0056254701 -1.44766 65280
-0.35440499 0.0056254701 -1.44766 65280
-0.351592 0.0056254701 -1.44766 65280
-0.34877899 0.0056254701 -1.44766 65280
-0.34596699 0.0056254701 -1.44766 65280
-0.34315401 0.0056254701 -1.44766 65280
-0.340341 0.0056254701 -1.44766 65280
-0.33752799 0.0056254701 -1.44766 65280
-0.33471599 0.0056254701 -1.44766 65280
-0.33190301 0.0056254701 -1.44766 65280
-0.32909 0.0056254701 -1.44766 65280
-0.32627699 0.0056254701 -1.44766 65280
-0.32346499 0.0056254701 -1.44766 65280
-0.32065201 0.0056254701 -1.44766 65280
-0.317839 0.0056254701 -1.44766 65280
-0.31502599 0.0056254701 -1.44766 65280
-0.31221399 0.0056254701 -1.44766 65280
-0.30940101 0.0056254701 -1.44766 65280
-0.30658799 0.0056254701 -1.44766 65280
-0.303776 0.0056254701 -1.44766 65280
-0.30096301 0.0056254701 -1.44766 65280
-0.29815 0.0056254701 -1.44766 65280
-0.29533699 0.0056254701 -1.44766 65280
-0.29252499 0.0056254701 -1.44766 65280
-0.28971201 0.0056254701 -1.44766 65280
-0.286899 0.0056254701 -1.44766 65280
-0.28408599 0.0056254701 -1.44766 65280
-0.28127399 0.0056254701 -1.44766 65280
-0.27846101 0.0056254701 -1.44766 65280
-0.275648 0.0056254701 -1.44766 65280
-0.27283499 0.0056254701 -1.44766 65280
-0.27002299 0.0056254701 -1.44766 65280
-0.26721001 0.0056254701 -1.44766 65280
-0.264397 0.0056254701 -1.44766 65280
-0.26158401 0.0056254701 -1.44766 65280
-0.25877199 0.0056254701 -1.44766 65280
-0.255959 0.0056254701 -1.44766 65280
-0.25314599 0.0056254701 -1.44766 65280
-0.25033399 0.0056254701 -1.44766 65280
-0.247521 0.0056254701 -1.44766 65280
-0.244708 0.0056254701 -1.44766 65280
-0.23689701 0.0055092298 -1.41775 65280
-0.233392 0.0054915799 -1.41321 65280
-0.23025601 0.0054823002 -1.41082 65280
-0.22723401 0.0054755202 -1.40908 65280
-0.22430401 0.0054708198 -1.4078701 65280
-0.221468 0.0054683601 -1.40723 65280
-0.21857899 0.0054644798 -1.40623 65280
-0.215589 0.00545794 -1.40455 65280
-0.21258201 0.0054508201 -1.40272 65280
-0.20956901 0.0054433499 -1.4008 65280
-0.20655499 0.0054356498 -1.39881 65280
-0.203555 0.0054281498 -1.39688 65280
-0.200591 0.0054213898 -1.3951401 65280
-0.19764499 0.0054149199 -1.3934799 65280
-0.194721 0.0054089101 -1.39193 65280
-0.191819 0.0054033599 -1.39051 65280
-0.188936 0.0053981701 -1.3891701 65280
-0.186048 0.0053926902 -1.38776 65280
-0.18275 0.00537501 -1.3832099 65280
-0.179822 0.0053678202 -1.3813601 65280
-0.177701 0.0053848699 -1.3857501 65280
-0.175733 0.0054071601 -1.39148 65280
-0.17372701 0.0054289699 -1.3971 65280
-0.171721 0.0054514701 -1.40289 65280
-0.16972899 0.0054751202 -1.40897 65280
-0.16773599 0.0054995399 -1.41526 65280
-0.16553301 0.0055177798 -1.41995 65280
-0.165951 0.0056254701 -1.44766 65280
-0.163139 0.0056254701 -1.44766 65280
-0.160326 0.0056254701 -1.44766 65280
-0.15751299 0.0056254701 -1.44766 65280
-0.15470099 0.0056254701 -1.44766 65280
-0.151888 0.0056254701 -1.44766 65280
-0.149075 0.0056254701 -1.44766 65280
-0.146262 0.0056254701 -1.44766 65280
-0.14345001 0.0056254701 -1.44766 65280
-0.140637 0.0056254701 -1.44766 65280
-0.137824 0.0056254701 -1.44766 65280
-0.135011 0.0056254701 -1.44766 65280
-0.132199 0.0056254701 -1.44766 65280
-0.12938599 0.0056254701 -1.44766 65280
-0.126573 0.0056254701 -1.44766 65280
-0.12376 0.0056254701 -1.44766 65280
-0.120948 0.0056254701 -1.44766 65280
-0.118135 0.0056254701 -1.44766 65280
-0.115322 0.0056254701 -1.44766 65280
-0.112509 0.0056254701 -1.44766 65280
-0.109697 0.0056254701 -1.44766 65280
-0.106884 0.0056254701 -1.44766 65280
-0.104071 0.0056254701 -1.44766 65280
-0.101259 0.0056254701 -1.44766 65280
-0.098445803 0.0056254701 -1.44766 65280
-0.095633 0.0056254701 -1.44766 65280
-0.092820302 0.0056254701 -1.44766 65280
-0.090007603 0.0056254701 -1.44766 65280
-0.0871948 0.0056254701 -1.44766 65280
-0.084382102 0.0056254701 -1.44766 65280
-0.081569403 0.0056254701 -1.44766 65280
-0.078756601 0.0056254701 -1.44766 65280
-0.075943902 0.0056254701 -1.44766 65280
-0.073131099 0.0056254701 -1.44766 65280
-0.070318401 0.0056254701 -1.44766 65280
-0.067505702 0.0056254701 -1.44766 65280
-0.0646929 0.0056254701 -1.44766 65280
-0.061880201 0.0056254701 -1.44766 65280
-0.059067499 0.0056254701 -1.44766 65280
-0.0562547 0.0056254701 -1.44766 65280
-0.053442001 0.0056254701 -1.44766 65280
-0.050629299 0.0056254701 -1.44766 65280
-0.0478165 0.0056254701 -1.44766 65280
-0.045003802 0.0056254701 -1.44766 65280
-0.042190999 0.0056254701 -1.44766 65280
-0.0393783 0.0056254701 -1.44766 65280
-0.036565602 0.0056254701 -1.44766 65280
-0.033752799 0.0056254701 -1.44766 65280
-0.030940101 0.0056254701 -1.44766 65280
-0.0281274 0.0056254701 -1.44766 65280
-0.025314599 0.0056254701 -1.44766 65280
-0.022501901 0.0056254701 -1.44766 65280
-0.0196892 0.0056254701 -1.44766 65280
-0.0168764 0.0056254701 -1.44766 65280
-0.0140637 0.0056254701 -1.44766 65280
-0.0112509 0.0056254701 -1.44766 65280
-0.00843821 0.0056254701 -1.44766 65280
-0.0056254701 0.0056254701 -1.44766 65280
-0.0028127399 0.0056254701 -1.44766 65280
0 0.0056254701 -1.44766 65280
0.0028127399 0.0056254701 -1.44766 65280
0.0056254701 0.0056254701 -1.44766 65280
0.00843821 0.0056254701 -1.44766 65280
0.0112509 0.0056254701 -1.44766 65280
0.0140637 0.0056254701 -1.44766 65280
0.0168764 0.0056254701 -1.44766 65280
0.0196892 0.0056254701 -1.44766 65280
0.022501901 0.0056254701 -1.44766 65280
0.025314599 0.0056254701 -1.44766 65280
0.0281274 0.0056254701 -1.44766 65280
0.030940101 0.0056254701 -1.44766 65280
0.033752799 0.0056254701 -1.44766 65280
0.036565602 0.0056254701 -1.44766 65280
0.0393783 0.0056254701 -1.44766 65280
0.042190999 0.0056254701 -1.44766 65280
0.045003802 0.0056254701 -1.44766 65280
0.0478165 0.0056254701 -1.44766 65280
0.050629299 0.0056254701 -1.44766 65280
0.053442001 0.0056254701 -1.44766 65280
0.0562547 0.0056254701 -1.44766 65280
0.059067499 0.0056254701 -1.44766 65280
0.061880201 0.0056254701 -1.44766 65280
0.0646929 0.0056254701 -1.44766 65280
0.067505702 0.0056254701 -1.44766 65280
0.070318401 0.0056254701 -1.44766 65280
0.073131099 0.0056254701 -1.44766 65280
0.075943902 0.0056254701 -1.44766 65280
0.078756601 0.0056254701 -1.44766 65280
0.081569403 0.0056254701 -1.44766 65280
0.084382102 0.0056254701 -1.44766 65280
0.0871948 0.0056254701 -1.44766 65280
0.090007603 0.0056254701 -1.44766 65280
0.092820302 0.0056254701 -1.44766 65280
0.095633 0.0056254701 -1.44766 65280
0.098445803 0.0056254701 -1.44766 65280
0.101259 0.0056254701 -1.44766 65280
0.104071 0.0056254701 -1.44766 65280
0.106884 0.0056254701 -1.44766 65280
0.109697 0.0056254701 -1.44766 65280
0.112509 0.0056254701 -1.44766 65280
0.115322 0.0056254701 -1.44766 65280
0.118135 0.0056254701 -1.44766 65280
0.120948 0.0056254701 -1.44766 65280
0.12376 0.0056254701 -1.44766 65280
0.126573 0.0056254701 -1.44766 65280
0.12938599 0.0056254701 -1.44766 65280
0.132199 0.0056254701 -1.44766 65280
0.135011 0.0056254701 -1.44766 65280
0.137824 0.0056254701 -1.44766 65280
0.140637 0.0056254701 -1.44766 65280
0.14345001 0.0056254701 -1.44766 65280
0.146262 0.0056254701 -1.44766 65280
0.149075 0.0056254701 -1.44766 65280
0.151888 0.0056254701 -1.44766 65280
0.15470099 0.0056254701 -1.44766 65280
0.15751299 0.0056254701 -1.44766 65280
0.160326 0.0056254701 -1.44766 65280
0.163139 0.0056254701 -1.44766 65280
0.165951 0.0056254701 -1.44766 65280
0.168764 0.0056254701 -1.44766 65280
0.17157701 0.0056254701 -1.44766 65280
0.17439 0.0056254701 -1.44766 65280
0.177202 0.0056254701 -1.44766 65280
0.180015 0.0056254701 -1.44766 65280
0.18282799 0.0056254701 -1.44766 65280
0.18564101 0.0056254701 -1.44766 65280
0.188453 0.0056254701 -1.44766 65280
0.191266 0.0056254701 -1.44766 65280
0.194079 0.0056254701 -1.44766 65280
0.19689199 0.0056254701 -1.44766 65280
0.19970401 0.0056254701 -1.44766 65280
0.202517 0.0056254701 -1.44766 65280
0.20533 0.0056254701 -1.44766 65280
0.208142 0.0056254701 -1.44766 65280
0.21095499 0.0056254701 -1.44766 65280
0.21376801 0.0056254701 -1.44766 65280
0.216581 0.0056254701 -1.44766 65280
0.219393 0.0056254701 -1.44766 65280
0.222206 0.0056254701 -1.44766 65280
0.22501899 0.0056254701 -1.44766 65280
0.227832 0.0056254701 -1.44766 65280
0.230644 0.0056254701 -1.44766 65280
0.233457 0.0056254701 -1.44766 65280
0.23627 0.0056254701 -1.44766 65280
0.23908301 0.0056254701 -1.44766 65280
0.24189501 0.0056254701 -1.44766 65280
0.244708 0.0056254701 -1.44766 65280
0.247521 0.0056254701 -1.44766 65280
0.25033399 0.0056254701 -1.44766 65280
0.25314599 0.0056254701 -1.44766 65280
0.255959 0.0056254701 -1.44766 65280
0.25877199 0.0056254701 -1.44766 65280
0.26158401 0.0056254701 -1.44766 65280
0.264397 0.0056254701 -1.44766 65280
0.26721001 0.0056254701 -1.44766 65280
0.27002299 0.0056254701 -1.44766 65280
0.27283499 0.0056254701 -1.44766 65280
0.275648 0.0056254701 -1.44766 65280
0.27846101 0.0056254701 -1.44766 65280
0.28127399 0.0056254701 -1.44766 65280
0.28408599 0.0056254701 -1.44766 65280
0.286899 0.0056254701 -1.44766 65280
0.28971201 0.0056254701 -1.44766 65280
0.29252499 0.0056254701 -1.44766 65280
0.29533699 0.0056254701 -1.44766 65280
0.29815 0.0056254701 -1.44766 65280
0.30096301 0.0056254701 -1.44766 65280
0.303776 0.0056254701 -1.44766 65280
0.30658799 0.0056254701 -1.44766 65280
0.30940101 0.0056254701 -1.44766 65280
0.31221399 0.0056254701 -1.44766 65280
0.31502599 0.0056254701 -1.44766 65280
0.317839 0.0056254701 -1.44766 65280
0.32065201 0.0056254701 -1.44766 65280
0.32346499 0.0056254701 -1.44766 65280
0.32627699 0.0056254701 -1.44766 65280
0.32909 0.0056254701 -1.44766 65280
0.33190301 0.0056254701 -1.44766 65280
0.33471599 0.0056254701 -1.44766 65280
0.33752799 0.0056254701 -1.44766 65280
0.340341 0.0056254701 -1.44766 65280
0.34315401 0.0056254701 -1.44766 65280
0.34596699 0.0056254701 -1.44766 65280
0.34877899 0.0056254701 -1.44766 65280
0.351592 0.0056254701 -1.44766 65280
0.35440499 0.0056254701 -1.44766 65280
0.357218 0.0056254701 -1.44766 65280
0.36003 0.0056254701 -1.44766 65280
0.36284301 0.0056254701 -1.44766 65280
0.36565599 0.0056254701 -1.44766 65280
0.36846799 0.0056254701 -1.44766 65280
0.371281 0.0056254701 -1.44766 65280
0.37409401 0.0056254701 -1.44766 65280
0.37690699 0.0056254701 -1.44766 65280
0.37971899 0.0056254701 -1.44766 65280
0.382532 0.0056254701 -1.44766 65280
0.38534501 0.0056254701 -1.44766 65280
0.38815799 0.0056254701 -1.44766 65280
0.39096999 0.0056254701 -1.44766 65280
0.393783 0.0056254701 -1.44766 65280
0.39659601 0.0056254701 -1.44766 65280
-0.399048 0.0084305899 -1.44636 65280
-0.396238 0.0084305899 -1.44636 65280
-0.39342701 0.0084305899 -1.44636 65280
-0.39061701 0.0084305899 -1.44636 65280
-0.38780701 0.0084305899 -1.44636 65280
-0.38499701 0.0084305899 -1.44636 65280
-0.38218701 0.0084305899 -1.44636 65280
-0.37937701 0.0084305899 -1.44636 65280
-0.37656599 0.0084305899 -1.44636 65280
-0.37375599 0.0084305899 -1.44636 65280
-0.37094599 0.0084305899 -1.44636 65280
-0.36813599 0.0084305899 -1.44636 65280
-0.36532599 0.0084305899 -1.44636 65280
-0.362515 0.0084305899 -1.44636 65280
-0.359705 0.0084305899 -1.44636 65280
-0.356895 0.0084305899 -1.44636 65280
-0.354085 0.0084305899 -1.44636 65280
-0.351275 0.0084305899 -1.44636 65280
-0.34846401 0.0084305899 -1.44636 65280
-0.34565401 0.0084305899 -1.44636 65280
-0.34284401 0.0084305899 -1.44636 65280
-0.34003401 0.0084305899 -1.44636 65280
-0.33722401 0.0084305899 -1.44636 65280
-0.33441299 0.0084305899 -1.44636 65280
-0.33160299 0.0084305899 -1.44636 65280
-0.32879299 0.0084305899 -1.44636 65280
-0.32598299 0.0084305899 -1.44636 65280
-0.32317299 0.0084305899 -1.44636 65280
-0.320362 0.0084305899 -1.44636 65280
-0.317552 0.0084305899 -1.44636 65280
-0.314742 0.0084305899 -1.44636 65280
-0.311932 0.0084305899 -1.44636 65280
-0.309122 0.0084305899 -1.44636 65280
-0.30631101 0.0084305899 -1.44636 65280
-0.30350101 0.0084305899 -1.44636 65280
-0.30069101 0.0084305899 -1.44636 65280
-0.29788101 0.0084305899 -1.44636 65280
-0.29507101 0.0084305899 -1.44636 65280
-0.29225999 0.0084305899 -1.44636 65280
-0.28944999 0.0084305899 -1.44636 65280
-0.28663999 0.0084305899 -1.44636 65280
-0.28382999 0.0084305899 -1.44636 65280
-0.28101999 0.0084305899 -1.44636 65280
-0.278209 0.0084305899 -1.44636 65280
-0.275399 0.0084305899 -1.44636 65280
-0.272589 0.0084305899 -1.44636 65280
-0.269779 0.0084305899 -1.44636 65280
-0.266969 0.0084305899 -1.44636 65280
-0.26415801 0.0084305899 -1.44636 65280
-0.26134801 0.0084305899 -1.44636 65280
-0.25853801 0.0084305899 -1.44636 65280
-0.25572801 0.0084305899 -1.44636 65280
-0.252918 0.0084305899 -1.44636 65280
-0.25010699 0.0084305899 -1.44636 65280
-0.247297 0.0084305899 -1.44636 65280
-0.244487 0.0084305899 -1.44636 65280
-0.241677 0.0084305899 -1.44636 65280
-0.233674 0.0082473103 -1.41491 65280
-0.230443 0.0082301097 -1.41196 65280
-0.227378 0.00821847 -1.40997 65280
-0.22439601 0.0082096299 -1.40845 65280
-0.22149 0.0082033398 -1.40737 65280
-0.218656 0.0081995903 -1.4067301 65280
-0.21566699 0.0081898896 -1.4050601 65280
-0.212614 0.0081774704 -1.40293 65280
-0.209558 0.0081645995 -1.40072 65280
-0.206513 0.0081518302 -1.39853 65280
-0.203467 0.0081386697 -1.39627 65280
-0.20042799 0.0081254803 -1.3940099 65280
-0.19741599 0.0081129903 -1.39187 65280
-0.194443 0.00810178 -1.38995 65280
-0.191413 0.0080878902 -1.38756 65280
-0.18802699 0.0080582798 -1.38248 65280
-0.184645 0.0080280304 -1.37729 65280
-0.181899 0.0080249701 -1.37677 65280
-0.17935 0.0080306102 -1.37774 65280
-0.177108 0.00805037 -1.38113 65280
-0.17521501 0.0080868704 -1.38739 65280
-0.173382 0.0081272796 -1.39432 65280
-0.171452 0.0081644002 -1.40069 65280
-0.169514 0.0082023004 -1.40719 65280
-0.16757999 0.0082416497 -1.41394 65280
-0.16566101 0.0082830703 -1.42105 65280
-0.165802 0.0084305899 -1.44636 65280
-0.162991 0.0084305899 -1.44636 65280
-0.160181 0.0084305899 -1.44636 65280
-0.157371 0.0084305899 -1.44636 65280
-0.154561 0.0084305899 -1.44636 65280
-0.151751 0.0084305899 -1.44636 65280
-0.14894 0.0084305899 -1.44636 65280
-0.14613 0.0084305899 -1.44636 65280
-0.14331999 0.0084305899 -1.44636 65280
-0.14050999 0.0084305899 -1.44636 65280
-0.13770001 0.0084305899 -1.44636 65280
-0.13488901 0.0084305899 -1.44636 65280
-0.13207901 0.0084305899 -1.44636 65280
-0.129269 0.0084305899 -1.44636 65280
-0.126459 0.0084305899 -1.44636 65280
-0.123649 0.0084305899 -1.44636 65280
-0.120838 0.0084305899 -1.44636 65280
-0.118028 0.0084305899 -1.44636 65280
-0.115218 0.0084305899 -1.44636 65280
-0.112408 0.0084305899 -1.44636 65280
-0.109598 0.0084305899 -1.44636 65280
-0.106787 0.0084305899 -1.44636 65280
-0.103977 0.0084305899 -1.44636 65280
-0.101167 0.0084305899 -1.44636 65280
-0.098356903 0.0084305899 -1.44636 65280
-0.0955467 0.0084305899 -1.44636 65280
-0.092736498 0.0084305899 -1.44636 65280
-0.089926302 0.0084305899 -1.44636 65280
-0.0871161 0.0084305899 -1.44636 65280
-0.084305897 0.0084305899 -1.44636 65280
-0.081495702 0.0084305899 -1.44636 65280
-0.0786855 0.0084305899 -1.44636 65280
-0.075875297 0.0084305899 -1.44636 65280
-0.073065102 0.0084305899 -1.44636 65280
-0.0702549 0.0084305899 -1.44636 65280
-0.067444697 0.0084305899 -1.44636 65280
-0.064634502 0.0084305899 -1.44636 65280
-0.061824299 0.0084305899 -1.44636 65280
-0.059014101 0.0084305899 -1.44636 65280
-0.056203902 0.0084305899 -1.44636 65280
-0.053393699 0.0084305899 -1.44636 65280
-0.0505835 0.0084305899 -1.44636 65280
-0.047773302 0.0084305899 -1.44636 65280
-0.044963099 0.0084305899 -1.44636 65280
-0.0421529 0.0084305899 -1.44636 65280
-0.039342701 0.0084305899 -1.44636 65280
-0.036532599 0.0084305899 -1.44636 65280
-0.033722401 0.0084305899 -1.44636 65280
-0.0309122 0.0084305899 -1.44636 65280
-0.028101999 0.0084305899 -1.44636 65280
-0.0252918 0.0084305899 -1.44636 65280
-0.0224816 0.0084305899 -1.44636 65280
-0.019671399 0.0084305899 -1.44636 65280
-0.0168612 0.0084305899 -1.44636 65280
-0.014051 0.0084305899 -1.44636 65280
-0.0112408 0.0084305899 -1.44636 65280
-0.0084305899 0.0084305899 -1.44636 65280
-0.0056203902 0.0084305899 -1.44636 65280
-0.0028102 0.0084305899 -1.44636 65280
0 0.0084305899 -1.44636 65280
0.0028102 0.0084305899 -1.44636 65280
0.0056203902 0.0084305899 -1.44636 65280
0.0084305899 0.0084305899 -1.44636 65280
0.0112408 0.0084305899 -1.44636 65280
0.014051 0.0084305899 -1.44636 65280
0.0168612 0.0084305899 -1.44636 65280
0.019671399 0.0084305899 -1.44636 65280
0.0224816 0.0084305899 -1.44636 65280
0.0252918 0.0084305899 -1.44636 65280
0.028101999 0.0084305899 -1.44636 65280
0.0309122 0.0084305899 -1.44636 65280
0.033722401 0.0084305899 -1.44636 65280
0.036532599 0.0084305899 -1.44636 65280
0.039342701 0.0084305899 -1.44636 65280
0.0421529 0.0084305899 -1.44636 65280
0.044963099 0.0084305899 -1.44636 65280
0.047773302 0.0084305899 -1.44636 65280
0.0505835 0.0084305899 -1.44636 65280
0.053393699 0.0084305899 -1.44636 65280
0.056203902 0.0084305899 -1.44636 65280
0.059014101 0.0084305899 -1.44636 65280
0.061824299 0.0084305899 -1.44636 65280
0.064634502 0.0084305899 -1.44636 65280
0.067444697 0.0084305899 -1.44636 65280
0.0702549 0.0084305899 -1.44636 65280
0.073065102 0.0084305899 -1.44636 65280
0.075875297 0.0084305899 -1.44636 65280
0.0786855 0.0084305899 -1.44636 65280
0.081495702 0.0084305899 -1.44636 65280
0.084305897 0.0084305899 -1.44636 65280
0.0871161 0.0084305899 -1.44636 65280
0.089926302 0.0084305899 -1.44636 65280
0.092736498 0.0084305899 -1.44636 65280
0.0955467 0.0084305899 -1.44636 65280
0.098356903 0.0084305899 -1.44636 65280
0.101167 0.0084305899 -1.44636 65280
0.103977 0.0084305899 -1.44636 65280
0.106787 0.0084305899 -1.44636 65280
0.109598 0.0084305899 -1.44636 65280
0.112408 0.0084305899 -1.44636 65280
0.115218 0.0084305899 -1.44636 65280
0.118028 0.0084305899 -1.44636 65280
0.120838 0.0084305899 -1.44636 65280
0.123649 0.0084305899 -1.44636 65280
0.126459 0.0084305899 -1.44636 65280
0.129269 0.0084305899 -1.44636 65280
0.13207901 0.0084305899 -1.44636 65280
0.13488901 0.0084305899 -1.44636 65280
0.13770001 0.0084305899 -1.44636 65280
0.14050999 0.0084305899 -1.44636 65280
0.14331999 0.0084305899 -1.44636 65280
0.14613 0.0084305899 -1.44636 65280
0.14894 0.0084305899 -1.44636 65280
0.151751 0.0084305899 -1.44636 65280
0.154561 0.0084305899 -1.44636 65280
0.157371 0.0084305899 -1.44636 65280
0.160181 0.0084305899 -1.44636 65280
0.162991 0.0084305899 -1.44636 65280
0.165802 0.0084305899 -1.44636 65280
0.168612 0.0084305899 -1.44636 65280
0.171422 0.0084305899 -1.44636 65280
0.17423201 0.0084305899 -1.44636 65280
0.17704201 0.0084305899 -1.44636 65280
0.17985301 0.0084305899 -1.44636 65280
0.18266299 0.0084305899 -1.44636 65280
0.185473 0.0084305899 -1.44636 65280
0.188283 0.0084305899 -1.44636 65280
0.191093 0.0084305899 -1.44636 65280
0.193904 0.0084305899 -1.44636 65280
0.196714 0.0084305899 -1.44636 65280
0.199524 0.0084305899 -1.44636 65280
0.202334 0.0084305899 -1.44636 65280
0.205144 0.0084305899 -1.44636 65280
0.207955 0.0084305899 -1.44636 65280
0.210765 0.0084305899 -1.44636 65280
0.21357501 0.0084305899 -1.44636 65280
0.21638501 0.0084305899 -1.44636 65280
0.21919499 0.0084305899 -1.44636 65280
0.22200599 0.0084305899 -1.44636 65280
0.22481599 0.0084305899 -1.44636 65280
0.227626 0.0084305899 -1.44636 65280
0.230436 0.0084305899 -1.44636 65280
0.233246 0.0084305899 -1.44636 65280
0.236057 0.0084305899 -1.44636 65280
0.238867 0.0084305899 -1.44636 65280
0.241677 0.0084305899 -1.44636 65280
0.244487 0.0084305899 -1.44636 65280
0.247297 0.0084305899 -1.44636 65280
0.25010699 0.0084305899 -1.44636 65280
0.252918 0.0084305899 -1.44636 65280
0.25572801 0.0084305899 -1.44636 65280
0.25853801 0.0084305899 -1.44636 65280
0.26134801 0.0084305899 -1.44636 65280
0.26415801 0.0084305899 -1.44636 65280
0.266969 0.0084305899 -1.44636 65280
0.269779 0.0084305899 -1.44636 65280
0.272589 0.0084305899 -1.44636 65280
0.275399 0.0084305899 -1.44636 65280
0.278209 0.0084305899 -1.44636 65280
0.28101999 0.0084305899 -1.44636 65280
0.28382999 0.0084305899 -1.44636 65280
0.28663999 0.0084305899 -1.44636 65280
0.28944999 0.0084305899 -1.44636 65280
0.29225999 0.0084305899 -1.44636 65280
0.29507101 0.0084305899 -1.44636 65280
0.29788101 0.0084305899 -1.44636 65280
0.30069101 0.0084305899 -1.44636 65280
0.30350101 0.0084305899 -1.44636 65280
0.30631101 0.0084305899 -1.44636 65280
0.309122 0.0084305899 -1.44636 65280
0.311932 0.0084305899 -1.44636 65280
0.314742 0.0084305899 -1.44636 65280
0.317552 0.0084305899 -1.44636 65280
0.320362 0.0084305899 -1.44636 65280
0.32317299 0.0084305899 -1.44636 65280
0.32598299 0.0084305899 -1.44636 65280
0.32879299 0.0084305899 -1.44636 65280
0.33160299 0.0084305899 -1.44636 65280
0.33441299 0.0084305899 -1.44636 65280
0.33722401 0.0084305899 -1.44636 65280
0.34003401 0.0084305899 -1.44636 65280
0.34284401 0.0084305899 -1.44636 65280
0.34565401 0.0084305899 -1.44636 65280
0.34846401 0.0084305899 -1.44636 65280
0.351275 0.0084305899 -1.44636 65280
0.354085 0.0084305899 -1.44636 65280
0.356895 0.0084305899 -1.44636 65280
0.359705 0.0084305899 -1.44636 65280
0.362515 0.0084305899 -1.44636 65280
0.36532599 0.0084305899 -1.44636 65280
0.36813599 0.0084305899 -1.44636 65280
0.37094599 0.0084305899 -1.44636 65280
0.37375599 0.0084305899 -1.44636 65280
0.37656599 0.0084305899 -1.44636 65280
0.37937701 0.0084305899 -1.44636 65280
0.38218701 0.0084305899 -1.44636 65280
0.38499701 0.0084305899 -1.44636 65280
0.38780701 0.0084305899 -1.44636 65280
0.39061701 0.0084305899 -1.44636 65280
0.39342701 0.0084305899 -1.44636 65280
0.396238 0.0084305899 -1.44636 65280
-0.39868799 0.0112306 -1.44505 65280
-0.39588001 0.0112306 -1.44505 65280
-0.39307299 0.0112306 -1.44505 65280
-0.39026499 0.0112306 -1.44505 65280
-0.38745701 0.0112306 -1.44505 65280
-0.38464999 0.0112306 -1.44505 65280
-0.38184199 0.0112306 -1.44505 65280
-0.37903401 0.0112306 -1.44505 65280
-0.37622699 0.0112306 -1.44505 65280
-0.37341899 0.0112306 -1.44505 65280
-0.37061101 0.0112306 -1.44505 65280
-0.36780399 0.0112306 -1.44505 65280
-0.36499599 0.0112306 -1.44505 65280
-0.36218801 0.0112306 -1.44505 65280
-0.35938099 0.0112306 -1.44505 65280
-0.35657299 0.0112306 -1.44505 65280
-0.35376501 0.0112306 -1.44505 65280
-0.35095799 0.0112306 -1.44505 65280
-0.34815001 0.0112306 -1.44505 65280
-0.34534201 0.0112306 -1.44505 65280
-0.34253499 0.0112306 -1.44505 65280
-0.33972701 0.0112306 -1.44505 65280
-0.33691901 0.0112306 -1.44505 65280
-0.33411199 0.0112306 -1.44505 65280
-0.33130401 0.0112306 -1.44505 65280
-0.32849601 0.0112306 -1.44505 65280
-0.32568899 0.0112306 -1.44505 65280
-0.32288101 0.0112306 -1.44505 65280
-0.32007301 0.0112306 -1.44505 65280
-0.31726599 0.0112306 -1.44505 65280
-0.31445801 0.0112306 -1.44505 65280
-0.31165001 0.0112306 -1.44505 65280
-0.30884299 0.0112306 -1.44505 65280
-0.30603501 0.0112306 -1.44505 65280
-0.30322701 0.0112306 -1.44505 65280
-0.30041999 0.0112306 -1.44505 65280
-0.29761201 0.0112306 -1.44505 65280
-0.29480401 0.0112306 -1.44505 65280
-0.29199699 0.0112306 -1.44505 65280
-0.28918901 0.0112306 -1.44505 65280
-0.28638101 0.0112306 -1.44505 65280
-0.28357399 0.0112306 -1.44505 65280
-0.28076601 0.0112306 -1.44505 65280
-0.27795801 0.0112306 -1.44505 65280
-0.27515101 0.0112306 -1.44505 65280
-0.27234301 0.0112306 -1.44505 65280
-0.26953501 0.0112306 -1.44505 65280
-0.26672801 0.0112306 -1.44505 65280
-0.26392001 0.0112306 -1.44505 65280
-0.261112 0.0112306 -1.44505 65280
-0.25830501 0.0112306 -1.44505 65280
-0.25549701 0.0112306 -1.44505 65280
-0.25268999 0.0112306 -1.44505 65280
-0.249882 0.0112306 -1.44505 65280
-0.24707399 0.0112306 -1.44505 65280
-0.244267 0.0112306 -1.44505 65280
-0.241459 0.0112306 -1.44505 65280
-0.234282 0.011025 -1.4185899 65280
-0.23068 0.0109848 -1.41342 65280
-0.227551 0.0109663 -1.4110399 65280
-0.224518 0.0109521 -1.40921 65280
-0.221544 0.0109404 -1.40771 65280
-0.218642 0.0109321 -1.4066401 65280
-0.215748 0.010924 -1.4055901 65280
-0.21268401 0.0109069 -1.40339 65280
-0.209592 0.0108879 -1.40095 65280
-0.20649201 0.010868 -1.3983901 65280
-0.203391 0.0108475 -1.39575 65280
-0.20031101 0.0108276 -1.3932 65280
-0.197247 0.010808 -1.3906699 65280
-0.19411699 0.0107843 -1.38762 65280
-0.19068401 0.0107428 -1.38228 65280
-0.187362 0.0107064 -1.3776 65280
-0.184467 0.0106938 -1.37597 65280
-0.181795 0.0106938 -1.37598 65280
-0.17924 0.0107009 -1.3768899 65280
-0.176889 0.0107205 -1.37941 65280
-0.174886 0.0107622 -1.38478 65280
-0.173069 0.0108168 -1.3918101 65280
-0.17123701 0.0108722 -1.39893 65280
-0.16933499 0.0109249 -1.40571 65280
-0.167463 0.0109812 -1.41295 65280
-0.165843 0.0110562 -1.4226 65280
-0.16565201 0.0112306 -1.44505 65280
-0.162844 0.0112306 -1.44505 65280
-0.160037 0.0112306 -1.44505 65280
-0.15722901 0.0112306 -1.44505 65280
-0.154421 0.0112306 -1.44505 65280
-0.151614 0.0112306 -1.44505 65280
-0.14880601 0.0112306 -1.44505 65280
-0.145998 0.0112306 -1.44505 65280
-0.14319099 0.0112306 -1.44505 65280
-0.14038301 0.0112306 -1.44505 65280
-0.137575 0.0112306 -1.44505 65280
-0.13476799 0.0112306 -1.44505 65280
-0.13196 0.0112306 -1.44505 65280
-0.129152 0.0112306 -1.44505 65280
-0.12634499 0.0112306 -1.44505 65280
-0.123537 0.0112306 -1.44505 65280
-0.120729 0.0112306 -1.44505 65280
-0.117922 0.0112306 -1.44505 65280
-0.115114 0.0112306 -1.44505 65280
-0.112306 0.0112306 -1.44505 65280
-0.109499 0.0112306 -1.44505 65280
-0.106691 0.0112306 -1.44505 65280
-0.103883 0.0112306 -1.44505 65280
-0.101076 0.0112306 -1.44505 65280
-0.098268099 0.0112306 -1.44505 65280
-0.095460497 0.0112306 -1.44505 65280
-0.092652798 0.0112306 -1.44505 65280
-0.089845203 0.0112306 -1.44505 65280
-0.087037504 0.0112306 -1.44505 65280
-0.084229797 0.0112306 -1.44505 65280
-0.081422202 0.0112306 -1.44505 65280
-0.078614503 0.0112306 -1.44505 65280
-0.075806901 0.0112306 -1.44505 65280
-0.072999202 0.0112306 -1.44505 65280
-0.070191503 0.0112306 -1.44505 65280
-0.0673839 0.0112306 -1.44505 65280
-0.064576201 0.0112306 -1.44505 65280
-0.061768498 0.0112306 -1.44505 65280
-0.0589609 0.0112306 -1.44505 65280
-0.056153201 0.0112306 -1.44505 65280
-0.053345598 0.0112306 -1.44505 65280
-0.050537899 0.0112306 -1.44505 65280
-0.0477302 0.0112306 -1.44505 65280
-0.044922601 0.0112306 -1.44505 65280
-0.042114899 0.0112306 -1.44505 65280
-0.0393073 0.0112306 -1.44505 65280
-0.036499601 0.0112306 -1.44505 65280
-0.033691902 0.0112306 -1.44505 65280
-0.030884299 0.0112306 -1.44505 65280
-0.0280766 0.0112306 -1.44505 65280
-0.025269 0.0112306 -1.44505 65280
-0.022461301 0.0112306 -1.44505 65280
-0.0196536 0.0112306 -1.44505 65280
-0.016845999 0.0112306 -1.44505 65280
-0.0140383 0.0112306 -1.44505 65280
-0.0112306 0.0112306 -1.44505 65280
-0.0084229801 0.0112306 -1.44505 65280
-0.0056153201 0.0112306 -1.44505 65280
-0.00280766 0.0112306 -1.44505 65280
0 0.0112306 -1.44505 65280
0.00280766 0.0112306 -1.44505 65280
0.0056153201 0.0112306 -1.44505 65280
0.0084229801 0.0112306 -1.44505 65280
0.0112306 0.0112306 -1.44505 65280
0.0140383 0.0112306 -1.44505 65280
0.016845999 0.0112306 -1.44505 65280
0.0196536 0.0112306 -1.44505 65280
0.022461301 0.0112306 -1.44505 65280
0.025269 0.0112306 -1.44505 65280
0.0280766 0.0112306 -1.44505 65280
0.030884299 0.0112306 -1.44505 65280
0.033691902 0.0112306 -1.44505 65280
0.036499601 0.0112306 -1.44505 65280
0.0393073 0.0112306 -1.44505 65280
0.042114899 0.0112306 -1.44505 65280
0.044922601 0.0112306 -1.44505 65280
0.0477302 0.0112306 -1.44505 65280
0.050537899 0.0112306 -1.44505 65280
0.053345598 0.0112306 -1.44505 65280
0.056153201 0.0112306 -1.44505 65280
0.0589609 0.0112306 -1.44505 65280
0.061768498 0.0112306 -1.44505 65280
0.064576201 0.0112306 -1.44505 65280
0.0673839 0.0112306 -1.44505 65280
0.070191503 0.0112306 -1.44505 65280
0.072999202 0.0112306 -1.44505 65280
0.075806901 0.0112306 -1.44505 65280
0.078614503 0.0112306 -1.44505 65280
0.081422202 0.0112306 -1.44505 65280
0.084229797 0.0112306 -1.44505 65280
0.087037504 0.0112306 -1.44505 65280
0.089845203 0.0112306 -1.44505 65280
0.092652798 0.0112306 -1.44505 65280
0.095460497 0.0112306 -1.44505 65280
0.098268099 0.0112306 -1.44505 65280
0.101076 0.0112306 -1.44505 65280
0.103883 0.0112306 -1.44505 65280
0.106691 0.0112306 -1.44505 65280
0.109499 0.0112306 -1.44505 65280
0.112306 0.0112306 -1.44505 65280
0.115114 0.0112306 -1.44505 65280
0.117922 0.0112306 -1.44505 65280
0.120729 0.0112306 -1.44505 65280
0.123537 0.0112306 -1.44505 65280
0.12634499 0.0112306 -1.44505 65280
0.129152 0.0112306 -1.44505 65280
0.13196 0.0112306 -1.44505 65280
0.13476799 0.0112306 -1.44505 65280
0.137575 0.0112306 -1.44505 65280
0.14038301 0.0112306 -1.44505 65280
0.14319099 0.0112306 -1.44505 65280
0.145998 0.0112306 -1.44505 65280
0.14880601 0.0112306 -1.44505 65280
0.151614 0.0112306 -1.44505 65280
0.154421 0.0112306 -1.44505 65280
0.15722901 0.0112306 -1.44505 65280
0.160037 0.0112306 -1.44505 65280
0.162844 0.0112306 -1.44505 65280
0.16565201 0.0112306 -1.44505 65280
0.16846 0.0112306 -1.44505 65280
0.171267 0.0112306 -1.44505 65280
0.17407501 0.0112306 -1.44505 65280
0.176883 0.0112306 -1.44505 65280
0.17969 0.0112306 -1.44505 65280
0.18249799 0.0112306 -1.44505 65280
0.185306 0.0112306 -1.44505 65280
0.188113 0.0112306 -1.44505 65280
0.19092099 0.0112306 -1.44505 65280
0.193729 0.0112306 -1.44505 65280
0.196536 0.0112306 -1.44505 65280
0.19934399 0.0112306 -1.44505 65280
0.202152 0.0112306 -1.44505 65280
0.20495901 0.0112306 -1.44505 65280
0.20776699 0.0112306 -1.44505 65280
0.210575 0.0112306 -1.44505 65280
0.21338201 0.0112306 -1.44505 65280
0.21619 0.0112306 -1.44505 65280
0.218998 0.0112306 -1.44505 65280
0.22180501 0.0112306 -1.44505 65280
0.224613 0.0112306 -1.44505 65280
0.227421 0.0112306 -1.44505 65280
0.23022801 0.0112306 -1.44505 65280
0.233036 0.0112306 -1.44505 65280
0.235844 0.0112306 -1.44505 65280
0.23865101 0.0112306 -1.44505 65280
0.241459 0.0112306 -1.44505 65280
0.244267 0.0112306 -1.44505 65280
0.24707399 0.0112306 -1.44505 65280
0.249882 0.0112306 -1.44505 65280
0.25268999 0.0112306 -1.44505 65280
0.25549701 0.0112306 -1.44505 65280
0.25830501 0.0112306 -1.44505 65280
0.261112 0.0112306 -1.44505 65280
0.26392001 0.0112306 -1.44505 65280
0.26672801 0.0112306 -1.44505 65280
0.26953501 0.0112306 -1.44505 65280
0.27234301 0.0112306 -1.44505 65280
0.27515101 0.0112306 -1.44505 65280
0.27795801 0.0112306 -1.44505 65280
0.28076601 0.0112306 -1.44505 65280
0.28357399 0.0112306 -1.44505 65280
0.28638101 0.0112306 -1.44505 65280
0.28918901 0.0112306 -1.44505 65280
0.29199699 0.0112306 -1.44505 65280
0.29480401 0.0112306 -1.44505 65280
0.29761201 0.0112306 -1.44505 65280
0.30041999 0.0112306 -1.44505 65280
0.30322701 0.0112306 -1.44505 65280
0.30603501 0.0112306 -1.44505 65280
0.30884299 0.0112306 -1.44505 65280
0.31165001 0.0112306 -1.44505 65280
0.31445801 0.0112306 -1.44505 65280
0.31726599 0.0112306 -1.44505 65280
0.32007301 0.0112306 -1.44505 65280
0.32288101 0.0112306 -1.44505 65280
0.32568899 0.0112306 -1.44505 65280
0.32849601 0.0112306 -1.44505 65280
0.33130401 0.0112306 -1.44505 65280
0.33411199 0.0112306 -1.44505 65280
0.33691901 0.0112306 -1.44505 65280
0.33972701 0.0112306 -1.44505 65280
0.34253499 0.0112306 -1.44505 65280
0.34534201 0.0112306 -1.44505 65280
0.34815001 0.0112306 -1.44505 65280
0.35095799 0.0112306 -1.44505 65280
0.35376501 0.0112306 -1.44505 65280
0.35657299 0.0112306 -1.44505 65280
0.35938099 0.0112306 -1.44505 65280
0.36218801 0.0112306 -1.44505 65280
0.36499599 0.0112306 -1.44505 65280
0.36780399 0.0112306 -1.44505 65280
0.37061101 0.0112306 -1.44505 65280
0.37341899 0.0112306 -1.44505 65280
0.37622699 0.0112306 -1.44505 65280
0.37903401 0.0112306 -1.44505 65280
0.38184199 0.0112306 -1.44505 65280
0.38464999 0.0112306 -1.44505 65280
0.38745701 0.0112306 -1.44505 65280
0.39026499 0.0112306 -1.44505 65280
0.39307299 0.0112306 -1.44505 65280
0.39588001 0.0112306 -1.44505 65280
-0.40113401 0.0140257 -1.44375 65280
-0.39832899 0.0140257 -1.44375 65280
-0.39552301 0.0140257 -1.44375 65280
-0.39271799 0.0140257 -1.44375 65280
-0.38991299 0.0140257 -1.44375 65280
-0.387108 0.0140257 -1.44375 65280
-0.384303 0.0140257 -1.44375 65280
-0.38149801 0.0140257 -1.44375 65280
-0.37869301 0.0140257 -1.44375 65280
-0.37588701 0.0140257 -1.44375 65280
-0.37308201 0.0140257 -1.44375 65280
-0.37027699 0.0140257 -1.44375 65280
-0.36747199 0.0140257 -1.44375 65280
-0.364667 0.0140257 -1.44375 65280
-0.361862 0.0140257 -1.44375 65280
-0.35905701 0.0140257 -1.44375 65280
-0.35625201 0.0140257 -1.44375 65280
-0.35344601 0.0140257 -1.44375 65280
-0.35064101 0.0140257 -1.44375 65280
-0.34783599 0.0140257 -1.44375 65280
-0.34503099 0.0140257 -1.44375 65280
-0.342226 0.0140257 -1.44375 65280
-0.339421 0.0140257 -1.44375 65280
-0.33661601 0.0140257 -1.44375 65280
-0.33381101 0.0140257 -1.44375 65280
-0.33100501 0.0140257 -1.44375 65280
-0.32820001 0.0140257 -1.44375 65280
-0.32539499 0.0140257 -1.44375 65280
-0.32258999 0.0140257 -1.44375 65280
-0.319785 0.0140257 -1.44375 65280
-0.31698 0.0140257 -1.44375 65280
-0.31417501 0.0140257 -1.44375 65280
-0.311369 0.0140257 -1.44375 65280
-0.30856401 0.0140257 -1.44375 65280
-0.30575901 0.0140257 -1.44375 65280
-0.30295399 0.0140257 -1.44375 65280
-0.30014899 0.0140257 -1.44375 65280
-0.297344 0.0140257 -1.44375 65280
-0.294539 0.0140257 -1.44375 65280
-0.29173401 0.0140257 -1.44375 65280
-0.288928 0.0140257 -1.44375 65280
-0.28612301 0.0140257 -1.44375 65280
-0.28331801 0.0140257 -1.44375 65280
-0.28051299 0.0140257 -1.44375 65280
-0.27770799 0.0140257 -1.44375 65280
-0.274903 0.0140257 -1.44375 65280
-0.272098 0.0140257 -1.44375 65280
-0.26929301 0.0140257 -1.44375 65280
-0.266487 0.0140257 -1.44375 65280
-0.26368201 0.0140257 -1.44375 65280
-0.26087701 0.0140257 -1.44375 65280
-0.25807199 0.0140257 -1.44375 65280
-0.25526699 0.0140257 -1.44375 65280
-0.252462 0.0140257 -1.44375 65280
-0.24965701 0.0140257 -1.44375 65280
-0.246851 0.0140257 -1.44375 65280
-0.244046 0.0140257 -1.44375 65280
-0.24124099 0.0140257 -1.44375 65280
-0.238436 0.0140257 -1.44375 65280
-0.23105399 0.0137532 -1.4157 65280
-0.22776499 0.0137208 -1.41236 65280
-0.224681 0.0137001 -1.41023 65280
-0.221642 0.0136816 -1.40833 65280
-0.218661 0.0136663 -1.40676 65280
-0.21575101 0.0136551 -1.40561 65280
-0.212786 0.0136401 -1.40407 65280
-0.209674 0.0136152 -1.4015 65280
-0.206552 0.0135889 -1.3988 65280
-0.20340399 0.0135602 -1.39584 65280
-0.20029099 0.0135332 -1.39305 65280
-0.197126 0.0135018 -1.38982 65280
-0.193904 0.0134656 -1.3861001 65280
-0.190617 0.0134237 -1.38179 65280
-0.187438 0.0133884 -1.37816 65280
-0.18452001 0.013371 -1.37637 65280
-0.181834 0.0133701 -1.3762701 65280
-0.17931899 0.0133821 -1.3775001 65280
-0.176902 0.0134017 -1.3795201 65280
-0.17476 0.013443 -1.38378 65280
-0.172888 0.0135069 -1.39035 65280
-0.17107201 0.0135771 -1.39758 65280
-0.16923399 0.0136479 -1.40487 65280
-0.167439 0.0137245 -1.41275 65280
-0.168308 0.0140257 -1.44375 65280
-0.165503 0.0140257 -1.44375 65280
-0.162698 0.0140257 -1.44375 65280
-0.15989199 0.0140257 -1.44375 65280
-0.157087 0.0140257 -1.44375 65280
-0.154282 0.0140257 -1.44375 65280
-0.15147699 0.0140257 -1.44375 65280
-0.148672 0.0140257 -1.44375 65280
-0.145867 0.0140257 -1.44375 65280
-0.143062 0.0140257 -1.44375 65280
-0.140257 0.0140257 -1.44375 65280
-0.13745099 0.0140257 -1.44375 65280
-0.134646 0.0140257 -1.44375 65280
-0.131841 0.0140257 -1.44375 65280
-0.12903599 0.0140257 -1.44375 65280
-0.126231 0.0140257 -1.44375 65280
-0.123426 0.0140257 -1.44375 65280
-0.120621 0.0140257 -1.44375 65280
-0.117815 0.0140257 -1.44375 65280
-0.11501 0.0140257 -1.44375 65280
-0.112205 0.0140257 -1.44375 65280
-0.1094 0.0140257 -1.44375 65280
-0.106595 0.0140257 -1.44375 65280
-0.10379 0.0140257 -1.44375 65280
-0.100985 0.0140257 -1.44375 65280
-0.098179601 0.0140257 -1.44375 65280
-0.095374398 0.0140257 -1.44375 65280
-0.092569299 0.0140257 -1.44375 65280
-0.0897642 0.0140257 -1.44375 65280
-0.086958997 0.0140257 -1.44375 65280
-0.084153898 0.0140257 -1.44375 65280
-0.081348799 0.0140257 -1.44375 65280
-0.0785437 0.0140257 -1.44375 65280
-0.075738497 0.0140257 -1.44375 65280
-0.072933398 0.0140257 -1.44375 65280
-0.070128299 0.0140257 -1.44375 65280
-0.067323104 0.0140257 -1.44375 65280
-0.064517997 0.0140257 -1.44375 65280
-0.061712898 0.0140257 -1.44375 65280
-0.058907699 0.0140257 -1.44375 65280
-0.0561026 0.0140257 -1.44375 65280
-0.053297501 0.0140257 -1.44375 65280
-0.050492398 0.0140257 -1.44375 65280
-0.047687199 0.0140257 -1.44375 65280
-0.0448821 0.0140257 -1.44375 65280
-0.042077001 0.0140257 -1.44375 65280
-0.039271802 0.0140257 -1.44375 65280
-0.036466699 0.0140257 -1.44375 65280
-0.0336616 0.0140257 -1.44375 65280
-0.030856401 0.0140257 -1.44375 65280
-0.0280513 0.0140257 -1.44375 65280
-0.025246199 0.0140257 -1.44375 65280
-0.022441 0.0140257 -1.44375 65280
-0.019635901 0.0140257 -1.44375 65280
-0.0168308 0.0140257 -1.44375 65280
-0.0140257 0.0140257 -1.44375 65280
-0.0112205 0.0140257 -1.44375 65280
-0.0084153898 0.0140257 -1.44375 65280
-0.0056102602 0.0140257 -1.44375 65280
-0.0028051301 0.0140257 -1.44375 65280
0 0.0140257 -1.44375 65280
0.0028051301 0.0140257 -1.44375 65280
0.0056102602 0.0140257 -1.44375 65280
0.0084153898 0.0140257 -1.44375 65280
0.0112205 0.0140257 -1.44375 65280
0.0140257 0.0140257 -1.44375 65280
0.0168308 0.0140257 -1.44375 65280
0.019635901 0.0140257 -1.44375 65280
0.022441 0.0140257 -1.44375 65280
0.025246199 0.0140257 -1.44375 65280
0.0280513 0.0140257 -1.44375 65280
0.030856401 0.0140257 -1.44375 65280
0.0336616 0.0140257 -1.44375 65280
0.036466699 0.0140257 -1.44375 65280
0.039271802 0.0140257 -1.44375 65280
0.042077001 0.0140257 -1.44375 65280
0.0448821 0.0140257 -1.44375 65280
0.047687199 0.0140257 -1.44375 65280
0.050492398 0.0140257 -1.44375 65280
0.053297501 0.0140257 -1.44375 65280
0.0561026 0.0140257 -1.44375 65280
0.058907699 0.0140257 -1.44375 65280
0.061712898 0.0140257 -1.44375 65280
0.064517997 0.0140257 -1.44375 65280
0.067323104 0.0140257 -1.44375 65280
0.070128299 0.0140257 -1.44375 65280
0.072933398 0.0140257 -1.44375 65280
0.075738497 0.0140257 -1.44375 65280
0.0785437 0.0140257 -1.44375 65280
0.081348799 0.0140257 -1.44375 65280
0.084153898 0.0140257 -1.44375 65280
0.086958997 0.0140257 -1.44375 65280
0.0897642 0.0140257 -1.44375 65280
0.092569299 0.0140257 -1.44375 65280
0.095374398 0.0140257 -1.44375 65280
0.098179601 0.0140257 -1.44375 65280
0.100985 0.0140257 -1.44375 65280
0.10379 0.0140257 -1.44375 65280
0.106595 0.0140257 -1.44375 65280
0.1094 0.0140257 -1.44375 65280
0.112205 0.0140257 -1.44375 65280
0.11501 0.0140257 -1.44375 65280
0.117815 0.0140257 -1.44375 65280
0.120621 0.0140257 -1.44375 65280
0.123426 0.0140257 -1.44375 65280
0.126231 0.0140257 -1.44375 65280
0.12903599 0.0140257 -1.44375 65280
0.131841 0.0140257 -1.44375 65280
0.134646 0.0140257 -1.44375 65280
0.13745099 0.0140257 -1.44375 65280
0.140257 0.0140257 -1.44375 65280
0.143062 0.0140257 -1.44375 65280
0.145867 0.0140257 -1.44375 65280
0.148672 0.0140257 -1.44375 65280
0.15147699 0.0140257 -1.44375 65280
0.154282 0.0140257 -1.44375 65280
0.157087 0.0140257 -1.44375 65280
0.15989199 0.0140257 -1.44375 65280
0.162698 0.0140257 -1.44375 65280
0.165503 0.0140257 -1.44375 65280
0.168308 0.0140257 -1.44375 65280
0.171113 0.0140257 -1.44375 65280
0.17391799 0.0140257 -1.44375 65280
