# .PCD v0.7 - Point Cloud Data file format
VERSION 0.7
FIELDS x y z rgb
SIZE 4 4 4 4
TYPE F F F U
COUNT 1 1 1 1
WIDTH 1252
HEIGHT 1
VIEWPOINT 0 0 0 1 0 0 0
POINTS 1252
DATA ascii
0.316037 0.076948099 -1.41442 65280
0.31878501 0.076948099 -1.41442 65280
0.32153299 0.076948099 -1.41442 65280
0.32428101 0.076948099 -1.41442 65280
0.32702899 0.076948099 -1.41442 65280
0.32977799 0.076948099 -1.41442 65280
0.332526 0.076948099 -1.41442 65280
0.33527401 0.076948099 -1.41442 65280
0.33802199 0.076948099 -1.41442 65280
0.34077001 0.076948099 -1.41442 65280
0.34351799 0.076948099 -1.41442 65280
0.34626701 0.076948099 -1.41442 65280
0.349015 0.076948099 -1.41442 65280
0.35176301 0.076948099 -1.41442 65280
0.35451099 0.076948099 -1.41442 65280
0.35725901 0.076948099 -1.41442 65280
0.36000699 0.076948099 -1.41442 65280
0.362755 0.076948099 -1.41442 65280
0.365504 0.076948099 -1.41442 65280
0.36825201 0.076948099 -1.41442 65280
0.37099999 0.076948099 -1.41442 65280
0.373748 0.076948099 -1.41442 65280
0.37649599 0.076948099 -1.41442 65280
0.379244 0.076948099 -1.41442 65280
0.38199201 0.076948099 -1.41442 65280
0.38474101 0.076948099 -1.41442 65280
0.38748899 0.076948099 -1.41442 65280
0.390237 0.076948099 -1.41442 65280
0.39298499 0.076948099 -1.41442 65280
0.395733 0.076948099 -1.41442 65280
0.39848101 0.076948099 -1.41442 65280
-0.400875 0.079625897 -1.41317 65280
-0.39813 0.079625897 -1.41317 65280
-0.39538401 0.079625897 -1.41317 65280
-0.392638 0.079625897 -1.41317 65280
-0.389893 0.079625897 -1.41317 65280
-0.38714701 0.079625897 -1.41317 65280
-0.38440099 0.079625897 -1.41317 65280
-0.38165501 0.079625897 -1.41317 65280
-0.37891001 0.079625897 -1.41317 65280
-0.37616399 0.079625897 -1.41317 65280
-0.373418 0.079625897 -1.41317 65280
-0.370673 0.079625897 -1.41317 65280
-0.36792701 0.079625897 -1.41317 65280
-0.365181 0.079625897 -1.41317 65280
-0.36243501 0.079625897 -1.41317 65280
-0.35969001 0.079625897 -1.41317 65280
-0.35694399 0.079625897 -1.41317 65280
-0.35419801 0.079625897 -1.41317 65280
-0.35145199 0.079625897 -1.41317 65280
-0.34870699 0.079625897 -1.41317 65280
-0.345961 0.079625897 -1.41317 65280
-0.34321499 0.079625897 -1.41317 65280
-0.34046999 0.079625897 -1.41317 65280
-0.337724 0.079625897 -1.41317 65280
-0.33497801 0.079625897 -1.41317 65280
-0.332232 0.079625897 -1.41317 65280
-0.329487 0.079625897 -1.41317 65280
-0.32674101 0.079625897 -1.41317 65280
-0.32399499 0.079625897 -1.41317 65280
-0.32124999 0.079625897 -1.41317 65280
-0.31850401 0.079625897 -1.41317 65280
-0.31575799 0.079625897 -1.41317 65280
-0.313012 0.079625897 -1.41317 65280
-0.310267 0.079625897 -1.41317 65280
-0.30752099 0.079625897 -1.41317 65280
-0.304775 0.079625897 -1.41317 65280
-0.30202901 0.079625897 -1.41317 65280
-0.29928401 0.079625897 -1.41317 65280
-0.296538 0.079625897 -1.41317 65280
-0.29379201 0.079625897 -1.41317 65280
-0.29104701 0.079625897 -1.41317 65280
-0.28830099 0.079625897 -1.41317 65280
-0.28555501 0.079625897 -1.41317 65280
-0.28280899 0.079625897 -1.41317 65280
-0.28006399 0.079625897 -1.41317 65280
-0.277318 0.079625897 -1.41317 65280
-0.27457201 0.079625897 -1.41317 65280
-0.27182701 0.079625897 -1.41317 65280
-0.269081 0.079625897 -1.41317 65280
-0.26633501 0.079625897 -1.41317 65280
-0.26358899 0.079625897 -1.41317 65280
-0.26084399 0.079625897 -1.41317 65280
-0.25809801 0.079625897 -1.41317 65280
-0.25535199 0.079625897 -1.41317 65280
-0.252606 0.079625897 -1.41317 65280
-0.249861 0.079625897 -1.41317 65280
-0.247115 0.079625897 -1.41317 65280
-0.233052 0.075938299 -1.34773 65280
-0.23002601 0.075803898 -1.34534 65280
-0.227378 0.0757927 -1.34514 65280
-0.22494 0.075851902 -1.34619 65280
-0.222949 0.076064996 -1.34997 65280
-0.220938 0.076276302 -1.3537199 65280
-0.21864299 0.076393403 -1.3558 65280
-0.216243 0.076476097 -1.35727 65280
-0.21380401 0.0765469 -1.35853 65280
-0.211319 0.076603003 -1.35952 65280
-0.208828 0.076658398 -1.36051 65280
-0.206314 0.076706499 -1.36136 65280
-0.203788 0.0767515 -1.36216 65280
-0.201241 0.076789498 -1.36283 65280
-0.19868401 0.076824598 -1.3634599 65280
-0.19610199 0.076850601 -1.36392 65280
-0.193518 0.076877102 -1.36439 65280
-0.190918 0.076897301 -1.36475 65280
-0.188318 0.076918803 -1.3651299 65280
-0.18571401 0.076938801 -1.3654799 65280
-0.183109 0.076958701 -1.36584 65280
-0.180501 0.076978199 -1.3661799 65280
-0.177891 0.076997802 -1.3665299 65280
-0.17527901 0.077016503 -1.36686 65280
-0.172647 0.077027097 -1.3670501 65280
-0.170038 0.077048399 -1.36743 65280
-0.167474 0.077091202 -1.3681901 65280
-0.16495401 0.077155903 -1.3693399 65280
-0.16246399 0.077237099 -1.37078 65280
-0.159999 0.077333003 -1.37248 65280
-0.15756001 0.077444598 -1.37446 65280
-0.155145 0.077572599 -1.37673 65280
-0.152776 0.077728398 -1.3795 65280
-0.150481 0.077927597 -1.3830301 65280
-0.14839301 0.078243703 -1.38864 65280
-0.148269 0.079625897 -1.41317 65280
-0.145523 0.079625897 -1.41317 65280
-0.14277799 0.079625897 -1.41317 65280
-0.14003199 0.079625897 -1.41317 65280
-0.13728601 0.079625897 -1.41317 65280
-0.13454001 0.079625897 -1.41317 65280
-0.131795 0.079625897 -1.41317 65280
-0.129049 0.079625897 -1.41317 65280
-0.126303 0.079625897 -1.41317 65280
-0.123558 0.079625897 -1.41317 65280
-0.120812 0.079625897 -1.41317 65280
-0.118066 0.079625897 -1.41317 65280
-0.11532 0.079625897 -1.41317 65280
-0.112575 0.079625897 -1.41317 65280
-0.109829 0.079625897 -1.41317 65280
-0.107083 0.079625897 -1.41317 65280
-0.104337 0.079625897 -1.41317 65280
-0.101592 0.079625897 -1.41317 65280
-0.098846003 0.079625897 -1.41317 65280
-0.096100301 0.079625897 -1.41317 65280
-0.093354598 0.079625897 -1.41317 65280
-0.090608798 0.079625897 -1.41317 65280
-0.087863103 0.079625897 -1.41317 65280
-0.0851174 0.079625897 -1.41317 65280
-0.082371697 0.079625897 -1.41317 65280
-0.079625897 0.079625897 -1.41317 65280
-0.076880202 0.079625897 -1.41317 65280
-0.074134499 0.079625897 -1.41317 65280
-0.071388803 0.079625897 -1.41317 65280
-0.068643101 0.079625897 -1.41317 65280
-0.065897301 0.079625897 -1.41317 65280
-0.063151598 0.079625897 -1.41317 65280
-0.060405899 0.079625897 -1.41317 65280
-0.0576602 0.079625897 -1.41317 65280
-0.0549144 0.079625897 -1.41317 65280
-0.052168701 0.079625897 -1.41317 65280
-0.049423002 0.079625897 -1.41317 65280
-0.046677299 0.079625897 -1.41317 65280
-0.0439316 0.079625897 -1.41317 65280
-0.0411858 0.079625897 -1.41317 65280
-0.038440101 0.079625897 -1.41317 65280
-0.035694402 0.079625897 -1.41317 65280
-0.032948699 0.079625897 -1.41317 65280
-0.030202899 0.079625897 -1.41317 65280
-0.0274572 0.079625897 -1.41317 65280
-0.024711501 0.079625897 -1.41317 65280
-0.0219658 0.079625897 -1.41317 65280
-0.019220101 0.079625897 -1.41317 65280
-0.016474299 0.079625897 -1.41317 65280
-0.0137286 0.079625897 -1.41317 65280
-0.0109829 0.079625897 -1.41317 65280
-0.0082371701 0.079625897 -1.41317 65280
-0.0054914402 0.079625897 -1.41317 65280
-0.0027457201 0.079625897 -1.41317 65280
0 0.079625897 -1.41317 65280
0.0027457201 0.079625897 -1.41317 65280
0.0054914402 0.079625897 -1.41317 65280
0.0082371701 0.079625897 -1.41317 65280
0.0109829 0.079625897 -1.41317 65280
0.0137286 0.079625897 -1.41317 65280
0.016474299 0.079625897 -1.41317 65280
0.019220101 0.079625897 -1.41317 65280
0.0219658 0.079625897 -1.41317 65280
0.024711501 0.079625897 -1.41317 65280
0.0274572 0.079625897 -1.41317 65280
0.030202899 0.079625897 -1.41317 65280
0.032948699 0.079625897 -1.41317 65280
0.035694402 0.079625897 -1.41317 65280
0.038440101 0.079625897 -1.41317 65280
0.0411858 0.079625897 -1.41317 65280
0.0439316 0.079625897 -1.41317 65280
0.046677299 0.079625897 -1.41317 65280
0.049423002 0.079625897 -1.41317 65280
0.052168701 0.079625897 -1.41317 65280
0.0549144 0.079625897 -1.41317 65280
0.0576602 0.079625897 -1.41317 65280
0.060405899 0.079625897 -1.41317 65280
0.063151598 0.079625897 -1.41317 65280
0.065897301 0.079625897 -1.41317 65280
0.068643101 0.079625897 -1.41317 65280
0.071388803 0.079625897 -1.41317 65280
0.074134499 0.079625897 -1.41317 65280
0.076880202 0.079625897 -1.41317 65280
0.079625897 0.079625897 -1.41317 65280
0.082371697 0.079625897 -1.41317 65280
0.0851174 0.079625897 -1.41317 65280
0.087863103 0.079625897 -1.41317 65280
0.090608798 0.079625897 -1.41317 65280
0.093354598 0.079625897 -1.41317 65280
0.096100301 0.079625897 -1.41317 65280
0.098846003 0.079625897 -1.41317 65280
0.101592 0.079625897 -1.41317 65280
0.104337 0.079625897 -1.41317 65280
0.107083 0.079625897 -1.41317 65280
0.109829 0.079625897 -1.41317 65280
0.112575 0.079625897 -1.41317 65280
0.11532 0.079625897 -1.41317 65280
0.118066 0.079625897 -1.41317 65280
0.120812 0.079625897 -1.41317 65280
0.123558 0.079625897 -1.41317 65280
0.126303 0.079625897 -1.41317 65280
0.129049 0.079625897 -1.41317 65280
0.131795 0.079625897 -1.41317 65280
0.13454001 0.079625897 -1.41317 65280
0.13728601 0.079625897 -1.41317 65280
0.14003199 0.079625897 -1.41317 65280
0.14277799 0.079625897 -1.41317 65280
0.145523 0.079625897 -1.41317 65280
0.148269 0.079625897 -1.41317 65280
0.151015 0.079625897 -1.41317 65280
0.15376 0.079625897 -1.41317 65280
0.156506 0.079625897 -1.41317 65280
0.159252 0.079625897 -1.41317 65280
0.161998 0.079625897 -1.41317 65280
0.16474301 0.079625897 -1.41317 65280
0.16748901 0.079625897 -1.41317 65280
0.17023499 0.079625897 -1.41317 65280
0.17298099 0.079625897 -1.41317 65280
0.175726 0.079625897 -1.41317 65280
0.178472 0.079625897 -1.41317 65280
0.181218 0.079625897 -1.41317 65280
0.183963 0.079625897 -1.41317 65280
0.186709 0.079625897 -1.41317 65280
0.189455 0.079625897 -1.41317 65280
0.192201 0.079625897 -1.41317 65280
0.19494601 0.079625897 -1.41317 65280
0.19769201 0.079625897 -1.41317 65280
0.20043799 0.079625897 -1.41317 65280
0.203183 0.079625897 -1.41317 65280
0.205929 0.079625897 -1.41317 65280
0.208675 0.079625897 -1.41317 65280
0.211421 0.079625897 -1.41317 65280
0.214166 0.079625897 -1.41317 65280
0.216912 0.079625897 -1.41317 65280
0.219658 0.079625897 -1.41317 65280
0.222404 0.079625897 -1.41317 65280
0.22514901 0.079625897 -1.41317 65280
0.22789501 0.079625897 -1.41317 65280
0.23064101 0.079625897 -1.41317 65280
0.233386 0.079625897 -1.41317 65280
0.236132 0.079625897 -1.41317 65280
0.238878 0.079625897 -1.41317 65280
0.241624 0.079625897 -1.41317 65280
0.244369 0.079625897 -1.41317 65280
0.247115 0.079625897 -1.41317 65280
0.249861 0.079625897 -1.41317 65280
0.252606 0.079625897 -1.41317 65280
0.25535199 0.079625897 -1.41317 65280
0.25809801 0.079625897 -1.41317 65280
0.26084399 0.079625897 -1.41317 65280
0.26358899 0.079625897 -1.41317 65280
0.26633501 0.079625897 -1.41317 65280
0.269081 0.079625897 -1.41317 65280
0.27182701 0.079625897 -1.41317 65280
0.27457201 0.079625897 -1.41317 65280
0.277318 0.079625897 -1.41317 65280
0.28006399 0.079625897 -1.41317 65280
0.28280899 0.079625897 -1.41317 65280
0.28555501 0.079625897 -1.41317 65280
0.28830099 0.079625897 -1.41317 65280
0.29104701 0.079625897 -1.41317 65280
0.29379201 0.079625897 -1.41317 65280
0.296538 0.079625897 -1.41317 65280
0.29928401 0.079625897 -1.41317 65280
0.30202901 0.079625897 -1.41317 65280
0.304775 0.079625897 -1.41317 65280
0.30752099 0.079625897 -1.41317 65280
0.310267 0.079625897 -1.41317 65280
0.313012 0.079625897 -1.41317 65280
0.31575799 0.079625897 -1.41317 65280
0.31850401 0.079625897 -1.41317 65280
0.32124999 0.079625897 -1.41317 65280
0.32399499 0.079625897 -1.41317 65280
0.32674101 0.079625897 -1.41317 65280
0.329487 0.079625897 -1.41317 65280
0.332232 0.079625897 -1.41317 65280
0.33497801 0.079625897 -1.41317 65280
0.337724 0.079625897 -1.41317 65280
0.34046999 0.079625897 -1.41317 65280
0.34321499 0.079625897 -1.41317 65280
0.345961 0.079625897 -1.41317 65280
0.34870699 0.079625897 -1.41317 65280
0.35145199 0.079625897 -1.41317 65280
0.35419801 0.079625897 -1.41317 65280
0.35694399 0.079625897 -1.41317 65280
0.35969001 0.079625897 -1.41317 65280
0.36243501 0.079625897 -1.41317 65280
0.365181 0.079625897 -1.41317 65280
0.36792701 0.079625897 -1.41317 65280
0.370673 0.079625897 -1.41317 65280
0.373418 0.079625897 -1.41317 65280
0.37616399 0.079625897 -1.41317 65280
0.37891001 0.079625897 -1.41317 65280
0.38165501 0.079625897 -1.41317 65280
0.38440099 0.079625897 -1.41317 65280
0.38714701 0.079625897 -1.41317 65280
0.389893 0.079625897 -1.41317 65280
0.392638 0.079625897 -1.41317 65280
0.39538401 0.079625897 -1.41317 65280
0.39813 0.079625897 -1.41317 65280
-0.40052199 0.082299098 -1.41193 65280
-0.39777899 0.082299098 -1.41193 65280
-0.39503601 0.082299098 -1.41193 65280
-0.39229199 0.082299098 -1.41193 65280
-0.38954899 0.082299098 -1.41193 65280
-0.38680601 0.082299098 -1.41193 65280
-0.38406199 0.082299098 -1.41193 65280
-0.38131899 0.082299098 -1.41193 65280
-0.37857601 0.082299098 -1.41193 65280
-0.37583199 0.082299098 -1.41193 65280
-0.37308899 0.082299098 -1.41193 65280
-0.37034601 0.082299098 -1.41193 65280
-0.36760199 0.082299098 -1.41193 65280
-0.36485901 0.082299098 -1.41193 65280
-0.36211601 0.082299098 -1.41193 65280
-0.359373 0.082299098 -1.41193 65280
-0.35662901 0.082299098 -1.41193 65280
-0.35388601 0.082299098 -1.41193 65280
-0.351143 0.082299098 -1.41193 65280
-0.34839901 0.082299098 -1.41193 65280
-0.34565601 0.082299098 -1.41193 65280
-0.342913 0.082299098 -1.41193 65280
-0.34016901 0.082299098 -1.41193 65280
-0.33742601 0.082299098 -1.41193 65280
-0.334683 0.082299098 -1.41193 65280
-0.33194 0.082299098 -1.41193 65280
-0.32919601 0.082299098 -1.41193 65280
-0.326453 0.082299098 -1.41193 65280
-0.32370999 0.082299098 -1.41193 65280
-0.32096601 0.082299098 -1.41193 65280
-0.318223 0.082299098 -1.41193 65280
-0.31547999 0.082299098 -1.41193 65280
-0.312736 0.082299098 -1.41193 65280
-0.309993 0.082299098 -1.41193 65280
-0.30724999 0.082299098 -1.41193 65280
-0.30450699 0.082299098 -1.41193 65280
-0.301763 0.082299098 -1.41193 65280
-0.29901999 0.082299098 -1.41193 65280
-0.29627699 0.082299098 -1.41193 65280
-0.293533 0.082299098 -1.41193 65280
-0.29078999 0.082299098 -1.41193 65280
-0.28804699 0.082299098 -1.41193 65280
-0.285303 0.082299098 -1.41193 65280
-0.28255999 0.082299098 -1.41193 65280
-0.27981699 0.082299098 -1.41193 65280
-0.27707401 0.082299098 -1.41193 65280
-0.27432999 0.082299098 -1.41193 65280
-0.27158701 0.082299098 -1.41193 65280
-0.26884401 0.082299098 -1.41193 65280
-0.26609999 0.082299098 -1.41193 65280
-0.26335701 0.082299098 -1.41193 65280
-0.26061401 0.082299098 -1.41193 65280
-0.25786999 0.082299098 -1.41193 65280
-0.25512701 0.082299098 -1.41193 65280
-0.25238401 0.082299098 -1.41193 65280
-0.24964 0.082299098 -1.41193 65280
-0.246897 0.082299098 -1.41193 65280
-0.232969 0.078529 -1.34725 65280
-0.22996999 0.078398898 -1.3450201 65280
-0.227266 0.078367703 -1.34448 65280
-0.224793 0.078416303 -1.34531 65280
-0.22252201 0.0785373 -1.3473901 65280
-0.220516 0.078755602 -1.35114 65280
-0.218376 0.078931101 -1.3541501 65280
-0.216022 0.079032503 -1.35589 65280
-0.213624 0.079120196 -1.35739 65280
-0.211192 0.079196803 -1.3587101 65280
-0.208717 0.0792595 -1.35978 65280
-0.206246 0.0793254 -1.3609101 65280
-0.203748 0.079382204 -1.36189 65280
-0.201235 0.079434998 -1.36279 65280
-0.198706 0.0794826 -1.36361 65280
-0.196156 0.079522602 -1.36429 65280
-0.19358701 0.079556502 -1.36488 65280
-0.191007 0.079586297 -1.3653899 65280
-0.18841501 0.079612099 -1.3658299 65280
-0.18581399 0.079634801 -1.36622 65280
-0.183209 0.079655997 -1.36658 65280
-0.180595 0.079674102 -1.36689 65280
-0.177968 0.079686999 -1.36711 65280
-0.175308 0.079685397 -1.36709 65280
-0.172684 0.079700299 -1.36734 65280
-0.170104 0.079736501 -1.36796 65280
-0.167569 0.079794899 -1.36897 65280
-0.165062 0.079868697 -1.37023 65280
-0.16258401 0.079959102 -1.37178 65280
-0.16013101 0.080065601 -1.37361 65280
-0.15770601 0.080189697 -1.3757401 65280
-0.155322 0.080339096 -1.3783 65280
-0.153 0.080526501 -1.38152 65280
-0.15082601 0.0807999 -1.38621 65280
-0.15088201 0.082299098 -1.41193 65280
-0.148138 0.082299098 -1.41193 65280
-0.145395 0.082299098 -1.41193 65280
-0.142652 0.082299098 -1.41193 65280
-0.139908 0.082299098 -1.41193 65280
-0.137165 0.082299098 -1.41193 65280
-0.134422 0.082299098 -1.41193 65280
-0.131679 0.082299098 -1.41193 65280
-0.12893499 0.082299098 -1.41193 65280
-0.126192 0.082299098 -1.41193 65280
-0.123449 0.082299098 -1.41193 65280
-0.120705 0.082299098 -1.41193 65280
-0.117962 0.082299098 -1.41193 65280
-0.115219 0.082299098 -1.41193 65280
-0.112475 0.082299098 -1.41193 65280
-0.109732 0.082299098 -1.41193 65280
-0.106989 0.082299098 -1.41193 65280
-0.104245 0.082299098 -1.41193 65280
-0.101502 0.082299098 -1.41193 65280
-0.098758899 0.082299098 -1.41193 65280
-0.096015602 0.082299098 -1.41193 65280
-0.093272299 0.082299098 -1.41193 65280
-0.090529002 0.082299098 -1.41193 65280
-0.087785698 0.082299098 -1.41193 65280
-0.085042402 0.082299098 -1.41193 65280
-0.082299098 0.082299098 -1.41193 65280
-0.079555802 0.082299098 -1.41193 65280
-0.076812498 0.082299098 -1.41193 65280
-0.074069202 0.082299098 -1.41193 65280
-0.071325898 0.082299098 -1.41193 65280
-0.068582498 0.082299098 -1.41193 65280
-0.065839298 0.082299098 -1.41193 65280
-0.063095897 0.082299098 -1.41193 65280
-0.060352601 0.082299098 -1.41193 65280
-0.057609301 0.082299098 -1.41193 65280
-0.054866001 0.082299098 -1.41193 65280
-0.052122701 0.082299098 -1.41193 65280
-0.049379401 0.082299098 -1.41193 65280
-0.046636101 0.082299098 -1.41193 65280
-0.043892801 0.082299098 -1.41193 65280
-0.041149501 0.082299098 -1.41193 65280
-0.038406201 0.082299098 -1.41193 65280
-0.035662901 0.082299098 -1.41193 65280
-0.032919601 0.082299098 -1.41193 65280
-0.030176301 0.082299098 -1.41193 65280
-0.027433001 0.082299098 -1.41193 65280
-0.0246897 0.082299098 -1.41193 65280
-0.0219464 0.082299098 -1.41193 65280
-0.0192031 0.082299098 -1.41193 65280
-0.0164598 0.082299098 -1.41193 65280
-0.0137165 0.082299098 -1.41193 65280
-0.0109732 0.082299098 -1.41193 65280
-0.0082299104 0.082299098 -1.41193 65280
-0.0054866001 0.082299098 -1.41193 65280
-0.0027433001 0.082299098 -1.41193 65280
0 0.082299098 -1.41193 65280
0.0027433001 0.082299098 -1.41193 65280
0.0054866001 0.082299098 -1.41193 65280
0.0082299104 0.082299098 -1.41193 65280
0.0109732 0.082299098 -1.41193 65280
0.0137165 0.082299098 -1.41193 65280
0.0164598 0.082299098 -1.41193 65280
0.0192031 0.082299098 -1.41193 65280
0.0219464 0.082299098 -1.41193 65280
0.0246897 0.082299098 -1.41193 65280
0.027433001 0.082299098 -1.41193 65280
0.030176301 0.082299098 -1.41193 65280
0.032919601 0.082299098 -1.41193 65280
0.035662901 0.082299098 -1.41193 65280
0.038406201 0.082299098 -1.41193 65280
0.041149501 0.082299098 -1.41193 65280
0.043892801 0.082299098 -1.41193 65280
0.046636101 0.082299098 -1.41193 65280
0.049379401 0.082299098 -1.41193 65280
0.052122701 0.082299098 -1.41193 65280
0.054866001 0.082299098 -1.41193 65280
0.057609301 0.082299098 -1.41193 65280
0.060352601 0.082299098 -1.41193 65280
0.063095897 0.082299098 -1.41193 65280
0.065839298 0.082299098 -1.41193 65280
0.068582498 0.082299098 -1.41193 65280
0.071325898 0.082299098 -1.41193 65280
0.074069202 0.082299098 -1.41193 65280
0.076812498 0.082299098 -1.41193 65280
0.079555802 0.082299098 -1.41193 65280
0.082299098 0.082299098 -1.41193 65280
0.085042402 0.082299098 -1.41193 65280
0.087785698 0.082299098 -1.41193 65280
0.090529002 0.082299098 -1.41193 65280
0.093272299 0.082299098 -1.41193 65280
0.096015602 0.082299098 -1.41193 65280
0.098758899 0.082299098 -1.41193 65280
0.101502 0.082299098 -1.41193 65280
0.104245 0.082299098 -1.41193 65280
0.106989 0.082299098 -1.41193 65280
0.109732 0.082299098 -1.41193 65280
0.112475 0.082299098 -1.41193 65280
0.115219 0.082299098 -1.41193 65280
0.117962 0.082299098 -1.41193 65280
0.120705 0.082299098 -1.41193 65280
0.123449 0.082299098 -1.41193 65280
0.126192 0.082299098 -1.41193 65280
0.12893499 0.082299098 -1.41193 65280
0.131679 0.082299098 -1.41193 65280
0.134422 0.082299098 -1.41193 65280
0.137165 0.082299098 -1.41193 65280
0.139908 0.082299098 -1.41193 65280
0.142652 0.082299098 -1.41193 65280
0.145395 0.082299098 -1.41193 65280
0.148138 0.082299098 -1.41193 65280
0.15088201 0.082299098 -1.41193 65280
0.153625 0.082299098 -1.41193 65280
0.156368 0.082299098 -1.41193 65280
0.15911201 0.082299098 -1.41193 65280
0.161855 0.082299098 -1.41193 65280
0.164598 0.082299098 -1.41193 65280
0.16734099 0.082299098 -1.41193 65280
0.170085 0.082299098 -1.41193 65280
0.172828 0.082299098 -1.41193 65280
0.17557099 0.082299098 -1.41193 65280
0.178315 0.082299098 -1.41193 65280
0.181058 0.082299098 -1.41193 65280
0.183801 0.082299098 -1.41193 65280
0.186545 0.082299098 -1.41193 65280
0.18928801 0.082299098 -1.41193 65280
0.192031 0.082299098 -1.41193 65280
0.194774 0.082299098 -1.41193 65280
0.19751801 0.082299098 -1.41193 65280
0.200261 0.082299098 -1.41193 65280
0.203004 0.082299098 -1.41193 65280
0.20574801 0.082299098 -1.41193 65280
0.208491 0.082299098 -1.41193 65280
0.211234 0.082299098 -1.41193 65280
0.21397801 0.082299098 -1.41193 65280
0.216721 0.082299098 -1.41193 65280
0.219464 0.082299098 -1.41193 65280
0.22220699 0.082299098 -1.41193 65280
0.224951 0.082299098 -1.41193 65280
0.227694 0.082299098 -1.41193 65280
0.230437 0.082299098 -1.41193 65280
0.233181 0.082299098 -1.41193 65280
0.23592401 0.082299098 -1.41193 65280
0.238667 0.082299098 -1.41193 65280
0.241411 0.082299098 -1.41193 65280
0.24415401 0.082299098 -1.41193 65280
0.246897 0.082299098 -1.41193 65280
0.24964 0.082299098 -1.41193 65280
0.25238401 0.082299098 -1.41193 65280
0.25512701 0.082299098 -1.41193 65280
0.25786999 0.082299098 -1.41193 65280
0.26061401 0.082299098 -1.41193 65280
0.26335701 0.082299098 -1.41193 65280
0.26609999 0.082299098 -1.41193 65280
0.26884401 0.082299098 -1.41193 65280
0.27158701 0.082299098 -1.41193 65280
0.27432999 0.082299098 -1.41193 65280
0.27707401 0.082299098 -1.41193 65280
0.27981699 0.082299098 -1.41193 65280
0.28255999 0.082299098 -1.41193 65280
0.285303 0.082299098 -1.41193 65280
0.28804699 0.082299098 -1.41193 65280
0.29078999 0.082299098 -1.41193 65280
0.293533 0.082299098 -1.41193 65280
0.29627699 0.082299098 -1.41193 65280
0.29901999 0.082299098 -1.41193 65280
0.301763 0.082299098 -1.41193 65280
0.30450699 0.082299098 -1.41193 65280
0.30724999 0.082299098 -1.41193 65280
0.309993 0.082299098 -1.41193 65280
0.312736 0.082299098 -1.41193 65280
0.31547999 0.082299098 -1.41193 65280
0.318223 0.082299098 -1.41193 65280
0.32096601 0.082299098 -1.41193 65280
0.32370999 0.082299098 -1.41193 65280
0.326453 0.082299098 -1.41193 65280
0.32919601 0.082299098 -1.41193 65280
0.33194 0.082299098 -1.41193 65280
0.334683 0.082299098 -1.41193 65280
0.33742601 0.082299098 -1.41193 65280
0.34016901 0.082299098 -1.41193 65280
0.342913 0.082299098 -1.41193 65280
0.34565601 0.082299098 -1.41193 65280
0.34839901 0.082299098 -1.41193 65280
0.351143 0.082299098 -1.41193 65280
0.35388601 0.082299098 -1.41193 65280
0.35662901 0.082299098 -1.41193 65280
0.359373 0.082299098 -1.41193 65280
0.36211601 0.082299098 -1.41193 65280
0.36485901 0.082299098 -1.41193 65280
0.36760199 0.082299098 -1.41193 65280
0.37034601 0.082299098 -1.41193 65280
0.37308899 0.082299098 -1.41193 65280
0.37583199 0.082299098 -1.41193 65280
0.37857601 0.082299098 -1.41193 65280
0.38131899 0.082299098 -1.41193 65280
0.38406199 0.082299098 -1.41193 65280
0.38680601 0.082299098 -1.41193 65280
0.38954899 0.082299098 -1.41193 65280
0.39229199 0.082299098 -1.41193 65280
0.39503601 0.082299098 -1.41193 65280
0.39777899 0.082299098 -1.41193 65280
-0.40016899 0.084967501 -1.4106801 65280
-0.39742801 0.084967501 -1.4106801 65280
-0.39468801 0.084967501 -1.4106801 65280
-0.391947 0.084967501 -1.4106801 65280
-0.38920599 0.084967501 -1.4106801 65280
-0.38646501 0.084967501 -1.4106801 65280
-0.383724 0.084967501 -1.4106801 65280
-0.380983 0.084967501 -1.4106801 65280
-0.37824199 0.084967501 -1.4106801 65280
-0.37550101 0.084967501 -1.4106801 65280
-0.37276101 0.084967501 -1.4106801 65280
-0.37002 0.084967501 -1.4106801 65280
-0.36727899 0.084967501 -1.4106801 65280
-0.36453801 0.084967501 -1.4106801 65280
-0.361797 0.084967501 -1.4106801 65280
-0.359056 0.084967501 -1.4106801 65280
-0.35631499 0.084967501 -1.4106801 65280
-0.35357401 0.084967501 -1.4106801 65280
-0.350833 0.084967501 -1.4106801 65280
-0.348093 0.084967501 -1.4106801 65280
-0.34535199 0.084967501 -1.4106801 65280
-0.34261101 0.084967501 -1.4106801 65280
-0.33987001 0.084967501 -1.4106801 65280
-0.337129 0.084967501 -1.4106801 65280
-0.33438799 0.084967501 -1.4106801 65280
-0.33164701 0.084967501 -1.4106801 65280
-0.328906 0.084967501 -1.4106801 65280
-0.32616499 0.084967501 -1.4106801 65280
-0.32342499 0.084967501 -1.4106801 65280
-0.32068399 0.084967501 -1.4106801 65280
-0.31794301 0.084967501 -1.4106801 65280
-0.315202 0.084967501 -1.4106801 65280
-0.31246099 0.084967501 -1.4106801 65280
-0.30972001 0.084967501 -1.4106801 65280
-0.306979 0.084967501 -1.4106801 65280
-0.30423799 0.084967501 -1.4106801 65280
-0.30149701 0.084967501 -1.4106801 65280
-0.29875699 0.084967501 -1.4106801 65280
-0.29601601 0.084967501 -1.4106801 65280
-0.293275 0.084967501 -1.4106801 65280
-0.29053399 0.084967501 -1.4106801 65280
-0.28779301 0.084967501 -1.4106801 65280
-0.285052 0.084967501 -1.4106801 65280
-0.28231099 0.084967501 -1.4106801 65280
-0.27957001 0.084967501 -1.4106801 65280
-0.276829 0.084967501 -1.4106801 65280
-0.27408901 0.084967501 -1.4106801 65280
-0.271348 0.084967501 -1.4106801 65280
-0.26860699 0.084967501 -1.4106801 65280
-0.26586601 0.084967501 -1.4106801 65280
-0.263125 0.084967501 -1.4106801 65280
-0.26038399 0.084967501 -1.4106801 65280
-0.25764301 0.084967501 -1.4106801 65280
-0.25490201 0.084967501 -1.4106801 65280
-0.25216201 0.084967501 -1.4106801 65280
-0.249421 0.084967501 -1.4106801 65280
-0.24668001 0.084967501 -1.4106801 65280
-0.233247 0.0812435 -1.34886 65280
-0.230064 0.081045203 -1.34556 65280
-0.22737899 0.081020199 -1.34515 65280
-0.224884 0.081062697 -1.34586 65280
-0.222525 0.081156097 -1.3474 65280
-0.220321 0.081308998 -1.3499399 65280
-0.218156 0.081480101 -1.35278 65280
-0.21588001 0.081612997 -1.35499 65280
-0.213507 0.081712499 -1.35664 65280
-0.211101 0.081801698 -1.35812 65280
-0.208661 0.081879698 -1.3594199 65280
-0.206195 0.081949197 -1.36057 65280
-0.20373701 0.082023799 -1.36181 65280
-0.20125 0.082088597 -1.36289 65280
-0.198746 0.0821485 -1.36388 65280
-0.196219 0.082199998 -1.36474 65280
-0.193666 0.0822419 -1.36543 65280
-0.191103 0.082280502 -1.36607 65280
-0.188518 0.082310803 -1.36658 65280
-0.18592601 0.082338899 -1.36704 65280
-0.18331601 0.0823595 -1.36738 65280
-0.180684 0.082370698 -1.36757 65280
-0.178003 0.0823595 -1.36738 65280
-0.175363 0.082367599 -1.36752 65280
-0.172768 0.082396798 -1.368 65280
-0.170215 0.082448103 -1.36885 65280
-0.167687 0.082512803 -1.36993 65280
-0.16519301 0.082596399 -1.37132 65280
-0.162726 0.0826969 -1.37299 65280
-0.160291 0.082817003 -1.37498 65280
-0.157897 0.082962997 -1.3774 65280
-0.155563 0.083145604 -1.38044 65280
-0.153365 0.083409302 -1.38481 65280
-0.151705 0.083979599 -1.39428 65280
-0.150749 0.084967501 -1.4106801 65280
-0.148008 0.084967501 -1.4106801 65280
-0.14526699 0.084967501 -1.4106801 65280
-0.142526 0.084967501 -1.4106801 65280
-0.13978501 0.084967501 -1.4106801 65280
-0.137044 0.084967501 -1.4106801 65280
-0.134303 0.084967501 -1.4106801 65280
-0.13156299 0.084967501 -1.4106801 65280
-0.128822 0.084967501 -1.4106801 65280
-0.126081 0.084967501 -1.4106801 65280
-0.12334 0.084967501 -1.4106801 65280
-0.120599 0.084967501 -1.4106801 65280
-0.117858 0.084967501 -1.4106801 65280
-0.115117 0.084967501 -1.4106801 65280
-0.112376 0.084967501 -1.4106801 65280
-0.109635 0.084967501 -1.4106801 65280
-0.106895 0.084967501 -1.4106801 65280
-0.104154 0.084967501 -1.4106801 65280
-0.101413 0.084967501 -1.4106801 65280
-0.098671898 0.084967501 -1.4106801 65280
-0.095931001 0.084967501 -1.4106801 65280
-0.093190096 0.084967501 -1.4106801 65280
-0.090449199 0.084967501 -1.4106801 65280
-0.087708399 0.084967501 -1.4106801 65280
-0.084967501 0.084967501 -1.4106801 65280
-0.082226597 0.084967501 -1.4106801 65280
-0.0794857 0.084967501 -1.4106801 65280
-0.076744802 0.084967501 -1.4106801 65280
-0.074003898 0.084967501 -1.4106801 65280
-0.071263 0.084967501 -1.4106801 65280
-0.068522103 0.084967501 -1.4106801 65280
-0.065781303 0.084967501 -1.4106801 65280
-0.063040398 0.084967501 -1.4106801 65280
-0.060299501 0.084967501 -1.4106801 65280
-0.0575586 0.084967501 -1.4106801 65280
-0.054817699 0.084967501 -1.4106801 65280
-0.052076802 0.084967501 -1.4106801 65280
-0.049335901 0.084967501 -1.4106801 65280
-0.0465951 0.084967501 -1.4106801 65280
-0.043854199 0.084967501 -1.4106801 65280
-0.041113298 0.084967501 -1.4106801 65280
-0.038372401 0.084967501 -1.4106801 65280
-0.0356315 0.084967501 -1.4106801 65280
-0.032890599 0.084967501 -1.4106801 65280
-0.0301497 0.084967501 -1.4106801 65280
-0.0274089 0.084967501 -1.4106801 65280
-0.024668001 0.084967501 -1.4106801 65280
-0.0219271 0.084967501 -1.4106801 65280
-0.019186201 0.084967501 -1.4106801 65280
-0.0164453 0.084967501 -1.4106801 65280
-0.0137044 0.084967501 -1.4106801 65280
-0.0109635 0.084967501 -1.4106801 65280
-0.00822266 0.084967501 -1.4106801 65280
-0.0054817698 0.084967501 -1.4106801 65280
-0.00274089 0.084967501 -1.4106801 65280
0 0.084967501 -1.4106801 65280
0.00274089 0.084967501 -1.4106801 65280
0.0054817698 0.084967501 -1.4106801 65280
0.00822266 0.084967501 -1.4106801 65280
0.0109635 0.084967501 -1.4106801 65280
0.0137044 0.084967501 -1.4106801 65280
0.0164453 0.084967501 -1.4106801 65280
0.019186201 0.084967501 -1.4106801 65280
0.0219271 0.084967501 -1.4106801 65280
0.024668001 0.084967501 -1.4106801 65280
0.0274089 0.084967501 -1.4106801 65280
0.0301497 0.084967501 -1.4106801 65280
0.032890599 0.084967501 -1.4106801 65280
0.0356315 0.084967501 -1.4106801 65280
0.038372401 0.084967501 -1.4106801 65280
0.041113298 0.084967501 -1.4106801 65280
0.043854199 0.084967501 -1.4106801 65280
0.0465951 0.084967501 -1.4106801 65280
0.049335901 0.084967501 -1.4106801 65280
0.052076802 0.084967501 -1.4106801 65280
0.054817699 0.084967501 -1.4106801 65280
0.0575586 0.084967501 -1.4106801 65280
0.060299501 0.084967501 -1.4106801 65280
0.063040398 0.084967501 -1.4106801 65280
0.065781303 0.084967501 -1.4106801 65280
0.068522103 0.084967501 -1.4106801 65280
0.071263 0.084967501 -1.4106801 65280
0.074003898 0.084967501 -1.4106801 65280
0.076744802 0.084967501 -1.4106801 65280
0.0794857 0.084967501 -1.4106801 65280
0.082226597 0.084967501 -1.4106801 65280
0.084967501 0.084967501 -1.4106801 65280
0.087708399 0.084967501 -1.4106801 65280
0.090449199 0.084967501 -1.4106801 65280
0.093190096 0.084967501 -1.4106801 65280
0.095931001 0.084967501 -1.4106801 65280
0.098671898 0.084967501 -1.4106801 65280
0.101413 0.084967501 -1.4106801 65280
0.104154 0.084967501 -1.4106801 65280
0.106895 0.084967501 -1.4106801 65280
0.109635 0.084967501 -1.4106801 65280
0.112376 0.084967501 -1.4106801 65280
0.115117 0.084967501 -1.4106801 65280
0.117858 0.084967501 -1.4106801 65280
0.120599 0.084967501 -1.4106801 65280
0.12334 0.084967501 -1.4106801 65280
0.126081 0.084967501 -1.4106801 65280
0.128822 0.084967501 -1.4106801 65280
0.13156299 0.084967501 -1.4106801 65280
0.134303 0.084967501 -1.4106801 65280
0.137044 0.084967501 -1.4106801 65280
0.13978501 0.084967501 -1.4106801 65280
0.142526 0.084967501 -1.4106801 65280
0.14526699 0.084967501 -1.4106801 65280
0.148008 0.084967501 -1.4106801 65280
0.150749 0.084967501 -1.4106801 65280
0.15349001 0.084967501 -1.4106801 65280
0.156231 0.084967501 -1.4106801 65280
0.158971 0.084967501 -1.4106801 65280
0.16171201 0.084967501 -1.4106801 65280
0.164453 0.084967501 -1.4106801 65280
0.16719399 0.084967501 -1.4106801 65280
0.169935 0.084967501 -1.4106801 65280
0.172676 0.084967501 -1.4106801 65280
0.17541701 0.084967501 -1.4106801 65280
0.178158 0.084967501 -1.4106801 65280
0.180898 0.084967501 -1.4106801 65280
0.183639 0.084967501 -1.4106801 65280
0.18638 0.084967501 -1.4106801 65280
0.18912099 0.084967501 -1.4106801 65280
0.191862 0.084967501 -1.4106801 65280
0.194603 0.084967501 -1.4106801 65280
0.19734401 0.084967501 -1.4106801 65280
0.200085 0.084967501 -1.4106801 65280
0.20282599 0.084967501 -1.4106801 65280
0.205566 0.084967501 -1.4106801 65280
0.208307 0.084967501 -1.4106801 65280
0.21104801 0.084967501 -1.4106801 65280
0.213789 0.084967501 -1.4106801 65280
0.21653 0.084967501 -1.4106801 65280
0.219271 0.084967501 -1.4106801 65280
0.222012 0.084967501 -1.4106801 65280
0.22475301 0.084967501 -1.4106801 65280
0.227494 0.084967501 -1.4106801 65280
0.230234 0.084967501 -1.4106801 65280
0.23297501 0.084967501 -1.4106801 65280
0.235716 0.084967501 -1.4106801 65280
0.23845699 0.084967501 -1.4106801 65280
0.241198 0.084967501 -1.4106801 65280
0.243939 0.084967501 -1.4106801 65280
0.24668001 0.084967501 -1.4106801 65280
0.249421 0.084967501 -1.4106801 65280
0.25216201 0.084967501 -1.4106801 65280
0.25490201 0.084967501 -1.4106801 65280
0.25764301 0.084967501 -1.4106801 65280
0.26038399 0.084967501 -1.4106801 65280
0.263125 0.084967501 -1.4106801 65280
0.26586601 0.084967501 -1.4106801 65280
0.26860699 0.084967501 -1.4106801 65280
0.271348 0.084967501 -1.4106801 65280
0.27408901 0.084967501 -1.4106801 65280
0.276829 0.084967501 -1.4106801 65280
0.27957001 0.084967501 -1.4106801 65280
0.28231099 0.084967501 -1.4106801 65280
0.285052 0.084967501 -1.4106801 65280
0.28779301 0.084967501 -1.4106801 65280
0.29053399 0.084967501 -1.4106801 65280
0.293275 0.084967501 -1.4106801 65280
0.29601601 0.084967501 -1.4106801 65280
0.29875699 0.084967501 -1.4106801 65280
0.30149701 0.084967501 -1.4106801 65280
0.30423799 0.084967501 -1.4106801 65280
0.306979 0.084967501 -1.4106801 65280
0.30972001 0.084967501 -1.4106801 65280
0.31246099 0.084967501 -1.4106801 65280
0.315202 0.084967501 -1.4106801 65280
0.31794301 0.084967501 -1.4106801 65280
0.32068399 0.084967501 -1.4106801 65280
0.32342499 0.084967501 -1.4106801 65280
0.32616499 0.084967501 -1.4106801 65280
0.328906 0.084967501 -1.4106801 65280
0.33164701 0.084967501 -1.4106801 65280
0.33438799 0.084967501 -1.4106801 65280
0.337129 0.084967501 -1.4106801 65280
0.33987001 0.084967501 -1.4106801 65280
0.34261101 0.084967501 -1.4106801 65280
0.34535199 0.084967501 -1.4106801 65280
0.348093 0.084967501 -1.4106801 65280
0.350833 0.084967501 -1.4106801 65280
0.35357401 0.084967501 -1.4106801 65280
0.35631499 0.084967501 -1.4106801 65280
0.359056 0.084967501 -1.4106801 65280
0.361797 0.084967501 -1.4106801 65280
0.36453801 0.084967501 -1.4106801 65280
0.36727899 0.084967501 -1.4106801 65280
0.37002 0.084967501 -1.4106801 65280
0.37276101 0.084967501 -1.4106801 65280
0.37550101 0.084967501 -1.4106801 65280
0.37824199 0.084967501 -1.4106801 65280
0.380983 0.084967501 -1.4106801 65280
0.383724 0.084967501 -1.4106801 65280
0.38646501 0.084967501 -1.4106801 65280
0.38920599 0.084967501 -1.4106801 65280
0.391947 0.084967501 -1.4106801 65280
0.39468801 0.084967501 -1.4106801 65280
0.39742801 0.084967501 -1.4106801 65280
-0.39981699 0.087631203 -1.40944 65280
-0.39707899 0.087631203 -1.40944 65280
-0.39434001 0.087631203 -1.40944 65280
-0.39160201 0.087631203 -1.40944 65280
-0.388863 0.087631203 -1.40944 65280
-0.386125 0.087631203 -1.40944 65280
-0.38338599 0.087631203 -1.40944 65280
-0.38064799 0.087631203 -1.40944 65280
-0.377909 0.087631203 -1.40944 65280
-0.37517101 0.087631203 -1.40944 65280
-0.37243301 0.087631203 -1.40944 65280
-0.36969399 0.087631203 -1.40944 65280
-0.366956 0.087631203 -1.40944 65280
-0.36421701 0.087631203 -1.40944 65280
-0.36147901 0.087631203 -1.40944 65280
-0.35874 0.087631203 -1.40944 65280
-0.356002 0.087631203 -1.40944 65280
-0.35326299 0.087631203 -1.40944 65280
-0.35052499 0.087631203 -1.40944 65280
-0.34778601 0.087631203 -1.40944 65280
-0.34504801 0.087631203 -1.40944 65280
-0.342309 0.087631203 -1.40944 65280
-0.339571 0.087631203 -1.40944 65280
-0.33683199 0.087631203 -1.40944 65280
-0.33409399 0.087631203 -1.40944 65280
-0.33135501 0.087631203 -1.40944 65280
-0.32861701 0.087631203 -1.40944 65280
-0.32587799 0.087631203 -1.40944 65280
-0.32314 0.087631203 -1.40944 65280
-0.32040101 0.087631203 -1.40944 65280
-0.31766301 0.087631203 -1.40944 65280
-0.31492499 0.087631203 -1.40944 65280
-0.312186 0.087631203 -1.40944 65280
-0.309448 0.087631203 -1.40944 65280
-0.30670899 0.087631203 -1.40944 65280
-0.30397099 0.087631203 -1.40944 65280
-0.30123201 0.087631203 -1.40944 65280
-0.29849401 0.087631203 -1.40944 65280
-0.295755 0.087631203 -1.40944 65280
-0.293017 0.087631203 -1.40944 65280
-0.29027799 0.087631203 -1.40944 65280
-0.28753999 0.087631203 -1.40944 65280
-0.28480101 0.087631203 -1.40944 65280
-0.28206301 0.087631203 -1.40944 65280
-0.279324 0.087631203 -1.40944 65280
-0.276586 0.087631203 -1.40944 65280
-0.27384701 0.087631203 -1.40944 65280
-0.27110901 0.087631203 -1.40944 65280
-0.26837 0.087631203 -1.40944 65280
-0.265632 0.087631203 -1.40944 65280
-0.262894 0.087631203 -1.40944 65280
-0.26015499 0.087631203 -1.40944 65280
-0.25741699 0.087631203 -1.40944 65280
-0.25467801 0.087631203 -1.40944 65280
-0.25194001 0.087631203 -1.40944 65280
-0.249201 0.087631203 -1.40944 65280
-0.246463 0.087631203 -1.40944 65280
-0.23393901 0.084113002 -1.35286 65280
-0.230409 0.083784901 -1.34758 65280
-0.22768299 0.083745301 -1.34694 65280
-0.22517601 0.083786502 -1.34761 65280
-0.222765 0.083864503 -1.34886 65280
-0.22043 0.083973497 -1.35061 65280
-0.218145 0.084104002 -1.35271 65280
-0.215858 0.084237397 -1.3548599 65280
-0.21348099 0.084338203 -1.35648 65280
-0.211061 0.084424503 -1.35787 65280
-0.208661 0.084521003 -1.3594199 65280
-0.206214 0.084600598 -1.3607 65280
-0.20375299 0.084676601 -1.36192 65280
-0.20129 0.084753901 -1.36316 65280
-0.1988 0.0848215 -1.3642499 65280
-0.19629601 0.0848848 -1.36527 65280
-0.193764 0.084937803 -1.36612 65280
-0.19121 0.084982097 -1.36684 65280
-0.18863501 0.085018598 -1.36742 65280
-0.186041 0.085047401 -1.36789 65280
-0.18341 0.085059702 -1.36808 65280
-0.180721 0.0850453 -1.3678499 65280
-0.17807201 0.0850491 -1.36791 65280
-0.175459 0.085070796 -1.36826 65280
-0.172888 0.085114099 -1.36896 65280
-0.170343 0.085171297 -1.36988 65280
-0.16782799 0.0852459 -1.37108 65280
-0.16534699 0.085340299 -1.3726 65280
-0.162901 0.085456297 -1.37446 65280
-0.1605 0.085600004 -1.37677 65280
-0.158161 0.085782401 -1.37971 65280
-0.15597101 0.086053103 -1.38406 65280
-0.154411 0.086687103 -1.39426 65280
-0.153355 0.087631203 -1.40944 65280
-0.15061601 0.087631203 -1.40944 65280
-0.14787801 0.087631203 -1.40944 65280
-0.14513899 0.087631203 -1.40944 65280
-0.14240099 0.087631203 -1.40944 65280
-0.139662 0.087631203 -1.40944 65280
-0.136924 0.087631203 -1.40944 65280
-0.134185 0.087631203 -1.40944 65280
-0.131447 0.087631203 -1.40944 65280
-0.128708 0.087631203 -1.40944 65280
-0.12597001 0.087631203 -1.40944 65280
-0.123231 0.087631203 -1.40944 65280
-0.120493 0.087631203 -1.40944 65280
-0.117754 0.087631203 -1.40944 65280
-0.115016 0.087631203 -1.40944 65280
-0.112277 0.087631203 -1.40944 65280
-0.109539 0.087631203 -1.40944 65280
-0.1068 0.087631203 -1.40944 65280
-0.104062 0.087631203 -1.40944 65280
-0.101324 0.087631203 -1.40944 65280
-0.098585099 0.087631203 -1.40944 65280
-0.095846601 0.087631203 -1.40944 65280
-0.093108103 0.087631203 -1.40944 65280
-0.090369597 0.087631203 -1.40944 65280
-0.087631203 0.087631203 -1.40944 65280
-0.084892698 0.087631203 -1.40944 65280
-0.082154199 0.087631203 -1.40944 65280
-0.079415798 0.087631203 -1.40944 65280
-0.0766773 0.087631203 -1.40944 65280
-0.073938802 0.087631203 -1.40944 65280
-0.071200296 0.087631203 -1.40944 65280
-0.068461902 0.087631203 -1.40944 65280
-0.065723397 0.087631203 -1.40944 65280
-0.062984899 0.087631203 -1.40944 65280
-0.060246401 0.087631203 -1.40944 65280
-0.057507999 0.087631203 -1.40944 65280
-0.054769501 0.087631203 -1.40944 65280
-0.052030999 0.087631203 -1.40944 65280
-0.049292501 0.087631203 -1.40944 65280
-0.0465541 0.087631203 -1.40944 65280
-0.043815602 0.087631203 -1.40944 65280
-0.0410771 0.087631203 -1.40944 65280
-0.038338602 0.087631203 -1.40944 65280
-0.0356002 0.087631203 -1.40944 65280
-0.032861698 0.087631203 -1.40944 65280
-0.0301232 0.087631203 -1.40944 65280
-0.0273847 0.087631203 -1.40944 65280
-0.024646301 0.087631203 -1.40944 65280
-0.021907801 0.087631203 -1.40944 65280
-0.019169301 0.087631203 -1.40944 65280
-0.016430801 0.087631203 -1.40944 65280
-0.0136924 0.087631203 -1.40944 65280
-0.0109539 0.087631203 -1.40944 65280
-0.0082154199 0.087631203 -1.40944 65280
-0.0054769502 0.087631203 -1.40944 65280
-0.00273847 0.087631203 -1.40944 65280
0 0.087631203 -1.40944 65280
0.00273847 0.087631203 -1.40944 65280
0.0054769502 0.087631203 -1.40944 65280
0.0082154199 0.087631203 -1.40944 65280
0.0109539 0.087631203 -1.40944 65280
0.0136924 0.087631203 -1.40944 65280
0.016430801 0.087631203 -1.40944 65280
0.019169301 0.087631203 -1.40944 65280
0.021907801 0.087631203 -1.40944 65280
0.024646301 0.087631203 -1.40944 65280
0.0273847 0.087631203 -1.40944 65280
0.0301232 0.087631203 -1.40944 65280
0.032861698 0.087631203 -1.40944 65280
0.0356002 0.087631203 -1.40944 65280
0.038338602 0.087631203 -1.40944 65280
0.0410771 0.087631203 -1.40944 65280
0.043815602 0.087631203 -1.40944 65280
0.0465541 0.087631203 -1.40944 65280
0.049292501 0.087631203 -1.40944 65280
0.052030999 0.087631203 -1.40944 65280
0.054769501 0.087631203 -1.40944 65280
0.057507999 0.087631203 -1.40944 65280
0.060246401 0.087631203 -1.40944 65280
0.062984899 0.087631203 -1.40944 65280
0.065723397 0.087631203 -1.40944 65280
0.068461902 0.087631203 -1.40944 65280
0.071200296 0.087631203 -1.40944 65280
0.073938802 0.087631203 -1.40944 65280
0.0766773 0.087631203 -1.40944 65280
0.079415798 0.087631203 -1.40944 65280
0.082154199 0.087631203 -1.40944 65280
0.084892698 0.087631203 -1.40944 65280
0.087631203 0.087631203 -1.40944 65280
0.090369597 0.087631203 -1.40944 65280
0.093108103 0.087631203 -1.40944 65280
0.095846601 0.087631203 -1.40944 65280
0.098585099 0.087631203 -1.40944 65280
0.101324 0.087631203 -1.40944 65280
0.104062 0.087631203 -1.40944 65280
0.1068 0.087631203 -1.40944 65280
0.109539 0.087631203 -1.40944 65280
0.112277 0.087631203 -1.40944 65280
0.115016 0.087631203 -1.40944 65280
0.117754 0.087631203 -1.40944 65280
0.120493 0.087631203 -1.40944 65280
0.123231 0.087631203 -1.40944 65280
0.12597001 0.087631203 -1.40944 65280
0.128708 0.087631203 -1.40944 65280
0.131447 0.087631203 -1.40944 65280
0.134185 0.087631203 -1.40944 65280
0.136924 0.087631203 -1.40944 65280
0.139662 0.087631203 -1.40944 65280
0.14240099 0.087631203 -1.40944 65280
0.14513899 0.087631203 -1.40944 65280
0.14787801 0.087631203 -1.40944 65280
0.15061601 0.087631203 -1.40944 65280
0.153355 0.087631203 -1.40944 65280
0.156093 0.087631203 -1.40944 65280
0.158832 0.087631203 -1.40944 65280
0.16157 0.087631203 -1.40944 65280
0.164308 0.087631203 -1.40944 65280
0.16704699 0.087631203 -1.40944 65280
0.16978499 0.087631203 -1.40944 65280
0.17252401 0.087631203 -1.40944 65280
0.175262 0.087631203 -1.40944 65280
0.178001 0.087631203 -1.40944 65280
0.180739 0.087631203 -1.40944 65280
0.183478 0.087631203 -1.40944 65280
0.186216 0.087631203 -1.40944 65280
0.18895499 0.087631203 -1.40944 65280
0.19169299 0.087631203 -1.40944 65280
0.19443201 0.087631203 -1.40944 65280
0.19717 0.087631203 -1.40944 65280
0.199909 0.087631203 -1.40944 65280
0.202647 0.087631203 -1.40944 65280
0.205386 0.087631203 -1.40944 65280
0.208124 0.087631203 -1.40944 65280
0.21086299 0.087631203 -1.40944 65280
0.21360099 0.087631203 -1.40944 65280
0.21633901 0.087631203 -1.40944 65280
0.219078 0.087631203 -1.40944 65280
0.221816 0.087631203 -1.40944 65280
0.224555 0.087631203 -1.40944 65280
0.227293 0.087631203 -1.40944 65280
0.230032 0.087631203 -1.40944 65280
0.23277 0.087631203 -1.40944 65280
0.23550899 0.087631203 -1.40944 65280
0.23824701 0.087631203 -1.40944 65280
0.240986 0.087631203 -1.40944 65280
0.243724 0.087631203 -1.40944 65280
0.246463 0.087631203 -1.40944 65280
0.249201 0.087631203 -1.40944 65280
0.25194001 0.087631203 -1.40944 65280
0.25467801 0.087631203 -1.40944 65280
0.25741699 0.087631203 -1.40944 65280
0.26015499 0.087631203 -1.40944 65280
0.262894 0.087631203 -1.40944 65280
0.265632 0.087631203 -1.40944 65280
0.26837 0.087631203 -1.40944 65280
0.27110901 0.087631203 -1.40944 65280
0.27384701 0.087631203 -1.40944 65280
0.276586 0.087631203 -1.40944 65280
0.279324 0.087631203 -1.40944 65280
0.28206301 0.087631203 -1.40944 65280
0.28480101 0.087631203 -1.40944 65280
0.28753999 0.087631203 -1.40944 65280
0.29027799 0.087631203 -1.40944 65280
0.293017 0.087631203 -1.40944 65280
0.295755 0.087631203 -1.40944 65280
0.29849401 0.087631203 -1.40944 65280
0.30123201 0.087631203 -1.40944 65280
0.30397099 0.087631203 -1.40944 65280
0.30670899 0.087631203 -1.40944 65280
0.309448 0.087631203 -1.40944 65280
0.312186 0.087631203 -1.40944 65280
0.31492499 0.087631203 -1.40944 65280
0.31766301 0.087631203 -1.40944 65280
0.32040101 0.087631203 -1.40944 65280
0.32314 0.087631203 -1.40944 65280
0.32587799 0.087631203 -1.40944 65280
0.32861701 0.087631203 -1.40944 65280
0.33135501 0.087631203 -1.40944 65280
0.33409399 0.087631203 -1.40944 65280
0.33683199 0.087631203 -1.40944 65280
0.339571 0.087631203 -1.40944 65280
0.342309 0.087631203 -1.40944 65280
0.34504801 0.087631203 -1.40944 65280
0.34778601 0.087631203 -1.40944 65280
0.35052499 0.087631203 -1.40944 65280
0.35326299 0.087631203 -1.40944 65280
0.356002 0.087631203 -1.40944 65280
0.35874 0.087631203 -1.40944 65280
0.36147901 0.087631203 -1.40944 65280
0.36421701 0.087631203 -1.40944 65280
0.366956 0.087631203 -1.40944 65280
0.36969399 0.087631203 -1.40944 65280
0.37243301 0.087631203 -1.40944 65280
0.37517101 0.087631203 -1.40944 65280
0.377909 0.087631203 -1.40944 65280
0.38064799 0.087631203 -1.40944 65280
0.38338599 0.087631203 -1.40944 65280
0.386125 0.087631203 -1.40944 65280
0.388863 0.087631203 -1.40944 65280
0.39160201 0.087631203 -1.40944 65280
0.39434001 0.087631203 -1.40944 65280
0.39707899 0.087631203 -1.40944 65280
-0.39946499 0.090290099 -1.4082 65280
-0.39672899 0.090290099 -1.4082 65280
-0.39399299 0.090290099 -1.4082 65280
-0.39125699 0.090290099 -1.4082 65280
-0.38852099 0.090290099 -1.4082 65280
-0.38578501 0.090290099 -1.4082 65280
-0.38304901 0.090290099 -1.4082 65280
-0.38031301 0.090290099 -1.4082 65280
-0.37757701 0.090290099 -1.4082 65280
-0.374841 0.090290099 -1.4082 65280
-0.372105 0.090290099 -1.4082 65280
-0.369369 0.090290099 -1.4082 65280
-0.366633 0.090290099 -1.4082 65280
-0.363897 0.090290099 -1.4082 65280
-0.36116099 0.090290099 -1.4082 65280
-0.35842401 0.090290099 -1.4082 65280
-0.35568801 0.090290099 -1.4082 65280
-0.352952 0.090290099 -1.4082 65280
-0.350216 0.090290099 -1.4082 65280
-0.34748 0.090290099 -1.4082 65280
-0.344744 0.090290099 -1.4082 65280
-0.34200799 0.090290099 -1.4082 65280
-0.33927199 0.090290099 -1.4082 65280
-0.33653599 0.090290099 -1.4082 65280
-0.33379999 0.090290099 -1.4082 65280
-0.33106399 0.090290099 -1.4082 65280
-0.32832801 0.090290099 -1.4082 65280
-0.32559201 0.090290099 -1.4082 65280
-0.32285601 0.090290099 -1.4082 65280
-0.32012001 0.090290099 -1.4082 65280
-0.31738299 0.090290099 -1.4082 65280
-0.31464699 0.090290099 -1.4082 65280
-0.31191099 0.090290099 -1.4082 65280
-0.30917501 0.090290099 -1.4082 65280
-0.30643901 0.090290099 -1.4082 65280
-0.30370301 0.090290099 -1.4082 65280
-0.30096701 0.090290099 -1.4082 65280
-0.29823101 0.090290099 -1.4082 65280
-0.295495 0.090290099 -1.4082 65280
-0.292759 0.090290099 -1.4082 65280
-0.290023 0.090290099 -1.4082 65280
-0.287287 0.090290099 -1.4082 65280
-0.28455099 0.090290099 -1.4082 65280
-0.28181499 0.090290099 -1.4082 65280
-0.27907899 0.090290099 -1.4082 65280
-0.27634299 0.090290099 -1.4082 65280
-0.273606 0.090290099 -1.4082 65280
-0.27087 0.090290099 -1.4082 65280
-0.268134 0.090290099 -1.4082 65280
-0.265398 0.090290099 -1.4082 65280
-0.26266199 0.090290099 -1.4082 65280
-0.25992599 0.090290099 -1.4082 65280
-0.25718999 0.090290099 -1.4082 65280
