# .PCD v0.7 - Point Cloud Data file format
VERSION 0.7
FIELDS x y z rgb
SIZE 4 4 4 4
TYPE F F F U
COUNT 1 1 1 1
WIDTH 1292
HEIGHT 1
VIEWPOINT 0 0 0 1 0 0 0
POINTS 1292
DATA ascii
0.35052499 0.087631203 -1.40944 65280
0.35326299 0.087631203 -1.40944 65280
0.356002 0.087631203 -1.40944 65280
0.35874 0.087631203 -1.40944 65280
0.36147901 0.087631203 -1.40944 65280
0.36421701 0.087631203 -1.40944 65280
0.366956 0.087631203 -1.40944 65280
0.36969399 0.087631203 -1.40944 65280
0.37243301 0.087631203 -1.40944 65280
0.37517101 0.087631203 -1.40944 65280
0.377909 0.087631203 -1.40944 65280
0.38064799 0.087631203 -1.40944 65280
0.38338599 0.087631203 -1.40944 65280
0.386125 0.087631203 -1.40944 65280
0.388863 0.087631203 -1.40944 65280
0.39160201 0.087631203 -1.40944 65280
0.39434001 0.087631203 -1.40944 65280
0.39707899 0.087631203 -1.40944 65280
-0.39946499 0.090290099 -1.4082 65280
-0.39672899 0.090290099 -1.4082 65280
-0.39399299 0.090290099 -1.4082 65280
-0.39125699 0.090290099 -1.4082 65280
-0.38852099 0.090290099 -1.4082 65280
-0.38578501 0.090290099 -1.4082 65280
-0.38304901 0.090290099 -1.4082 65280
-0.38031301 0.090290099 -1.4082 65280
-0.37757701 0.090290099 -1.4082 65280
-0.374841 0.090290099 -1.4082 65280
-0.372105 0.090290099 -1.4082 65280
-0.369369 0.090290099 -1.4082 65280
-0.366633 0.090290099 -1.4082 65280
-0.363897 0.090290099 -1.4082 65280
-0.36116099 0.090290099 -1.4082 65280
-0.35842401 0.090290099 -1.4082 65280
-0.35568801 0.090290099 -1.4082 65280
-0.352952 0.090290099 -1.4082 65280
-0.350216 0.090290099 -1.4082 65280
-0.34748 0.090290099 -1.4082 65280
-0.344744 0.090290099 -1.4082 65280
-0.34200799 0.090290099 -1.4082 65280
-0.33927199 0.090290099 -1.4082 65280
-0.33653599 0.090290099 -1.4082 65280
-0.33379999 0.090290099 -1.4082 65280
-0.33106399 0.090290099 -1.4082 65280
-0.32832801 0.090290099 -1.4082 65280
-0.32559201 0.090290099 -1.4082 65280
-0.32285601 0.090290099 -1.4082 65280
-0.32012001 0.090290099 -1.4082 65280
-0.31738299 0.090290099 -1.4082 65280
-0.31464699 0.090290099 -1.4082 65280
-0.31191099 0.090290099 -1.4082 65280
-0.30917501 0.090290099 -1.4082 65280
-0.30643901 0.090290099 -1.4082 65280
-0.30370301 0.090290099 -1.4082 65280
-0.30096701 0.090290099 -1.4082 65280
-0.29823101 0.090290099 -1.4082 65280
-0.295495 0.090290099 -1.4082 65280
-0.292759 0.090290099 -1.4082 65280
-0.290023 0.090290099 -1.4082 65280
-0.287287 0.090290099 -1.4082 65280
-0.28455099 0.090290099 -1.4082 65280
-0.28181499 0.090290099 -1.4082 65280
-0.27907899 0.090290099 -1.4082 65280
-0.27634299 0.090290099 -1.4082 65280
-0.273606 0.090290099 -1.4082 65280
-0.27087 0.090290099 -1.4082 65280
-0.268134 0.090290099 -1.4082 65280
-0.265398 0.090290099 -1.4082 65280
-0.26266199 0.090290099 -1.4082 65280
-0.25992599 0.090290099 -1.4082 65280
-0.25718999 0.090290099 -1.4082 65280
-0.25445399 0.090290099 -1.4082 65280
-0.25171801 0.090290099 -1.4082 65280
-0.248982 0.090290099 -1.4082 65280
-0.246246 0.090290099 -1.4082 65280
-0.24350999 0.090290099 -1.4082 65280
-0.24077401 0.090290099 -1.4082 65280
-0.238038 0.090290099 -1.4082 65280
-0.235302 0.090290099 -1.4082 65280
-0.232565 0.090290099 -1.4082 65280
-0.229829 0.090290099 -1.4082 65280
-0.227093 0.090290099 -1.4082 65280
-0.22435699 0.090290099 -1.4082 65280
-0.22162101 0.090290099 -1.4082 65280
-0.218885 0.090290099 -1.4082 65280
-0.216149 0.090290099 -1.4082 65280
-0.213413 0.090290099 -1.4082 65280
-0.210677 0.090290099 -1.4082 65280
-0.207941 0.090290099 -1.4082 65280
-0.20520499 0.090290099 -1.4082 65280
-0.20246901 0.090290099 -1.4082 65280
-0.199733 0.090290099 -1.4082 65280
-0.196997 0.090290099 -1.4082 65280
-0.194261 0.090290099 -1.4082 65280
-0.191525 0.090290099 -1.4082 65280
-0.188788 0.090290099 -1.4082 65280
-0.18605199 0.090290099 -1.4082 65280
-0.18331601 0.090290099 -1.4082 65280
-0.18058001 0.090290099 -1.4082 65280
-0.177844 0.090290099 -1.4082 65280
-0.175108 0.090290099 -1.4082 65280
-0.172372 0.090290099 -1.4082 65280
-0.169636 0.090290099 -1.4082 65280
-0.16689999 0.090290099 -1.4082 65280
-0.16416401 0.090290099 -1.4082 65280
-0.161428 0.090290099 -1.4082 65280
-0.158692 0.090290099 -1.4082 65280
-0.155956 0.090290099 -1.4082 65280
-0.15322 0.090290099 -1.4082 65280
-0.150484 0.090290099 -1.4082 65280
-0.147747 0.090290099 -1.4082 65280
-0.14501099 0.090290099 -1.4082 65280
-0.14227501 0.090290099 -1.4082 65280
-0.139539 0.090290099 -1.4082 65280
-0.136803 0.090290099 -1.4082 65280
-0.134067 0.090290099 -1.4082 65280
-0.131331 0.090290099 -1.4082 65280
-0.12859499 0.090290099 -1.4082 65280
-0.12585901 0.090290099 -1.4082 65280
-0.123123 0.090290099 -1.4082 65280
-0.120387 0.090290099 -1.4082 65280
-0.117651 0.090290099 -1.4082 65280
-0.114915 0.090290099 -1.4082 65280
-0.112179 0.090290099 -1.4082 65280
-0.109443 0.090290099 -1.4082 65280
-0.106707 0.090290099 -1.4082 65280
-0.10397 0.090290099 -1.4082 65280
-0.101234 0.090290099 -1.4082 65280
-0.0984983 0.090290099 -1.4082 65280
-0.095762298 0.090290099 -1.4082 65280
-0.093026198 0.090290099 -1.4082 65280
-0.090290099 0.090290099 -1.4082 65280
-0.087554097 0.090290099 -1.4082 65280
-0.084817998 0.090290099 -1.4082 65280
-0.082081899 0.090290099 -1.4082 65280
-0.079345897 0.090290099 -1.4082 65280
-0.076609798 0.090290099 -1.4082 65280
-0.073873699 0.090290099 -1.4082 65280
-0.071137697 0.090290099 -1.4082 65280
-0.068401597 0.090290099 -1.4082 65280
-0.065665498 0.090290099 -1.4082 65280
-0.062929504 0.090290099 -1.4082 65280
-0.060193401 0.090290099 -1.4082 65280
-0.057457399 0.090290099 -1.4082 65280
-0.0547213 0.090290099 -1.4082 65280
-0.0519852 0.090290099 -1.4082 65280
-0.049249198 0.090290099 -1.4082 65280
-0.046513099 0.090290099 -1.4082 65280
-0.043777 0.090290099 -1.4082 65280
-0.041041002 0.090290099 -1.4082 65280
-0.038304899 0.090290099 -1.4082 65280
-0.0355688 0.090290099 -1.4082 65280
-0.032832801 0.090290099 -1.4082 65280
-0.0300967 0.090290099 -1.4082 65280
-0.027360599 0.090290099 -1.4082 65280
-0.024624599 0.090290099 -1.4082 65280
-0.0218885 0.090290099 -1.4082 65280
-0.0191525 0.090290099 -1.4082 65280
-0.016416401 0.090290099 -1.4082 65280
-0.0136803 0.090290099 -1.4082 65280
-0.0109443 0.090290099 -1.4082 65280
-0.0082081901 0.090290099 -1.4082 65280
-0.0054721301 0.090290099 -1.4082 65280
-0.0027360599 0.090290099 -1.4082 65280
0 0.090290099 -1.4082 65280
0.0027360599 0.090290099 -1.4082 65280
0.0054721301 0.090290099 -1.4082 65280
0.0082081901 0.090290099 -1.4082 65280
0.0109443 0.090290099 -1.4082 65280
0.0136803 0.090290099 -1.4082 65280
0.016416401 0.090290099 -1.4082 65280
0.0191525 0.090290099 -1.4082 65280
0.0218885 0.090290099 -1.4082 65280
0.024624599 0.090290099 -1.4082 65280
0.027360599 0.090290099 -1.4082 65280
0.0300967 0.090290099 -1.4082 65280
0.032832801 0.090290099 -1.4082 65280
0.0355688 0.090290099 -1.4082 65280
0.038304899 0.090290099 -1.4082 65280
0.041041002 0.090290099 -1.4082 65280
0.043777 0.090290099 -1.4082 65280
0.046513099 0.090290099 -1.4082 65280
0.049249198 0.090290099 -1.4082 65280
0.0519852 0.090290099 -1.4082 65280
0.0547213 0.090290099 -1.4082 65280
0.057457399 0.090290099 -1.4082 65280
0.060193401 0.090290099 -1.4082 65280
0.062929504 0.090290099 -1.4082 65280
0.065665498 0.090290099 -1.4082 65280
0.068401597 0.090290099 -1.4082 65280
0.071137697 0.090290099 -1.4082 65280
0.073873699 0.090290099 -1.4082 65280
0.076609798 0.090290099 -1.4082 65280
0.079345897 0.090290099 -1.4082 65280
0.082081899 0.090290099 -1.4082 65280
0.084817998 0.090290099 -1.4082 65280
0.087554097 0.090290099 -1.4082 65280
0.0891762 0.0891762 -1.39083 65280
0.0914561 0.088766202 -1.3844301 65280
0.094017401 0.088644996 -1.38254 65280
0.096616797 0.088565402 -1.3813 65280
0.099173002 0.088451602 -1.37953 65280
0.101787 0.088394001 -1.37863 65280
0.104435 0.088368103 -1.37823 65280
0.107103 0.0883599 -1.3781 65280
0.109782 0.088361003 -1.3781199 65280
0.112465 0.088365301 -1.37818 65280
0.11515 0.088370897 -1.37827 65280
0.117836 0.088376999 -1.37836 65280
0.120526 0.0883855 -1.3785 65280
0.123224 0.088399999 -1.37872 65280
0.125939 0.088425003 -1.37911 65280
0.128685 0.088471197 -1.37983 65280
0.13149101 0.0885555 -1.38115 65280
0.134388 0.088696003 -1.38334 65280
0.137658 0.089072898 -1.38922 65280
0.14227501 0.090290099 -1.4082 65280
0.14501099 0.090290099 -1.4082 65280
0.147747 0.090290099 -1.4082 65280
0.150484 0.090290099 -1.4082 65280
0.15322 0.090290099 -1.4082 65280
0.155956 0.090290099 -1.4082 65280
0.158692 0.090290099 -1.4082 65280
0.161428 0.090290099 -1.4082 65280
0.16416401 0.090290099 -1.4082 65280
0.16689999 0.090290099 -1.4082 65280
0.169636 0.090290099 -1.4082 65280
0.172372 0.090290099 -1.4082 65280
0.175108 0.090290099 -1.4082 65280
0.177844 0.090290099 -1.4082 65280
0.18058001 0.090290099 -1.4082 65280
0.18331601 0.090290099 -1.4082 65280
0.18605199 0.090290099 -1.4082 65280
0.188788 0.090290099 -1.4082 65280
0.191525 0.090290099 -1.4082 65280
0.194261 0.090290099 -1.4082 65280
0.196997 0.090290099 -1.4082 65280
0.199733 0.090290099 -1.4082 65280
0.20246901 0.090290099 -1.4082 65280
0.20520499 0.090290099 -1.4082 65280
0.207941 0.090290099 -1.4082 65280
0.210677 0.090290099 -1.4082 65280
0.213413 0.090290099 -1.4082 65280
0.216149 0.090290099 -1.4082 65280
0.218885 0.090290099 -1.4082 65280
0.22162101 0.090290099 -1.4082 65280
0.22435699 0.090290099 -1.4082 65280
0.227093 0.090290099 -1.4082 65280
0.229829 0.090290099 -1.4082 65280
0.232565 0.090290099 -1.4082 65280
0.235302 0.090290099 -1.4082 65280
0.238038 0.090290099 -1.4082 65280
0.24077401 0.090290099 -1.4082 65280
0.24350999 0.090290099 -1.4082 65280
0.246246 0.090290099 -1.4082 65280
0.248982 0.090290099 -1.4082 65280
0.25171801 0.090290099 -1.4082 65280
0.25445399 0.090290099 -1.4082 65280
0.25718999 0.090290099 -1.4082 65280
0.25992599 0.090290099 -1.4082 65280
0.26266199 0.090290099 -1.4082 65280
0.265398 0.090290099 -1.4082 65280
0.268134 0.090290099 -1.4082 65280
0.27087 0.090290099 -1.4082 65280
0.273606 0.090290099 -1.4082 65280
0.27634299 0.090290099 -1.4082 65280
0.27907899 0.090290099 -1.4082 65280
0.28181499 0.090290099 -1.4082 65280
0.28455099 0.090290099 -1.4082 65280
0.287287 0.090290099 -1.4082 65280
0.290023 0.090290099 -1.4082 65280
0.292759 0.090290099 -1.4082 65280
0.295495 0.090290099 -1.4082 65280
0.29823101 0.090290099 -1.4082 65280
0.30096701 0.090290099 -1.4082 65280
0.30370301 0.090290099 -1.4082 65280
0.30643901 0.090290099 -1.4082 65280
0.30917501 0.090290099 -1.4082 65280
0.31191099 0.090290099 -1.4082 65280
0.31464699 0.090290099 -1.4082 65280
0.31738299 0.090290099 -1.4082 65280
0.32012001 0.090290099 -1.4082 65280
0.32285601 0.090290099 -1.4082 65280
0.32559201 0.090290099 -1.4082 65280
0.32832801 0.090290099 -1.4082 65280
0.33106399 0.090290099 -1.4082 65280
0.33379999 0.090290099 -1.4082 65280
0.33653599 0.090290099 -1.4082 65280
0.33927199 0.090290099 -1.4082 65280
0.34200799 0.090290099 -1.4082 65280
0.344744 0.090290099 -1.4082 65280
0.34748 0.090290099 -1.4082 65280
0.350216 0.090290099 -1.4082 65280
0.352952 0.090290099 -1.4082 65280
0.35568801 0.090290099 -1.4082 65280
0.35842401 0.090290099 -1.4082 65280
0.36116099 0.090290099 -1.4082 65280
0.363897 0.090290099 -1.4082 65280
0.366633 0.090290099 -1.4082 65280
0.369369 0.090290099 -1.4082 65280
0.372105 0.090290099 -1.4082 65280
0.374841 0.090290099 -1.4082 65280
0.37757701 0.090290099 -1.4082 65280
0.38031301 0.090290099 -1.4082 65280
0.38304901 0.090290099 -1.4082 65280
0.38578501 0.090290099 -1.4082 65280
0.38852099 0.090290099 -1.4082 65280
0.39125699 0.090290099 -1.4082 65280
0.39399299 0.090290099 -1.4082 65280
0.39672899 0.090290099 -1.4082 65280
-0.399115 0.092944503 -1.40697 65280
-0.39638099 0.092944503 -1.40697 65280
-0.39364699 0.092944503 -1.40697 65280
-0.39091399 0.092944503 -1.40697 65280
-0.38817999 0.092944503 -1.40697 65280
-0.38544601 0.092944503 -1.40697 65280
-0.38271299 0.092944503 -1.40697 65280
-0.37997901 0.092944503 -1.40697 65280
-0.37724501 0.092944503 -1.40697 65280
-0.37451199 0.092944503 -1.40697 65280
-0.37177801 0.092944503 -1.40697 65280
-0.36904401 0.092944503 -1.40697 65280
-0.36631101 0.092944503 -1.40697 65280
-0.36357701 0.092944503 -1.40697 65280
-0.360843 0.092944503 -1.40697 65280
-0.35811001 0.092944503 -1.40697 65280
-0.35537601 0.092944503 -1.40697 65280
-0.352642 0.092944503 -1.40697 65280
-0.34990901 0.092944503 -1.40697 65280
-0.347175 0.092944503 -1.40697 65280
-0.344441 0.092944503 -1.40697 65280
-0.341708 0.092944503 -1.40697 65280
-0.338974 0.092944503 -1.40697 65280
-0.33623999 0.092944503 -1.40697 65280
-0.333507 0.092944503 -1.40697 65280
-0.330773 0.092944503 -1.40697 65280
-0.32803899 0.092944503 -1.40697 65280
-0.325306 0.092944503 -1.40697 65280
-0.32257199 0.092944503 -1.40697 65280
-0.31983799 0.092944503 -1.40697 65280
-0.317105 0.092944503 -1.40697 65280
-0.31437099 0.092944503 -1.40697 65280
-0.31163701 0.092944503 -1.40697 65280
-0.30890399 0.092944503 -1.40697 65280
-0.30616999 0.092944503 -1.40697 65280
-0.30343601 0.092944503 -1.40697 65280
-0.30070299 0.092944503 -1.40697 65280
-0.29796901 0.092944503 -1.40697 65280
-0.29523501 0.092944503 -1.40697 65280
-0.29250199 0.092944503 -1.40697 65280
-0.28976801 0.092944503 -1.40697 65280
-0.287034 0.092944503 -1.40697 65280
-0.28430101 0.092944503 -1.40697 65280
-0.28156701 0.092944503 -1.40697 65280
-0.278833 0.092944503 -1.40697 65280
-0.27610001 0.092944503 -1.40697 65280
-0.273366 0.092944503 -1.40697 65280
-0.270632 0.092944503 -1.40697 65280
-0.26789901 0.092944503 -1.40697 65280
-0.265165 0.092944503 -1.40697 65280
-0.262431 0.092944503 -1.40697 65280
-0.259698 0.092944503 -1.40697 65280
-0.256964 0.092944503 -1.40697 65280
-0.25422999 0.092944503 -1.40697 65280
-0.251497 0.092944503 -1.40697 65280
-0.248763 0.092944503 -1.40697 65280
-0.246029 0.092944503 -1.40697 65280
-0.243296 0.092944503 -1.40697 65280
-0.24056201 0.092944503 -1.40697 65280
-0.237829 0.092944503 -1.40697 65280
-0.23509499 0.092944503 -1.40697 65280
-0.232361 0.092944503 -1.40697 65280
-0.229628 0.092944503 -1.40697 65280
-0.22689401 0.092944503 -1.40697 65280
-0.22416 0.092944503 -1.40697 65280
-0.22142699 0.092944503 -1.40697 65280
-0.218693 0.092944503 -1.40697 65280
-0.215959 0.092944503 -1.40697 65280
-0.21322601 0.092944503 -1.40697 65280
-0.210492 0.092944503 -1.40697 65280
-0.20775799 0.092944503 -1.40697 65280
-0.205025 0.092944503 -1.40697 65280
-0.202291 0.092944503 -1.40697 65280
-0.19955701 0.092944503 -1.40697 65280
-0.196824 0.092944503 -1.40697 65280
-0.19408999 0.092944503 -1.40697 65280
-0.191356 0.092944503 -1.40697 65280
-0.188623 0.092944503 -1.40697 65280
-0.18588901 0.092944503 -1.40697 65280
-0.183155 0.092944503 -1.40697 65280
-0.18042199 0.092944503 -1.40697 65280
-0.177688 0.092944503 -1.40697 65280
-0.174954 0.092944503 -1.40697 65280
-0.172221 0.092944503 -1.40697 65280
-0.169487 0.092944503 -1.40697 65280
-0.16675299 0.092944503 -1.40697 65280
-0.16402 0.092944503 -1.40697 65280
-0.161286 0.092944503 -1.40697 65280
-0.15855201 0.092944503 -1.40697 65280
-0.155819 0.092944503 -1.40697 65280
-0.15308499 0.092944503 -1.40697 65280
-0.150351 0.092944503 -1.40697 65280
-0.147618 0.092944503 -1.40697 65280
-0.14488401 0.092944503 -1.40697 65280
-0.14215 0.092944503 -1.40697 65280
-0.13941699 0.092944503 -1.40697 65280
-0.136683 0.092944503 -1.40697 65280
-0.133949 0.092944503 -1.40697 65280
-0.131216 0.092944503 -1.40697 65280
-0.128482 0.092944503 -1.40697 65280
-0.12574799 0.092944503 -1.40697 65280
-0.123015 0.092944503 -1.40697 65280
-0.120281 0.092944503 -1.40697 65280
-0.117547 0.092944503 -1.40697 65280
-0.114814 0.092944503 -1.40697 65280
-0.11208 0.092944503 -1.40697 65280
-0.109346 0.092944503 -1.40697 65280
-0.106613 0.092944503 -1.40697 65280
-0.103879 0.092944503 -1.40697 65280
-0.101145 0.092944503 -1.40697 65280
-0.098411798 0.092944503 -1.40697 65280
-0.095678098 0.092944503 -1.40697 65280
-0.092944503 0.092944503 -1.40697 65280
-0.090210803 0.092944503 -1.40697 65280
-0.0874772 0.092944503 -1.40697 65280
-0.0847435 0.092944503 -1.40697 65280
-0.0820098 0.092944503 -1.40697 65280
-0.079276197 0.092944503 -1.40697 65280
-0.076542497 0.092944503 -1.40697 65280
-0.073808797 0.092944503 -1.40697 65280
-0.071075201 0.092944503 -1.40697 65280
-0.068341501 0.092944503 -1.40697 65280
-0.065607898 0.092944503 -1.40697 65280
-0.062874198 0.092944503 -1.40697 65280
-0.060140502 0.092944503 -1.40697 65280
-0.057406899 0.092944503 -1.40697 65280
-0.054673199 0.092944503 -1.40697 65280
-0.051939599 0.092944503 -1.40697 65280
-0.049205899 0.092944503 -1.40697 65280
-0.046472199 0.092944503 -1.40697 65280
-0.0437386 0.092944503 -1.40697 65280
-0.0410049 0.092944503 -1.40697 65280
-0.0382713 0.092944503 -1.40697 65280
-0.035537601 0.092944503 -1.40697 65280
-0.032803901 0.092944503 -1.40697 65280
-0.030070299 0.092944503 -1.40697 65280
-0.027336599 0.092944503 -1.40697 65280
-0.024602899 0.092944503 -1.40697 65280
-0.0218693 0.092944503 -1.40697 65280
-0.0191356 0.092944503 -1.40697 65280
-0.016402001 0.092944503 -1.40697 65280
-0.0136683 0.092944503 -1.40697 65280
-0.0109346 0.092944503 -1.40697 65280
-0.0082009798 0.092944503 -1.40697 65280
-0.0054673199 0.092944503 -1.40697 65280
-0.0027336599 0.092944503 -1.40697 65280
0 0.092944503 -1.40697 65280
0.0027336599 0.092944503 -1.40697 65280
0.0054673199 0.092944503 -1.40697 65280
0.0082009798 0.092944503 -1.40697 65280
0.0109346 0.092944503 -1.40697 65280
0.0136683 0.092944503 -1.40697 65280
0.016402001 0.092944503 -1.40697 65280
0.0191356 0.092944503 -1.40697 65280
0.0218693 0.092944503 -1.40697 65280
0.024602899 0.092944503 -1.40697 65280
0.027336599 0.092944503 -1.40697 65280
0.030070299 0.092944503 -1.40697 65280
0.032803901 0.092944503 -1.40697 65280
0.035537601 0.092944503 -1.40697 65280
0.0382713 0.092944503 -1.40697 65280
0.0410049 0.092944503 -1.40697 65280
0.0437386 0.092944503 -1.40697 65280
0.046472199 0.092944503 -1.40697 65280
0.049205899 0.092944503 -1.40697 65280
0.051939599 0.092944503 -1.40697 65280
0.054673199 0.092944503 -1.40697 65280
0.057406899 0.092944503 -1.40697 65280
0.060140502 0.092944503 -1.40697 65280
0.062874198 0.092944503 -1.40697 65280
0.065607898 0.092944503 -1.40697 65280
0.068341501 0.092944503 -1.40697 65280
0.071075201 0.092944503 -1.40697 65280
0.073808797 0.092944503 -1.40697 65280
0.076542497 0.092944503 -1.40697 65280
0.079276197 0.092944503 -1.40697 65280
0.0820098 0.092944503 -1.40697 65280
0.0847435 0.092944503 -1.40697 65280
0.0874772 0.092944503 -1.40697 65280
0.090210803 0.092944503 -1.40697 65280
0.092944503 0.092944503 -1.40697 65280
0.095678098 0.092944503 -1.40697 65280
0.096892498 0.091509603 -1.38524 65280
0.099403799 0.091343999 -1.38274 65280
0.102003 0.091266103 -1.38156 65280
0.104645 0.0912292 -1.381 65280
0.107305 0.091209203 -1.3807 65280
0.109975 0.091198899 -1.38054 65280
0.112658 0.091199301 -1.38055 65280
0.115348 0.0912055 -1.38064 65280
0.118045 0.091216803 -1.38081 65280
0.120768 0.091246702 -1.3812701 65280
0.123523 0.091299497 -1.3820601 65280
0.12635601 0.091406196 -1.38368 65280
0.12954099 0.091757998 -1.3890001 65280
0.133949 0.092944503 -1.40697 65280
0.136683 0.092944503 -1.40697 65280
0.13941699 0.092944503 -1.40697 65280
0.14215 0.092944503 -1.40697 65280
0.14488401 0.092944503 -1.40697 65280
0.147618 0.092944503 -1.40697 65280
0.150351 0.092944503 -1.40697 65280
0.15308499 0.092944503 -1.40697 65280
0.155819 0.092944503 -1.40697 65280
0.15855201 0.092944503 -1.40697 65280
0.161286 0.092944503 -1.40697 65280
0.16402 0.092944503 -1.40697 65280
0.16675299 0.092944503 -1.40697 65280
0.169487 0.092944503 -1.40697 65280
0.172221 0.092944503 -1.40697 65280
0.174954 0.092944503 -1.40697 65280
0.177688 0.092944503 -1.40697 65280
0.18042199 0.092944503 -1.40697 65280
0.183155 0.092944503 -1.40697 65280
0.18588901 0.092944503 -1.40697 65280
0.188623 0.092944503 -1.40697 65280
0.191356 0.092944503 -1.40697 65280
0.19408999 0.092944503 -1.40697 65280
0.196824 0.092944503 -1.40697 65280
0.19955701 0.092944503 -1.40697 65280
0.202291 0.092944503 -1.40697 65280
0.205025 0.092944503 -1.40697 65280
0.20775799 0.092944503 -1.40697 65280
0.210492 0.092944503 -1.40697 65280
0.21322601 0.092944503 -1.40697 65280
0.215959 0.092944503 -1.40697 65280
0.218693 0.092944503 -1.40697 65280
0.22142699 0.092944503 -1.40697 65280
0.22416 0.092944503 -1.40697 65280
0.22689401 0.092944503 -1.40697 65280
0.229628 0.092944503 -1.40697 65280
0.232361 0.092944503 -1.40697 65280
0.23509499 0.092944503 -1.40697 65280
0.237829 0.092944503 -1.40697 65280
0.24056201 0.092944503 -1.40697 65280
0.243296 0.092944503 -1.40697 65280
0.246029 0.092944503 -1.40697 65280
0.248763 0.092944503 -1.40697 65280
0.251497 0.092944503 -1.40697 65280
0.25422999 0.092944503 -1.40697 65280
0.256964 0.092944503 -1.40697 65280
0.259698 0.092944503 -1.40697 65280
0.262431 0.092944503 -1.40697 65280
0.265165 0.092944503 -1.40697 65280
0.26789901 0.092944503 -1.40697 65280
0.270632 0.092944503 -1.40697 65280
0.273366 0.092944503 -1.40697 65280
0.27610001 0.092944503 -1.40697 65280
0.278833 0.092944503 -1.40697 65280
0.28156701 0.092944503 -1.40697 65280
0.28430101 0.092944503 -1.40697 65280
0.287034 0.092944503 -1.40697 65280
0.28976801 0.092944503 -1.40697 65280
0.29250199 0.092944503 -1.40697 65280
0.29523501 0.092944503 -1.40697 65280
0.29796901 0.092944503 -1.40697 65280
0.30070299 0.092944503 -1.40697 65280
0.30343601 0.092944503 -1.40697 65280
0.30616999 0.092944503 -1.40697 65280
0.30890399 0.092944503 -1.40697 65280
0.31163701 0.092944503 -1.40697 65280
0.31437099 0.092944503 -1.40697 65280
0.317105 0.092944503 -1.40697 65280
0.31983799 0.092944503 -1.40697 65280
0.32257199 0.092944503 -1.40697 65280
0.325306 0.092944503 -1.40697 65280
0.32803899 0.092944503 -1.40697 65280
0.330773 0.092944503 -1.40697 65280
0.333507 0.092944503 -1.40697 65280
0.33623999 0.092944503 -1.40697 65280
0.338974 0.092944503 -1.40697 65280
0.341708 0.092944503 -1.40697 65280
0.344441 0.092944503 -1.40697 65280
0.347175 0.092944503 -1.40697 65280
0.34990901 0.092944503 -1.40697 65280
0.352642 0.092944503 -1.40697 65280
0.35537601 0.092944503 -1.40697 65280
0.35811001 0.092944503 -1.40697 65280
0.360843 0.092944503 -1.40697 65280
0.36357701 0.092944503 -1.40697 65280
0.36631101 0.092944503 -1.40697 65280
0.36904401 0.092944503 -1.40697 65280
0.37177801 0.092944503 -1.40697 65280
0.37451199 0.092944503 -1.40697 65280
0.37724501 0.092944503 -1.40697 65280
0.37997901 0.092944503 -1.40697 65280
0.38271299 0.092944503 -1.40697 65280
0.38544601 0.092944503 -1.40697 65280
0.38817999 0.092944503 -1.40697 65280
0.39091399 0.092944503 -1.40697 65280
0.39364699 0.092944503 -1.40697 65280
0.39638099 0.092944503 -1.40697 65280
-0.39876401 0.095594198 -1.40573 65280
-0.39603299 0.095594198 -1.40573 65280
-0.39330199 0.095594198 -1.40573 65280
-0.39057001 0.095594198 -1.40573 65280
-0.38783899 0.095594198 -1.40573 65280
-0.38510799 0.095594198 -1.40573 65280
-0.382377 0.095594198 -1.40573 65280
-0.37964499 0.095594198 -1.40573 65280
-0.37691399 0.095594198 -1.40573 65280
-0.374183 0.095594198 -1.40573 65280
-0.371452 0.095594198 -1.40573 65280
-0.36872 0.095594198 -1.40573 65280
-0.365989 0.095594198 -1.40573 65280
-0.363258 0.095594198 -1.40573 65280
-0.36052701 0.095594198 -1.40573 65280
-0.357795 0.095594198 -1.40573 65280
-0.355064 0.095594198 -1.40573 65280
-0.35233301 0.095594198 -1.40573 65280
-0.34960201 0.095594198 -1.40573 65280
-0.34687001 0.095594198 -1.40573 65280
-0.34413901 0.095594198 -1.40573 65280
-0.34140801 0.095594198 -1.40573 65280
-0.33867601 0.095594198 -1.40573 65280
-0.33594501 0.095594198 -1.40573 65280
-0.33321401 0.095594198 -1.40573 65280
-0.33048299 0.095594198 -1.40573 65280
-0.32775101 0.095594198 -1.40573 65280
-0.32501999 0.095594198 -1.40573 65280
-0.32228899 0.095594198 -1.40573 65280
-0.31955799 0.095594198 -1.40573 65280
-0.31682599 0.095594198 -1.40573 65280
-0.31409499 0.095594198 -1.40573 65280
-0.311364 0.095594198 -1.40573 65280
-0.308633 0.095594198 -1.40573 65280
-0.30590099 0.095594198 -1.40573 65280
-0.30317 0.095594198 -1.40573 65280
-0.300439 0.095594198 -1.40573 65280
-0.297708 0.095594198 -1.40573 65280
-0.294976 0.095594198 -1.40573 65280
-0.292245 0.095594198 -1.40573 65280
-0.28951401 0.095594198 -1.40573 65280
-0.28678301 0.095594198 -1.40573 65280
-0.284051 0.095594198 -1.40573 65280
-0.28132001 0.095594198 -1.40573 65280
-0.27858901 0.095594198 -1.40573 65280
-0.275857 0.095594198 -1.40573 65280
-0.27312601 0.095594198 -1.40573 65280
-0.27039501 0.095594198 -1.40573 65280
-0.26766399 0.095594198 -1.40573 65280
-0.26493201 0.095594198 -1.40573 65280
-0.26220101 0.095594198 -1.40573 65280
-0.25946999 0.095594198 -1.40573 65280
-0.25673899 0.095594198 -1.40573 65280
-0.25400701 0.095594198 -1.40573 65280
-0.25127599 0.095594198 -1.40573 65280
-0.24854501 0.095594198 -1.40573 65280
-0.245814 0.095594198 -1.40573 65280
-0.243082 0.095594198 -1.40573 65280
-0.24035101 0.095594198 -1.40573 65280
-0.23762 0.095594198 -1.40573 65280
-0.234889 0.095594198 -1.40573 65280
-0.23215701 0.095594198 -1.40573 65280
-0.229426 0.095594198 -1.40573 65280
-0.226695 0.095594198 -1.40573 65280
-0.22396301 0.095594198 -1.40573 65280
-0.221232 0.095594198 -1.40573 65280
-0.218501 0.095594198 -1.40573 65280
-0.21577001 0.095594198 -1.40573 65280
-0.213038 0.095594198 -1.40573 65280
-0.210307 0.095594198 -1.40573 65280
-0.20757601 0.095594198 -1.40573 65280
-0.204845 0.095594198 -1.40573 65280
-0.202113 0.095594198 -1.40573 65280
-0.19938201 0.095594198 -1.40573 65280
-0.196651 0.095594198 -1.40573 65280
-0.19392 0.095594198 -1.40573 65280
-0.19118799 0.095594198 -1.40573 65280
-0.188457 0.095594198 -1.40573 65280
-0.185726 0.095594198 -1.40573 65280
-0.18299501 0.095594198 -1.40573 65280
-0.180263 0.095594198 -1.40573 65280
-0.177532 0.095594198 -1.40573 65280
-0.17480101 0.095594198 -1.40573 65280
-0.17207 0.095594198 -1.40573 65280
-0.169338 0.095594198 -1.40573 65280
-0.16660701 0.095594198 -1.40573 65280
-0.163876 0.095594198 -1.40573 65280
-0.161144 0.095594198 -1.40573 65280
-0.15841299 0.095594198 -1.40573 65280
-0.155682 0.095594198 -1.40573 65280
-0.152951 0.095594198 -1.40573 65280
-0.15021899 0.095594198 -1.40573 65280
-0.147488 0.095594198 -1.40573 65280
-0.144757 0.095594198 -1.40573 65280
-0.14202601 0.095594198 -1.40573 65280
-0.139294 0.095594198 -1.40573 65280
-0.136563 0.095594198 -1.40573 65280
-0.13383199 0.095594198 -1.40573 65280
-0.131101 0.095594198 -1.40573 65280
-0.128369 0.095594198 -1.40573 65280
-0.12563799 0.095594198 -1.40573 65280
-0.122907 0.095594198 -1.40573 65280
-0.120176 0.095594198 -1.40573 65280
-0.117444 0.095594198 -1.40573 65280
-0.114713 0.095594198 -1.40573 65280
-0.111982 0.095594198 -1.40573 65280
-0.10925 0.095594198 -1.40573 65280
-0.106519 0.095594198 -1.40573 65280
-0.103788 0.095594198 -1.40573 65280
-0.101057 0.095594198 -1.40573 65280
-0.098325402 0.095594198 -1.40573 65280
-0.095594198 0.095594198 -1.40573 65280
-0.092862897 0.095594198 -1.40573 65280
-0.090131603 0.095594198 -1.40573 65280
-0.087400399 0.095594198 -1.40573 65280
-0.084669098 0.095594198 -1.40573 65280
-0.081937902 0.095594198 -1.40573 65280
-0.079206601 0.095594198 -1.40573 65280
-0.0764753 0.095594198 -1.40573 65280
-0.073744103 0.095594198 -1.40573 65280
-0.071012802 0.095594198 -1.40573 65280
-0.068281598 0.095594198 -1.40573 65280
-0.065550297 0.095594198 -1.40573 65280
-0.062818997 0.095594198 -1.40573 65280
-0.0600878 0.095594198 -1.40573 65280
-0.057356499 0.095594198 -1.40573 65280
-0.054625198 0.095594198 -1.40573 65280
-0.051894002 0.095594198 -1.40573 65280
-0.049162701 0.095594198 -1.40573 65280
-0.0464315 0.095594198 -1.40573 65280
-0.0437002 0.095594198 -1.40573 65280
-0.040968899 0.095594198 -1.40573 65280
-0.038237698 0.095594198 -1.40573 65280
-0.035506401 0.095594198 -1.40573 65280
-0.0327751 0.095594198 -1.40573 65280
-0.0300439 0.095594198 -1.40573 65280
-0.027312599 0.095594198 -1.40573 65280
-0.024581401 0.095594198 -1.40573 65280
-0.0218501 0.095594198 -1.40573 65280
-0.019118801 0.095594198 -1.40573 65280
-0.0163876 0.095594198 -1.40573 65280
-0.0136563 0.095594198 -1.40573 65280
-0.010925 0.095594198 -1.40573 65280
-0.00819379 0.095594198 -1.40573 65280
-0.0054625198 0.095594198 -1.40573 65280
-0.0027312599 0.095594198 -1.40573 65280
0 0.095594198 -1.40573 65280
0.0027312599 0.095594198 -1.40573 65280
0.0054625198 0.095594198 -1.40573 65280
0.00819379 0.095594198 -1.40573 65280
0.010925 0.095594198 -1.40573 65280
0.0136563 0.095594198 -1.40573 65280
0.0163876 0.095594198 -1.40573 65280
0.019118801 0.095594198 -1.40573 65280
0.0218501 0.095594198 -1.40573 65280
0.024581401 0.095594198 -1.40573 65280
0.027312599 0.095594198 -1.40573 65280
0.0300439 0.095594198 -1.40573 65280
0.0327751 0.095594198 -1.40573 65280
0.035506401 0.095594198 -1.40573 65280
0.038237698 0.095594198 -1.40573 65280
0.040968899 0.095594198 -1.40573 65280
0.0437002 0.095594198 -1.40573 65280
0.0464315 0.095594198 -1.40573 65280
0.049162701 0.095594198 -1.40573 65280
0.051894002 0.095594198 -1.40573 65280
0.054625198 0.095594198 -1.40573 65280
0.057356499 0.095594198 -1.40573 65280
0.0600878 0.095594198 -1.40573 65280
0.062818997 0.095594198 -1.40573 65280
0.065550297 0.095594198 -1.40573 65280
0.068281598 0.095594198 -1.40573 65280
0.071012802 0.095594198 -1.40573 65280
0.073744103 0.095594198 -1.40573 65280
0.0764753 0.095594198 -1.40573 65280
0.079206601 0.095594198 -1.40573 65280
0.081937902 0.095594198 -1.40573 65280
0.084669098 0.095594198 -1.40573 65280
0.087400399 0.095594198 -1.40573 65280
0.090131603 0.095594198 -1.40573 65280
0.092862897 0.095594198 -1.40573 65280
0.095594198 0.095594198 -1.40573 65280
0.098325402 0.095594198 -1.40573 65280
0.101057 0.095594198 -1.40573 65280
0.103788 0.095594198 -1.40573 65280
0.105156 0.094371103 -1.38775 65280
0.107798 0.094322897 -1.38704 65280
0.110481 0.0943131 -1.3868901 65280
0.113214 0.094345398 -1.38737 65280
0.117444 0.095594198 -1.40573 65280
0.120176 0.095594198 -1.40573 65280
0.122907 0.095594198 -1.40573 65280
0.12563799 0.095594198 -1.40573 65280
0.128369 0.095594198 -1.40573 65280
0.131101 0.095594198 -1.40573 65280
0.13383199 0.095594198 -1.40573 65280
0.136563 0.095594198 -1.40573 65280
0.139294 0.095594198 -1.40573 65280
0.14202601 0.095594198 -1.40573 65280
0.144757 0.095594198 -1.40573 65280
0.147488 0.095594198 -1.40573 65280
0.15021899 0.095594198 -1.40573 65280
0.152951 0.095594198 -1.40573 65280
0.155682 0.095594198 -1.40573 65280
0.15841299 0.095594198 -1.40573 65280
0.161144 0.095594198 -1.40573 65280
0.163876 0.095594198 -1.40573 65280
0.16660701 0.095594198 -1.40573 65280
0.169338 0.095594198 -1.40573 65280
0.17207 0.095594198 -1.40573 65280
0.17480101 0.095594198 -1.40573 65280
0.177532 0.095594198 -1.40573 65280
0.180263 0.095594198 -1.40573 65280
0.18299501 0.095594198 -1.40573 65280
0.185726 0.095594198 -1.40573 65280
0.188457 0.095594198 -1.40573 65280
0.19118799 0.095594198 -1.40573 65280
0.19392 0.095594198 -1.40573 65280
0.196651 0.095594198 -1.40573 65280
0.19938201 0.095594198 -1.40573 65280
0.202113 0.095594198 -1.40573 65280
0.204845 0.095594198 -1.40573 65280
0.20757601 0.095594198 -1.40573 65280
0.210307 0.095594198 -1.40573 65280
0.213038 0.095594198 -1.40573 65280
0.21577001 0.095594198 -1.40573 65280
0.218501 0.095594198 -1.40573 65280
0.221232 0.095594198 -1.40573 65280
0.22396301 0.095594198 -1.40573 65280
0.226695 0.095594198 -1.40573 65280
0.229426 0.095594198 -1.40573 65280
0.23215701 0.095594198 -1.40573 65280
0.234889 0.095594198 -1.40573 65280
0.23762 0.095594198 -1.40573 65280
0.24035101 0.095594198 -1.40573 65280
0.243082 0.095594198 -1.40573 65280
0.245814 0.095594198 -1.40573 65280
0.24854501 0.095594198 -1.40573 65280
0.25127599 0.095594198 -1.40573 65280
0.25400701 0.095594198 -1.40573 65280
0.25673899 0.095594198 -1.40573 65280
0.25946999 0.095594198 -1.40573 65280
0.26220101 0.095594198 -1.40573 65280
0.26493201 0.095594198 -1.40573 65280
0.26766399 0.095594198 -1.40573 65280
0.27039501 0.095594198 -1.40573 65280
0.27312601 0.095594198 -1.40573 65280
0.275857 0.095594198 -1.40573 65280
0.27858901 0.095594198 -1.40573 65280
0.28132001 0.095594198 -1.40573 65280
0.284051 0.095594198 -1.40573 65280
0.28678301 0.095594198 -1.40573 65280
0.28951401 0.095594198 -1.40573 65280
0.292245 0.095594198 -1.40573 65280
0.294976 0.095594198 -1.40573 65280
0.297708 0.095594198 -1.40573 65280
0.300439 0.095594198 -1.40573 65280
0.30317 0.095594198 -1.40573 65280
0.30590099 0.095594198 -1.40573 65280
0.308633 0.095594198 -1.40573 65280
0.311364 0.095594198 -1.40573 65280
0.31409499 0.095594198 -1.40573 65280
0.31682599 0.095594198 -1.40573 65280
0.31955799 0.095594198 -1.40573 65280
0.32228899 0.095594198 -1.40573 65280
0.32501999 0.095594198 -1.40573 65280
0.32775101 0.095594198 -1.40573 65280
0.33048299 0.095594198 -1.40573 65280
0.33321401 0.095594198 -1.40573 65280
0.33594501 0.095594198 -1.40573 65280
0.33867601 0.095594198 -1.40573 65280
0.34140801 0.095594198 -1.40573 65280
0.34413901 0.095594198 -1.40573 65280
0.34687001 0.095594198 -1.40573 65280
0.34960201 0.095594198 -1.40573 65280
0.35233301 0.095594198 -1.40573 65280
0.355064 0.095594198 -1.40573 65280
0.357795 0.095594198 -1.40573 65280
0.36052701 0.095594198 -1.40573 65280
0.363258 0.095594198 -1.40573 65280
0.365989 0.095594198 -1.40573 65280
0.36872 0.095594198 -1.40573 65280
0.371452 0.095594198 -1.40573 65280
0.374183 0.095594198 -1.40573 65280
0.37691399 0.095594198 -1.40573 65280
0.37964499 0.095594198 -1.40573 65280
0.382377 0.095594198 -1.40573 65280
0.38510799 0.095594198 -1.40573 65280
0.38783899 0.095594198 -1.40573 65280
0.39057001 0.095594198 -1.40573 65280
0.39330199 0.095594198 -1.40573 65280
0.39603299 0.095594198 -1.40573 65280
-0.40114301 0.098239198 -1.4045 65280
-0.398415 0.098239198 -1.4045 65280
-0.395686 0.098239198 -1.4045 65280
-0.392957 0.098239198 -1.4045 65280
-0.390228 0.098239198 -1.4045 65280
-0.387499 0.098239198 -1.4045 65280
-0.38477001 0.098239198 -1.4045 65280
-0.38204101 0.098239198 -1.4045 65280
-0.37931299 0.098239198 -1.4045 65280
-0.37658399 0.098239198 -1.4045 65280
-0.37385499 0.098239198 -1.4045 65280
-0.371126 0.098239198 -1.4045 65280
-0.368397 0.098239198 -1.4045 65280
-0.365668 0.098239198 -1.4045 65280
-0.362939 0.098239198 -1.4045 65280
-0.36021 0.098239198 -1.4045 65280
-0.35748199 0.098239198 -1.4045 65280
-0.35475299 0.098239198 -1.4045 65280
-0.35202399 0.098239198 -1.4045 65280
-0.34929499 0.098239198 -1.4045 65280
-0.34656599 0.098239198 -1.4045 65280
-0.34383699 0.098239198 -1.4045 65280
-0.34110799 0.098239198 -1.4045 65280
-0.33838001 0.098239198 -1.4045 65280
-0.33565101 0.098239198 -1.4045 65280
-0.33292201 0.098239198 -1.4045 65280
-0.33019301 0.098239198 -1.4045 65280
-0.32746401 0.098239198 -1.4045 65280
-0.32473499 0.098239198 -1.4045 65280
-0.32200599 0.098239198 -1.4045 65280
-0.31927699 0.098239198 -1.4045 65280
-0.316549 0.098239198 -1.4045 65280
-0.31382 0.098239198 -1.4045 65280
-0.31109101 0.098239198 -1.4045 65280
-0.30836201 0.098239198 -1.4045 65280
-0.30563301 0.098239198 -1.4045 65280
-0.30290401 0.098239198 -1.4045 65280
-0.30017501 0.098239198 -1.4045 65280
-0.297447 0.098239198 -1.4045 65280
-0.294718 0.098239198 -1.4045 65280
-0.291989 0.098239198 -1.4045 65280
-0.28926 0.098239198 -1.4045 65280
-0.286531 0.098239198 -1.4045 65280
-0.283802 0.098239198 -1.4045 65280
-0.281073 0.098239198 -1.4045 65280
-0.27834401 0.098239198 -1.4045 65280
-0.27561599 0.098239198 -1.4045 65280
-0.27288699 0.098239198 -1.4045 65280
-0.27015799 0.098239198 -1.4045 65280
-0.26742899 0.098239198 -1.4045 65280
-0.2647 0.098239198 -1.4045 65280
-0.261971 0.098239198 -1.4045 65280
-0.259242 0.098239198 -1.4045 65280
-0.25651401 0.098239198 -1.4045 65280
-0.25378501 0.098239198 -1.4045 65280
-0.25105599 0.098239198 -1.4045 65280
-0.248327 0.098239198 -1.4045 65280
-0.245598 0.098239198 -1.4045 65280
-0.242869 0.098239198 -1.4045 65280
-0.24014001 0.098239198 -1.4045 65280
-0.23741101 0.098239198 -1.4045 65280
-0.23468301 0.098239198 -1.4045 65280
-0.23195399 0.098239198 -1.4045 65280
-0.22922499 0.098239198 -1.4045 65280
-0.226496 0.098239198 -1.4045 65280
-0.223767 0.098239198 -1.4045 65280
-0.221038 0.098239198 -1.4045 65280
-0.218309 0.098239198 -1.4045 65280
-0.215581 0.098239198 -1.4045 65280
-0.212852 0.098239198 -1.4045 65280
-0.210123 0.098239198 -1.4045 65280
-0.207394 0.098239198 -1.4045 65280
-0.20466501 0.098239198 -1.4045 65280
-0.20193601 0.098239198 -1.4045 65280
-0.19920699 0.098239198 -1.4045 65280
-0.19647799 0.098239198 -1.4045 65280
-0.19374999 0.098239198 -1.4045 65280
-0.191021 0.098239198 -1.4045 65280
-0.188292 0.098239198 -1.4045 65280
-0.185563 0.098239198 -1.4045 65280
-0.182834 0.098239198 -1.4045 65280
-0.180105 0.098239198 -1.4045 65280
-0.177376 0.098239198 -1.4045 65280
-0.174647 0.098239198 -1.4045 65280
-0.171919 0.098239198 -1.4045 65280
-0.16919 0.098239198 -1.4045 65280
-0.16646101 0.098239198 -1.4045 65280
-0.16373201 0.098239198 -1.4045 65280
-0.16100299 0.098239198 -1.4045 65280
-0.15827399 0.098239198 -1.4045 65280
-0.155545 0.098239198 -1.4045 65280
-0.152817 0.098239198 -1.4045 65280
-0.150088 0.098239198 -1.4045 65280
-0.147359 0.098239198 -1.4045 65280
-0.14463 0.098239198 -1.4045 65280
-0.141901 0.098239198 -1.4045 65280
-0.139172 0.098239198 -1.4045 65280
-0.136443 0.098239198 -1.4045 65280
-0.13371401 0.098239198 -1.4045 65280
-0.13098601 0.098239198 -1.4045 65280
-0.12825701 0.098239198 -1.4045 65280
-0.12552799 0.098239198 -1.4045 65280
-0.122799 0.098239198 -1.4045 65280
-0.12007 0.098239198 -1.4045 65280
-0.117341 0.098239198 -1.4045 65280
-0.114612 0.098239198 -1.4045 65280
-0.111884 0.098239198 -1.4045 65280
-0.109155 0.098239198 -1.4045 65280
-0.106426 0.098239198 -1.4045 65280
-0.103697 0.098239198 -1.4045 65280
-0.100968 0.098239198 -1.4045 65280
-0.098239198 0.098239198 -1.4045 65280
-0.095510297 0.098239198 -1.4045 65280
-0.092781499 0.098239198 -1.4045 65280
-0.090052597 0.098239198 -1.4045 65280
-0.087323703 0.098239198 -1.4045 65280
-0.084594898 0.098239198 -1.4045 65280
-0.081866004 0.098239198 -1.4045 65280
-0.079137102 0.098239198 -1.4045 65280
-0.076408297 0.098239198 -1.4045 65280
-0.073679402 0.098239198 -1.4045 65280
-0.070950501 0.098239198 -1.4045 65280
-0.068221703 0.098239198 -1.4045 65280
-0.065492801 0.098239198 -1.4045 65280
-0.0627639 0.098239198 -1.4045 65280
-0.060035098 0.098239198 -1.4045 65280
-0.0573062 0.098239198 -1.4045 65280
-0.054577298 0.098239198 -1.4045 65280
-0.051848501 0.098239198 -1.4045 65280
-0.049119599 0.098239198 -1.4045 65280
-0.046390701 0.098239198 -1.4045 65280
-0.0436619 0.098239198 -1.4045 65280
-0.040933002 0.098239198 -1.4045 65280
-0.0382041 0.098239198 -1.4045 65280
-0.035475299 0.098239198 -1.4045 65280
-0.032746401 0.098239198 -1.4045 65280
-0.030017501 0.098239198 -1.4045 65280
-0.0272887 0.098239198 -1.4045 65280
-0.0245598 0.098239198 -1.4045 65280
-0.0218309 0.098239198 -1.4045 65280
-0.0191021 0.098239198 -1.4045 65280
-0.0163732 0.098239198 -1.4045 65280
-0.0136443 0.098239198 -1.4045 65280
-0.0109155 0.098239198 -1.4045 65280
-0.0081866002 0.098239198 -1.4045 65280
-0.00545773 0.098239198 -1.4045 65280
-0.0027288699 0.098239198 -1.4045 65280
0 0.098239198 -1.4045 65280
0.0027288699 0.098239198 -1.4045 65280
0.00545773 0.098239198 -1.4045 65280
0.0081866002 0.098239198 -1.4045 65280
0.0109155 0.098239198 -1.4045 65280
0.0136443 0.098239198 -1.4045 65280
0.0163732 0.098239198 -1.4045 65280
0.0191021 0.098239198 -1.4045 65280
0.0218309 0.098239198 -1.4045 65280
0.0245598 0.098239198 -1.4045 65280
0.0272887 0.098239198 -1.4045 65280
0.030017501 0.098239198 -1.4045 65280
0.032746401 0.098239198 -1.4045 65280
0.035475299 0.098239198 -1.4045 65280
0.0382041 0.098239198 -1.4045 65280
0.040933002 0.098239198 -1.4045 65280
0.0436619 0.098239198 -1.4045 65280
0.046390701 0.098239198 -1.4045 65280
0.049119599 0.098239198 -1.4045 65280
0.051848501 0.098239198 -1.4045 65280
0.054577298 0.098239198 -1.4045 65280
0.0573062 0.098239198 -1.4045 65280
0.060035098 0.098239198 -1.4045 65280
0.0627639 0.098239198 -1.4045 65280
0.065492801 0.098239198 -1.4045 65280
0.068221703 0.098239198 -1.4045 65280
0.070950501 0.098239198 -1.4045 65280
0.073679402 0.098239198 -1.4045 65280
0.076408297 0.098239198 -1.4045 65280
0.079137102 0.098239198 -1.4045 65280
0.081866004 0.098239198 -1.4045 65280
0.084594898 0.098239198 -1.4045 65280
0.087323703 0.098239198 -1.4045 65280
0.090052597 0.098239198 -1.4045 65280
0.092781499 0.098239198 -1.4045 65280
0.095510297 0.098239198 -1.4045 65280
0.098239198 0.098239198 -1.4045 65280
0.100968 0.098239198 -1.4045 65280
0.103697 0.098239198 -1.4045 65280
0.106426 0.098239198 -1.4045 65280
0.109155 0.098239198 -1.4045 65280
0.111884 0.098239198 -1.4045 65280
0.114612 0.098239198 -1.4045 65280
0.117341 0.098239198 -1.4045 65280
0.12007 0.098239198 -1.4045 65280
0.122799 0.098239198 -1.4045 65280
0.12552799 0.098239198 -1.4045 65280
0.12825701 0.098239198 -1.4045 65280
0.13098601 0.098239198 -1.4045 65280
0.13371401 0.098239198 -1.4045 65280
0.136443 0.098239198 -1.4045 65280
0.139172 0.098239198 -1.4045 65280
0.141901 0.098239198 -1.4045 65280
0.14463 0.098239198 -1.4045 65280
0.147359 0.098239198 -1.4045 65280
0.150088 0.098239198 -1.4045 65280
0.152817 0.098239198 -1.4045 65280
0.155545 0.098239198 -1.4045 65280
0.15827399 0.098239198 -1.4045 65280
0.16100299 0.098239198 -1.4045 65280
0.16373201 0.098239198 -1.4045 65280
0.16646101 0.098239198 -1.4045 65280
0.16919 0.098239198 -1.4045 65280
0.171919 0.098239198 -1.4045 65280
0.174647 0.098239198 -1.4045 65280
0.177376 0.098239198 -1.4045 65280
0.180105 0.098239198 -1.4045 65280
0.182834 0.098239198 -1.4045 65280
0.185563 0.098239198 -1.4045 65280
0.188292 0.098239198 -1.4045 65280
0.191021 0.098239198 -1.4045 65280
0.19374999 0.098239198 -1.4045 65280
0.19647799 0.098239198 -1.4045 65280
0.19920699 0.098239198 -1.4045 65280
0.20193601 0.098239198 -1.4045 65280
0.20466501 0.098239198 -1.4045 65280
0.207394 0.098239198 -1.4045 65280
0.210123 0.098239198 -1.4045 65280
0.212852 0.098239198 -1.4045 65280
0.215581 0.098239198 -1.4045 65280
0.218309 0.098239198 -1.4045 65280
0.221038 0.098239198 -1.4045 65280
0.223767 0.098239198 -1.4045 65280
0.226496 0.098239198 -1.4045 65280
0.22922499 0.098239198 -1.4045 65280
0.23195399 0.098239198 -1.4045 65280
0.23468301 0.098239198 -1.4045 65280
0.23741101 0.098239198 -1.4045 65280
0.24014001 0.098239198 -1.4045 65280
0.242869 0.098239198 -1.4045 65280
0.245598 0.098239198 -1.4045 65280
0.248327 0.098239198 -1.4045 65280
0.25105599 0.098239198 -1.4045 65280
0.25378501 0.098239198 -1.4045 65280
0.25651401 0.098239198 -1.4045 65280
0.259242 0.098239198 -1.4045 65280
0.261971 0.098239198 -1.4045 65280
0.2647 0.098239198 -1.4045 65280
0.26742899 0.098239198 -1.4045 65280
0.27015799 0.098239198 -1.4045 65280
0.27288699 0.098239198 -1.4045 65280
0.27561599 0.098239198 -1.4045 65280
0.27834401 0.098239198 -1.4045 65280
0.281073 0.098239198 -1.4045 65280
0.283802 0.098239198 -1.4045 65280
0.286531 0.098239198 -1.4045 65280
0.28926 0.098239198 -1.4045 65280
0.291989 0.098239198 -1.4045 65280
0.294718 0.098239198 -1.4045 65280
0.297447 0.098239198 -1.4045 65280
0.30017501 0.098239198 -1.4045 65280
0.30290401 0.098239198 -1.4045 65280
0.30563301 0.098239198 -1.4045 65280
0.30836201 0.098239198 -1.4045 65280
0.31109101 0.098239198 -1.4045 65280
0.31382 0.098239198 -1.4045 65280
0.316549 0.098239198 -1.4045 65280
0.31927699 0.098239198 -1.4045 65280
0.32200599 0.098239198 -1.4045 65280
0.32473499 0.098239198 -1.4045 65280
0.32746401 0.098239198 -1.4045 65280
0.33019301 0.098239198 -1.4045 65280
0.33292201 0.098239198 -1.4045 65280
0.33565101 0.098239198 -1.4045 65280
0.33838001 0.098239198 -1.4045 65280
0.34110799 0.098239198 -1.4045 65280
0.34383699 0.098239198 -1.4045 65280
0.34656599 0.098239198 -1.4045 65280
0.34929499 0.098239198 -1.4045 65280
0.35202399 0.098239198 -1.4045 65280
0.35475299 0.098239198 -1.4045 65280
0.35748199 0.098239198 -1.4045 65280
0.36021 0.098239198 -1.4045 65280
0.362939 0.098239198 -1.4045 65280
0.365668 0.098239198 -1.4045 65280
0.368397 0.098239198 -1.4045 65280
0.371126 0.098239198 -1.4045 65280
0.37385499 0.098239198 -1.4045 65280
0.37658399 0.098239198 -1.4045 65280
0.37931299 0.098239198 -1.4045 65280
0.38204101 0.098239198 -1.4045 65280
0.38477001 0.098239198 -1.4045 65280
0.387499 0.098239198 -1.4045 65280
0.390228 0.098239198 -1.4045 65280
0.392957 0.098239198 -1.4045 65280
0.395686 0.098239198 -1.4045 65280
0.398415 0.098239198 -1.4045 65280
-0.400792 0.10088 -1.40327 65280
-0.39806601 0.10088 -1.40327 65280
-0.39533901 0.10088 -1.40327 65280
-0.39261299 0.10088 -1.40327 65280
-0.38988599 0.10088 -1.40327 65280
-0.38716 0.10088 -1.40327 65280
-0.384433 0.10088 -1.40327 65280
-0.38170701 0.10088 -1.40327 65280
-0.37898001 0.10088 -1.40327 65280
-0.37625399 0.10088 -1.40327 65280
-0.37352699 0.10088 -1.40327 65280
-0.370801 0.10088 -1.40327 65280
-0.368074 0.10088 -1.40327 65280
-0.36534801 0.10088 -1.40327 65280
-0.36262101 0.10088 -1.40327 65280
-0.35989499 0.10088 -1.40327 65280
-0.35716799 0.10088 -1.40327 65280
-0.354442 0.10088 -1.40327 65280
-0.351715 0.10088 -1.40327 65280
-0.34898901 0.10088 -1.40327 65280
-0.34626299 0.10088 -1.40327 65280
-0.34353599 0.10088 -1.40327 65280
-0.34081 0.10088 -1.40327 65280
-0.338083 0.10088 -1.40327 65280
-0.33535701 0.10088 -1.40327 65280
-0.33263001 0.10088 -1.40327 65280
-0.32990399 0.10088 -1.40327 65280
-0.32717699 0.10088 -1.40327 65280
-0.324451 0.10088 -1.40327 65280
-0.321724 0.10088 -1.40327 65280
-0.31899801 0.10088 -1.40327 65280
-0.31627101 0.10088 -1.40327 65280
-0.31354499 0.10088 -1.40327 65280
-0.31081799 0.10088 -1.40327 65280
-0.308092 0.10088 -1.40327 65280
-0.305365 0.10088 -1.40327 65280
-0.30263901 0.10088 -1.40327 65280
-0.29991201 0.10088 -1.40327 65280
-0.29718599 0.10088 -1.40327 65280
-0.29445899 0.10088 -1.40327 65280
-0.291733 0.10088 -1.40327 65280
-0.28900701 0.10088 -1.40327 65280
-0.28628001 0.10088 -1.40327 65280
-0.28355399 0.10088 -1.40327 65280
-0.28082699 0.10088 -1.40327 65280
-0.278101 0.10088 -1.40327 65280
-0.275374 0.10088 -1.40327 65280
-0.27264801 0.10088 -1.40327 65280
-0.269921 0.10088 -1.40327 65280
-0.26719499 0.10088 -1.40327 65280
-0.26446801 0.10088 -1.40327 65280
-0.261742 0.10088 -1.40327 65280
-0.25901499 0.10088 -1.40327 65280
-0.25628901 0.10088 -1.40327 65280
-0.253562 0.10088 -1.40327 65280
-0.25083601 0.10088 -1.40327 65280
-0.248109 0.10088 -1.40327 65280
-0.24538299 0.10088 -1.40327 65280
-0.24265601 0.10088 -1.40327 65280
-0.23993 0.10088 -1.40327 65280
-0.237203 0.10088 -1.40327 65280
-0.234477 0.10088 -1.40327 65280
-0.23175099 0.10088 -1.40327 65280
-0.22902399 0.10088 -1.40327 65280
-0.226298 0.10088 -1.40327 65280
-0.223571 0.10088 -1.40327 65280
-0.220845 0.10088 -1.40327 65280
-0.218118 0.10088 -1.40327 65280
-0.21539199 0.10088 -1.40327 65280
-0.21266501 0.10088 -1.40327 65280
-0.209939 0.10088 -1.40327 65280
-0.207212 0.10088 -1.40327 65280
-0.204486 0.10088 -1.40327 65280
-0.201759 0.10088 -1.40327 65280
-0.19903301 0.10088 -1.40327 65280
-0.19630601 0.10088 -1.40327 65280
-0.19358 0.10088 -1.40327 65280
-0.190853 0.10088 -1.40327 65280
-0.188127 0.10088 -1.40327 65280
-0.18539999 0.10088 -1.40327 65280
-0.18267401 0.10088 -1.40327 65280
-0.179947 0.10088 -1.40327 65280
-0.177221 0.10088 -1.40327 65280
-0.174494 0.10088 -1.40327 65280
-0.17176799 0.10088 -1.40327 65280
-0.16904201 0.10088 -1.40327 65280
-0.166315 0.10088 -1.40327 65280
-0.163589 0.10088 -1.40327 65280
-0.160862 0.10088 -1.40327 65280
-0.158136 0.10088 -1.40327 65280
-0.15540899 0.10088 -1.40327 65280
-0.152683 0.10088 -1.40327 65280
-0.149956 0.10088 -1.40327 65280
-0.14723 0.10088 -1.40327 65280
-0.144503 0.10088 -1.40327 65280
-0.14177699 0.10088 -1.40327 65280
-0.13905001 0.10088 -1.40327 65280
-0.136324 0.10088 -1.40327 65280
-0.133597 0.10088 -1.40327 65280
-0.130871 0.10088 -1.40327 65280
-0.128144 0.10088 -1.40327 65280
-0.12541801 0.10088 -1.40327 65280
-0.122691 0.10088 -1.40327 65280
-0.119965 0.10088 -1.40327 65280
