# .PCD v0.7 - Point Cloud Data file format
VERSION 0.7
FIELDS x y z rgb
SIZE 4 4 4 4
TYPE F F F U
COUNT 1 1 1 1
WIDTH 1075
HEIGHT 1
VIEWPOINT 0 0 0 1 0 0 0
POINTS 1075
DATA ascii
-0.28334406 0.037535414 -1.4222006 16711680
-0.28792459 0.037850067 -1.4232566 16711680
-0.29260743 0.037226424 -1.424672 16711680
-0.29765192 0.036358908 -1.4254519 16711680
-0.30247515 0.035186402 -1.4259944 16711680
-0.30745345 0.033809252 -1.4260726 16711680
-0.3121056 0.032217912 -1.4256324 16711680
-0.31623641 0.029874062 -1.4254142 16711680
-0.31912753 0.027520048 -1.4254249 16711680
-0.2738038 0.03335578 -1.4231172 16711680
-0.27733931 0.034596562 -1.4237713 16711680
-0.2818574 0.035152517 -1.425575 16711680
-0.28646713 0.035308957 -1.4268265 16711680
-0.29164347 0.035286449 -1.4272753 16711680
-0.30710196 0.031660207 -1.4288007 16711680
-0.31166172 0.029433707 -1.4292952 16711680
-0.31591937 0.027155923 -1.4289449 16711680
-0.31989264 0.024725391 -1.4279268 16711680
-0.32266313 0.021957008 -1.4278715 16711680
-0.271512 0.031096833 -1.4253236 16711680
-0.27552655 0.031716667 -1.42717 16711680
-0.27959496 0.032514431 -1.4284105 16711680
-0.31619421 0.023997823 -1.4319789 16711680
-0.31964171 0.021429017 -1.4314971 16711680
-0.32322243 0.019130392 -1.4303164 16711680
-0.26656297 0.027336048 -1.4265239 16711680
-0.26963437 0.02813975 -1.4282739 16711680
-0.27349365 0.028517472 -1.4300973 16711680
-0.31942558 0.017808789 -1.4346333 16711680
-0.3230558 0.015644804 -1.4335372 16711680
-0.32577956 0.01346815 -1.4323012 16711680
-0.26481685 0.023847016 -1.4289988 16711680
-0.2679621 0.02466313 -1.4312534 16711680
-0.27166978 0.026038518 -1.4318231 16711680
-0.31977215 0.014872225 -1.4364656 16711680
-0.32240227 0.012001904 -1.4366033 16711680
-0.32529676 0.0098341424 -1.4348607 16711680
-0.26335078 0.019970108 -1.4314775 16711680
-0.26577666 0.020564934 -1.4337293 16711680
-0.32211459 0.0074096648 -1.4392688 16711680
-0.32444525 0.0057552978 -1.4374075 16711680
-0.262113 0.01574463 -1.4339309 16711680
-0.26435357 0.016423611 -1.4360541 16711680
-0.32100001 0.0029873354 -1.4417851 16711680
-0.32320154 0.0015218188 -1.439909 16711680
-0.26091304 0.011332693 -1.4360805 16711680
-0.26301548 0.011759555 -1.4383333 16711680
-0.31976381 -0.0017854264 -1.4440387 16711680
-0.32193425 -0.0028686151 -1.4420432 16711680
-0.25970119 0.0068797376 -1.4377674 16711680
-0.26174936 0.0071054408 -1.4402856 16711680
-0.31857145 -0.0061334036 -1.4458424 16711680
-0.32072371 -0.0073439511 -1.4437518 16711680
-0.25881848 0.0023048725 -1.4395173 16711680
-0.26075545 0.0024734177 -1.4420191 16711680
-0.31708622 -0.010661324 -1.4475381 16711680
-0.31924212 -0.011705834 -1.4453506 16711680
-0.25814217 -0.0021975278 -1.4408898 16711680
-0.26021245 -0.0022504381 -1.4435585 16711680
-0.31511083 -0.015075418 -1.4490094 16711680
-0.31754172 -0.016035013 -1.4467133 16711680
-0.25768259 -0.0059948158 -1.4416751 16711680
-0.25981823 -0.007090318 -1.4445642 16711680
-0.26314908 -0.0078657269 -1.447237 16711680
-0.30947071 -0.01868459 -1.4517813 16711680
-0.31327736 -0.019519458 -1.4497825 16711680
-0.31614199 -0.019603804 -1.4474066 16711680
-0.2597844 -0.01180914 -1.4454287 16711680
-0.26325992 -0.012448091 -1.4480246 16711680
-0.2663964 -0.013863387 -1.4500214 16711680
-0.3034524 -0.022481354 -1.4536698 16711680
-0.30718508 -0.022668125 -1.4523574 16711680
-0.31102303 -0.023789251 -1.4504633 16711680
-0.26009881 -0.015843857 -1.4461057 16711680
-0.26277635 -0.01719399 -1.4482243 16711680
-0.26683396 -0.017854989 -1.4509215 16711680
-0.26983288 -0.019456439 -1.4527993 16711680
-0.29752293 -0.02589195 -1.4555023 16711680
-0.30117065 -0.025827376 -1.4542943 16711680
-0.30558041 -0.027152086 -1.4524007 16711680
-0.30891952 -0.027187118 -1.4508731 16711680
-0.26336366 -0.020998104 -1.448882 16711680
-0.26617685 -0.022598319 -1.4510357 16711680
-0.27023044 -0.02335057 -1.4534788 16711680
-0.27443132 -0.025148259 -1.4552228 16711680
-0.27822974 -0.026610544 -1.4561859 16711680
-0.28644052 -0.02851948 -1.4569814 16711680
-0.29051578 -0.028927429 -1.4567956 16711680
-0.29532471 -0.029188467 -1.4559342 16711680
-0.29965577 -0.030412884 -1.4543182 16711680
-0.30305964 -0.030574968 -1.4528049 16711680
-0.26655081 -0.026691629 -1.4514018 16711680
-0.26982903 -0.028176133 -1.4533097 16711680
-0.27429608 -0.029066712 -1.4551262 16711680
-0.27911696 -0.030007318 -1.4562641 16711680
-0.28406885 -0.031161683 -1.4567492 16711680
-0.28891066 -0.032471821 -1.4565617 16711680
-0.29353389 -0.033695854 -1.4556562 16711680
-0.29742777 -0.033943728 -1.4544349 16711680
-0.27098733 -0.031868413 -1.4533819 16711680
-0.27398092 -0.032904014 -1.4544053 16711680
-0.27833781 -0.034117356 -1.455391 16711680
-0.28302947 -0.035218708 -1.4558537 16711680
-0.28764048 -0.036090575 -1.4557455 16711680
-0.29098246 -0.036489453 -1.4553376 16711680
-0.29515454 0.040249921 -1.4143699 16711680
-0.29946759 0.039668173 -1.4152503 16711680
-0.30426365 0.038550124 -1.4157284 16711680
-0.30814528 0.037265792 -1.4157605 16711680
-0.28107554 0.038717553 -1.4149657 16711680
-0.28448519 0.039496183 -1.4164915 16711680
-0.28906909 0.040063895 -1.4169432 16711680
-0.2940909 0.040067598 -1.4172533 16711680
-0.2991001 0.039410442 -1.418056 16711680
-0.30394724 0.038277201 -1.4185486 16711680
-0.30889377 0.036604717 -1.4186924 16711680
-0.31332213 0.034392945 -1.4192957 16711680
-0.31717324 0.03189861 -1.4195627 16711680
-0.32006353 0.02964271 -1.4187676 16711680
-0.27490067 0.035808854 -1.416747 16711680
-0.27852169 0.037233323 -1.4179078 16711680
-0.28241932 0.038439065 -1.4189396 16711680
-0.28673512 0.039185382 -1.4199884 16711680
-0.31431618 0.032786086 -1.4226761 16711680
-0.31797144 0.030214204 -1.4223822 16711680
-0.32123005 0.027203234 -1.4220706 16711680
-0.32378429 0.024414552 -1.4218512 16711680
-0.26891926 0.032398328 -1.418258 16711680
-0.27238709 0.03392151 -1.4193945 16711680
-0.27599892 0.035366371 -1.4206285 16711680
-0.32202956 0.024506031 -1.4253316 16711680
-0.32468829 0.021876827 -1.4244752 16711680
-0.32743561 0.018703669 -1.4239857 16711680
-0.26724905 0.030487673 -1.4207445 16711680
-0.27011412 0.031905465 -1.4221171 16711680
-0.32540852 0.018956218 -1.4276179 16711680
-0.32758281 0.016416274 -1.4266238 16711680
-0.26503301 0.027058607 -1.4233414 16711680
-0.26790786 0.029450843 -1.4247127 16711680
-0.32576561 0.016031211 -1.4303659 16711680
-0.32754898 0.012481492 -1.4294378 16711680
-0.26289132 0.022790754 -1.425182 16711680
-0.32721284 0.0078061614 -1.4314921 16711680
-0.26128426 0.018601645 -1.4272826 16711680
-0.32640326 0.003411185 -1.4336669 16711680
-0.25990769 0.014358964 -1.4294503 16711680
-0.32534066 -0.00093491469 -1.4358939 16711680
-0.25868535 0.0099443393 -1.4315441 16711680
-0.32410598 -0.0053541968 -1.4379556 16711680
-0.25762543 0.0053875633 -1.4334191 16711680
-0.32269681 -0.0097957915 -1.4397969 16711680
-0.25690088 0.00088233594 -1.4354041 16711680
-0.32099006 -0.014073354 -1.4416907 16711680
-0.25651237 -0.0037173764 -1.4375612 16711680
-0.31890756 -0.01824075 -1.4437164 16711680
-0.25632641 -0.0083616311 -1.4393626 16711680
-0.2574628 -0.0089194532 -1.4421271 16711680
-0.31495631 -0.02234046 -1.4477669 16711680
-0.31670287 -0.022447778 -1.4453038 16711680
-0.25605777 -0.012542126 -1.4400924 16711680
-0.25739756 -0.01338716 -1.4427923 16711680
-0.3129721 -0.02637561 -1.4481835 16711680
-0.3149882 -0.026299067 -1.4458572 16711680
-0.25787878 -0.017968481 -1.4438273 16711680
-0.26058283 -0.019126996 -1.4466205 16711680
-0.30708537 -0.029910443 -1.4510865 16711680
-0.31030476 -0.030200588 -1.4489751 16711680
-0.25812006 -0.022007184 -1.4442297 16711680
-0.26096225 -0.023453087 -1.4467909 16711680
-0.26379484 -0.024899719 -1.4492526 16711680
-0.30100441 -0.033676032 -1.452915 16711680
-0.3046509 -0.033692278 -1.4510567 16711680
-0.30824423 -0.033695623 -1.4491585 16711680
-0.26168388 -0.027517186 -1.4468224 16711680
-0.26456037 -0.02908536 -1.4493208 16711680
-0.26792267 -0.030649036 -1.4517971 16711680
-0.29424027 -0.036820464 -1.4544573 16711680
-0.29859087 -0.036979765 -1.4526514 16711680
-0.30224633 -0.036973 -1.4507881 16711680
-0.26543027 -0.032629572 -1.4491246 16711680
-0.26877066 -0.034157529 -1.4511558 16711680
-0.27283329 -0.036013354 -1.4526707 16711680
-0.27755111 -0.037619494 -1.4537475 16711680
-0.28260767 -0.038769566 -1.4542526 16711680
-0.28757954 -0.039507352 -1.4540961 16711680
-0.29229707 -0.03964711 -1.4534563 16711680
-0.29626995 -0.039836779 -1.4521378 16711680
-0.27355027 -0.039204262 -1.4513074 16711680
-0.27747953 -0.040018797 -1.4523257 16711680
-0.28181803 -0.041051842 -1.4527376 16711680
-0.28588492 -0.042067289 -1.4525168 16711680
-0.29058662 0.040039383 -1.4104223 16711680
-0.29482296 0.040031485 -1.4113675 16711680
-0.29969519 0.039387695 -1.4116776 16711680
-0.30454978 0.038263686 -1.4121946 16711680
-0.30924508 0.036663391 -1.4127779 16711680
-0.31314871 0.034770638 -1.4126207 16711680
-0.28018036 0.038225643 -1.4116175 16711680
-0.28419024 0.039427243 -1.4119184 16711680
-0.28875303 0.040187195 -1.412238 16711680
-0.29276642 0.040405579 -1.4137522 16711680
-0.31077385 0.03620071 -1.4155554 16711680
-0.31439188 0.034232527 -1.4146858 16711680
-0.31825876 0.031452507 -1.4152385 16711680
-0.3212772 0.028630158 -1.4156426 16711680
-0.27405787 0.03553465 -1.4132476 16711680
-0.27759719 0.037263364 -1.4133952 16711680
-0.32281479 0.026671873 -1.4179631 16711680
-0.3251631 0.023640445 -1.4181899 16711680
-0.2684314 0.032260753 -1.4147192 16711680
-0.27133223 0.034035042 -1.415156 16711680
-0.32659602 0.02113156 -1.4205046 16711680
-0.32844821 0.01822542 -1.4205723 16711680
-0.2658352 0.02954415 -1.4167913 16711680
-0.3291468 0.014734492 -1.4229198 16711680
-0.26336193 0.025381565 -1.4185532 16711680
-0.32915321 0.010035468 -1.4250203 16711680
-0.26079941 0.020109637 -1.4192656 16711680
-0.26168841 0.021635326 -1.4209151 16711680
-0.32854679 0.0060114358 -1.4274862 16711680
-0.3289718 0.0042233663 -1.4259349 16711680
-0.25939775 0.01632902 -1.4219183 16711680
-0.26017269 0.017553713 -1.4236755 16711680
-0.32758519 0.0018304712 -1.4302869 16711680
-0.32805678 0.00030777091 -1.4286429 16711680
-0.258021 0.012186624 -1.4240855 16711680
-0.2588743 0.013459248 -1.4261891 16711680
-0.32652056 -0.0022026235 -1.4327071 16711680
-0.32704806 -0.0039259037 -1.4308566 16711680
-0.25683194 0.00797466 -1.4262334 16711680
-0.25757247 0.0088227345 -1.4285069 16711680
-0.32514599 -0.0069552679 -1.4351496 16711680
-0.32588306 -0.0081042182 -1.4329283 16711680
-0.25568378 0.0035236897 -1.4278535 16711680
-0.25639829 0.004192519 -1.4301722 16711680
-0.32385221 -0.011526611 -1.4367867 16711680
-0.32460979 -0.012548462 -1.4346212 16711680
-0.25472876 -0.0010116911 -1.4294719 16711680
-0.2553663 -0.00081120618 -1.4317833 16711680
-0.32224157 -0.016374059 -1.4384128 16711680
-0.32312548 -0.017034899 -1.4362514 16711680
-0.25401959 -0.0047245491 -1.4302932 16711680
-0.25466278 -0.0054279878 -1.4331155 16711680
-0.32061654 -0.020806067 -1.4395839 16711680
-0.32193303 -0.021002702 -1.4369063 16711680
-0.25447586 -0.0099996664 -1.43501 16711680
-0.31842411 -0.024944143 -1.4412708 16711680
-0.25468773 -0.014745033 -1.4370141 16711680
-0.25578475 -0.015717808 -1.440177 16711680
-0.31364337 -0.029633092 -1.4458675 16711680
-0.31572503 -0.028985256 -1.4431231 16711680
-0.25482395 -0.018648151 -1.4378228 16711680
-0.25570136 -0.020059155 -1.4401578 16711680
-0.31197831 -0.033205464 -1.4456798 16711680
-0.31381074 -0.032416724 -1.4435977 16711680
-0.25679994 -0.024471411 -1.4415934 16711680
-0.2588726 -0.026292056 -1.4440198 16711680
-0.30586818 -0.037187137 -1.4485809 16711680
-0.3088159 -0.036609963 -1.4466981 16711680
-0.257779 -0.028010568 -1.4414203 16711680
-0.26022053 -0.029779533 -1.4439906 16711680
-0.26251057 -0.031847261 -1.4461753 16711680
-0.29975837 -0.040548943 -1.4497858 16711680
-0.30301061 -0.039816387 -1.4481728 16711680
-0.3064239 -0.039365306 -1.4462038 16711680
-0.26141796 -0.03375496 -1.4434154 16711680
-0.26396483 -0.035081096 -1.4461402 16711680
-0.26735842 -0.037577219 -1.4481359 16711680
-0.27117646 -0.038676746 -1.4503361 16711680
-0.28836271 -0.042696364 -1.452005 16711680
-0.29263601 -0.043449208 -1.4506108 16711680
-0.29706347 -0.042724952 -1.4494282 16711680
-0.30034348 -0.042864479 -1.4472127 16711680
-0.26866934 -0.040136121 -1.447403 16711680
-0.27231091 -0.041179672 -1.4490566 16711680
-0.27685615 -0.042538114 -1.4501308 16711680
-0.28169554 -0.043675944 -1.450596 16711680
-0.28653315 -0.044432648 -1.4504913 16711680
-0.29043129 -0.04521855 -1.4495348 16711680
-0.28696671 0.03856539 -1.4059681 16711680
-0.28985032 0.038969211 -1.4064544 16711680
-0.29480165 0.038834095 -1.4064186 16711680
-0.29993424 0.03815899 -1.4067073 16711680
-0.30477527 0.037029251 -1.4071811 16711680
-0.30962691 0.035367772 -1.4078506 16711680
-0.31401956 0.03334526 -1.4088492 16711680
-0.31648386 0.03169138 -1.4088759 16711680
-0.27949581 0.037013061 -1.4073983 16711680
-0.28417534 0.038306423 -1.4067973 16711680
-0.2873261 0.039354108 -1.4081982 16711680
-0.31612605 0.032626942 -1.4110146 16711680
-0.31866446 0.030292025 -1.4102422 16711680
-0.32202339 0.027207537 -1.4116367 16711680
-0.27347857 0.034446031 -1.4085652 16711680
-0.27671689 0.036155932 -1.4085406 16711680
-0.32391721 0.025182044 -1.4130437 16711680
-0.32607117 0.022191295 -1.4137677 16711680
-0.2680454 0.031239903 -1.4100822 16711680
-0.2704837 0.033131473 -1.4100507 16711680
-0.32785696 0.019740719 -1.4156823 16711680
-0.32916296 0.01700866 -1.4161762 16711680
-0.26488221 0.027718244 -1.4119589 16711680
-0.33006424 0.012418799 -1.4184546 16711680
-0.26184002 0.022361999 -1.4136925 16711680
-0.26272446 0.024187172 -1.4140477 16711680
-0.330024 0.008422697 -1.4206609 16711680
-0.33005506 0.0063714208 -1.420473 16711680
-0.26024169 0.019069506 -1.4158084 16711680
-0.26165399 0.022195349 -1.4171751 16711680
-0.32963789 0.002909096 -1.4226195 16711680
-0.25862378 0.015121173 -1.4181565 16711680
-0.32889998 -0.0013177143 -1.4250216 16711680
-0.2569668 0.010450695 -1.4197879 16711680
-0.32800788 -0.0060287272 -1.4268105 16711680
-0.25567886 0.0061265212 -1.4216214 16711680
-0.3269099 -0.010484431 -1.4285969 16711680
-0.25466442 0.0018376838 -1.4240845 16711680
-0.32546419 -0.014680106 -1.4310263 16711680
-0.25384721 -0.0025541196 -1.4262717 16711680
-0.32382849 -0.018971879 -1.4331471 16711680
-0.25328681 -0.0070283301 -1.4278843 16711680
-0.25344315 -0.0080024656 -1.4302691 16711680
-0.3210884 -0.023785764 -1.4368848 16711680
-0.32209116 -0.023080345 -1.4346159 16711680
-0.2530244 -0.010070397 -1.428228 16711680
-0.25322333 -0.011987889 -1.4304715 16711680
-0.31950665 -0.02745867 -1.4369133 16711680
-0.32093155 -0.025872627 -1.4349136 16711680
-0.25359866 -0.016710218 -1.4326475 16711680
-0.31668597 -0.031444356 -1.438823 16711680
-0.25423861 -0.020791929 -1.4345621 16711680
-0.25471875 -0.023105446 -1.4355649 16711680
-0.31235045 -0.03657376 -1.4412081 16711680
-0.31397203 -0.034771699 -1.4403807 16711680
-0.25589049 -0.026663329 -1.437194 16711680
-0.30947649 -0.039161801 -1.4424384 16711680
-0.25740877 -0.029518738 -1.4384871 16711680
-0.25918549 -0.03219077 -1.4398106 16711680
-0.30369827 -0.042529702 -1.4441923 16711680
-0.30663612 -0.04099898 -1.4433327 16711680
-0.26082498 -0.035395306 -1.4404857 16711680
-0.26304278 -0.037900396 -1.4424331 16711680
-0.26564145 -0.039736353 -1.444692 16711680
-0.293744 -0.046299525 -1.4474704 16711680
-0.2972815 -0.045881018 -1.4458044 16711680
-0.300621 -0.044756919 -1.4443618 16711680
-0.26489216 -0.040936433 -1.4424429 16711680
-0.26732522 -0.042183444 -1.4441757 16711680
-0.27159578 -0.044570893 -1.4453961 16711680
-0.27634367 -0.04631976 -1.4462397 16711680
-0.28119183 -0.047445871 -1.4467205 16711680
-0.28629839 -0.047998928 -1.4468383 16711680
-0.29133409 -0.04776518 -1.4465473 16711680
-0.29433373 -0.047795027 -1.4453356 16711680
-0.2869325 0.036961727 -1.4025197 16711680
-0.28982109 0.036827371 -1.4018484 16711680
-0.2948007 0.03670378 -1.4018035 16711680
-0.29989526 0.036094576 -1.4021481 16711680
-0.30473939 0.034958735 -1.4026129 16711680
-0.30955064 0.033270448 -1.4032608 16711680
-0.31397799 0.031194864 -1.4042222 16711680
-0.31650832 0.030285837 -1.405829 16711680
-0.27956623 0.034930855 -1.4028444 16711680
-0.28413737 0.036187872 -1.4022697 16711680
-0.287285 0.035779603 -1.4005423 16711680
-0.31599224 0.029059673 -1.4033258 16711680
-0.31862697 0.028089231 -1.4055793 16711680
-0.32201806 0.025055021 -1.4071048 16711680
-0.27329233 0.032362565 -1.4041728 16711680
-0.27672708 0.033558704 -1.4028565 16711680
-0.32386974 0.022671983 -1.4075971 16711680
-0.32612872 0.020043777 -1.4093523 16711680
-0.2680158 0.02930638 -1.4056939 16711680
-0.27046007 0.030741168 -1.4044625 16711680
-0.32798618 0.017135866 -1.4101634 16711680
-0.32913518 0.015029825 -1.411594 16711680
-0.26474765 0.025466967 -1.4072292 16711680
-0.33006358 0.010229771 -1.4136412 16711680
-0.26179132 0.02082997 -1.4098418 16711680
-0.26270294 0.022107707 -1.4085648 16711680
-0.33014008 0.0064051803 -1.4151493 16711680
-0.33014819 0.0048767095 -1.4165455 16711680
-0.26002496 0.017143151 -1.41133 16711680
-0.32981139 0.00086458214 -1.4181658 16711680
-0.25822675 0.012924833 -1.4133013 16711680
-0.32918137 -0.0036182851 -1.4202675 16711680
-0.2566683 0.008684461 -1.4155927 16711680
-0.32826519 -0.0080314986 -1.4226167 16711680
-0.2554298 0.0042120451 -1.4173588 16711680
-0.32705855 -0.012545827 -1.4244196 16711680
-0.25448215 -0.00023493916 -1.4194443 16711680
-0.32557011 -0.016821671 -1.4264077 16711680
-0.25385091 -0.0048132828 -1.4214715 16711680
-0.25440368 -0.007923699 -1.4204147 16711680
-0.32202703 -0.023834212 -1.427153 16711680
-0.32372963 -0.021153085 -1.4283996 16711680
-0.25341734 -0.0085029341 -1.4240938 16711680
-0.25393981 -0.010625124 -1.4232378 16711680
-0.32075462 -0.026275752 -1.4297915 16711680
-0.3220264 -0.024506861 -1.4308292 16711680
-0.25395507 -0.014311627 -1.4256834 16711680
-0.31872952 -0.029405488 -1.4320552 16711680
-0.25432688 -0.018844895 -1.4280763 16711680
-0.25560701 -0.022200001 -1.4270617 16711680
-0.31351662 -0.035774332 -1.4328252 16711680
-0.3159917 -0.03317054 -1.4340597 16711680
-0.25461996 -0.022214612 -1.4304954 16711680
-0.25547451 -0.02470357 -1.430107 16711680
-0.31200409 -0.03789296 -1.435674 16711680
-0.31377527 -0.036012731 -1.4362837 16711680
-0.25653085 -0.028572118 -1.4326757 16711680
-0.25836918 -0.031607285 -1.4327427 16711680
-0.30593616 -0.042713635 -1.4373745 16711680
-0.30889779 -0.040794924 -1.4378167 16711680
-0.25762308 -0.030778149 -1.435486 16711680
-0.25951967 -0.034187518 -1.4350528 16711680
-0.30339873 -0.044396855 -1.4393941 16711680
-0.30642235 -0.042199157 -1.4402176 16711680
-0.26084483 -0.037205257 -1.4370886 16711680
-0.26244187 -0.040096745 -1.4378054 16711680
-0.29765573 -0.048337743 -1.4413218 16711680
-0.30056396 -0.046435878 -1.4409474 16711680
-0.26430422 -0.042903163 -1.4387876 16711680
-0.2668601 -0.045114085 -1.4401746 16711680
-0.27116165 -0.047787823 -1.4414133 16711680
-0.27590096 -0.049031921 -1.4429278 16711680
-0.2810424 -0.050234511 -1.4434246 16711680
-0.28602844 -0.051238462 -1.4428847 16711680
-0.29112008 -0.050803013 -1.4425688 16711680
-0.29471534 -0.049932159 -1.4418011 16711680
-0.27288046 -0.049851261 -1.4401572 16711680
-0.27604094 -0.050428204 -1.4412681 16711680
-0.28057545 -0.051491596 -1.4417057 16711680
-0.2838065 -0.052400693 -1.4412301 16711680
-0.29050535 0.034480117 -1.3984019 16711680
-0.29465577 0.033811815 -1.3977214 16711680
-0.29948604 0.033209577 -1.3979087 16711680
-0.30461544 0.032016084 -1.3984149 16711680
-0.30917686 0.030422149 -1.3991464 16711680
-0.3129864 0.02923231 -1.4006037 16711680
-0.28005442 0.032406271 -1.3991525 16711680
-0.28402507 0.033079609 -1.3981545 16711680
-0.28860778 0.033329323 -1.3972706 16711680
-0.29207972 0.032237902 -1.3958101 16711680
-0.31117657 0.0277906 -1.3977202 16711680
-0.3144708 0.027301276 -1.3998694 16711680
-0.31808999 0.025118621 -1.4014577 16711680
-0.32113934 0.022841716 -1.40321 16711680
-0.27390319 0.029725956 -1.4003116 16711680
-0.27748227 0.03068977 -1.3988733 16711680
-0.32268724 0.020151306 -1.4033064 16711680
-0.32514724 0.017771937 -1.4053332 16711680
-0.26824543 0.026465131 -1.4018971 16711680
-0.27095628 0.027573077 -1.4003745 16711680
-0.32675612 0.0145279 -1.405786 16711680
-0.32838082 0.012459133 -1.4077506 16711680
-0.26574948 0.02311874 -1.4029176 16711680
-0.32893959 0.0083135078 -1.4091134 16711680
-0.26167127 0.018342879 -1.4073753 16711680
-0.26322129 0.019060368 -1.4047588 16711680
-0.32905993 0.0038359817 -1.4111691 16711680
-0.32962623 0.0025209328 -1.4140589 16711680
-0.26047558 0.014942491 -1.4079419 16711680
-0.26150712 0.014747966 -1.4057593 16711680
-0.32844225 -0.0009655701 -1.4122646 16711680
-0.32907167 -0.001066247 -1.4146664 16711680
-0.25902525 0.010723164 -1.4092236 16711680
-0.25999606 0.010052491 -1.4070225 16711680
-0.3275212 -0.0056886519 -1.4136319 16711680
-0.32826471 -0.0054203542 -1.4160086 16711680
-0.25767893 0.0063761398 -1.4109669 16711680
-0.25860411 0.0051061288 -1.4089422 16711680
-0.32620445 -0.010722015 -1.4155898 16711680
-0.32717994 -0.0099725798 -1.4178219 16711680
-0.2564953 0.0021055252 -1.4131727 16711680
-0.2573556 0.00046227872 -1.4115198 16711680
-0.32479784 -0.015301744 -1.4181449 16711680
-0.32597774 -0.014116126 -1.4199883 16711680
-0.25549465 -0.0019232496 -1.415837 16711680
-0.2565757 -0.003767893 -1.4141731 16711680
-0.32320198 -0.019236319 -1.420717 16711680
-0.32460922 -0.018033572 -1.4225991 16711680
-0.25476295 -0.0057599554 -1.4186183 16711680
-0.25614619 -0.0078114374 -1.4169545 16711680
-0.32121405 -0.023047896 -1.4233702 16711680
-0.32316536 -0.021434864 -1.4250702 16711680
-0.25623101 -0.012112986 -1.4194388 16711680
-0.25821176 -0.015066564 -1.4182636 16711680
-0.31599244 -0.028561832 -1.423933 16711680
-0.31890702 -0.026654052 -1.4256144 16711680
-0.25605124 -0.016149748 -1.4222103 16711680
-0.25792545 -0.018335354 -1.4205703 16711680
-0.31446761 -0.031413227 -1.4260619 16711680
-0.31671956 -0.03024797 -1.4280936 16711680
-0.25587642 -0.019671997 -1.4247111 16711680
-0.25744039 -0.022249328 -1.4235728 16711680
-0.31262174 -0.03505341 -1.4290086 16711680
-0.3149184 -0.033386588 -1.4305639 16711680
-0.25759357 -0.02641356 -1.426093 16711680
-0.25955871 -0.029627148 -1.4252683 16711680
-0.30728993 -0.040533014 -1.4297601 16711680
-0.31018737 -0.038611375 -1.4312348 16711680
-0.25782675 -0.029578008 -1.4288186 16711680
-0.25988713 -0.032342114 -1.4283711 16711680
-0.30513263 -0.04284706 -1.4327705 16711680
-0.30802962 -0.041295283 -1.4337568 16711680
-0.26087886 -0.036077634 -1.4307901 16711680
-0.26193589 -0.038957685 -1.4303802 16711680
-0.30001333 -0.047848783 -1.4341377 16711680
-0.30212292 -0.04571864 -1.4348588 16711680
-0.26130009 -0.038460337 -1.4333875 16711680
-0.26280099 -0.041845679 -1.4330999 16711680
-0.29748148 -0.049945995 -1.4365287 16711680
-0.30023998 -0.047542602 -1.4372779 16711680
-0.26433596 -0.044817276 -1.4349111 16711680
-0.26670977 -0.0477117 -1.435763 16711680
-0.26998016 -0.049985215 -1.4373133 16711680
-0.28682536 -0.053914443 -1.4389675 16711680
-0.29099315 -0.053374059 -1.4381418 16711680
-0.29451224 -0.051846027 -1.437878 16711680
-0.2716957 -0.051232852 -1.4371861 16711680
-0.27557281 -0.052664332 -1.4379016 16711680
-0.28062093 -0.053842202 -1.4383961 16711680
-0.28479132 -0.054282941 -1.4384813 16711680
-0.29482642 0.031530023 -1.395272 16711680
-0.29944876 0.03059865 -1.3951352 16711680
-0.30399218 0.029485924 -1.3955321 16711680
-0.30846331 0.028354155 -1.3966123 16711680
-0.28085968 0.030232357 -1.3965727 16711680
-0.28436422 0.029769057 -1.3948932 16711680
-0.28888994 0.0298493 -1.3940107 16711680
-0.29382378 0.02967483 -1.393605 16711680
-0.29897442 0.028455941 -1.3931892 16711680
-0.30384058 0.027323144 -1.3936678 16711680
-0.30878243 0.026237173 -1.3950912 16711680
-0.31321815 0.024193542 -1.3964256 16711680
-0.31700236 0.022155754 -1.3981177 16711680
-0.31990501 0.021085402 -1.4003403 16711680
-0.27452856 0.027201952 -1.3976347 16711680
-0.27806225 0.027246701 -1.3957042 16711680
-0.28211921 0.027498467 -1.3939844 16711680
-0.31812161 0.019169768 -1.3975531 16711680
-0.32128492 0.017190835 -1.3999822 16711680
-0.3239955 0.015683884 -1.4025017 16711680
-0.26888934 0.024235539 -1.3994297 16711680
-0.27202338 0.024067318 -1.3971252 16711680
-0.2755371 0.024212746 -1.3951361 16711680
-0.32224736 0.013305256 -1.3997105 16711680
-0.32493478 0.01177193 -1.4023455 16711680
-0.32718775 0.009930836 -1.4048759 16711680
-0.26716959 0.020558367 -1.3995638 16711680
-0.26914239 0.020305617 -1.39733 16711680
-0.32576892 0.0070780702 -1.4029105 16711680
-0.32719052 0.0065515283 -1.4054453 16711680
-0.26519194 0.016333636 -1.4007034 16711680
-0.26747859 0.016547499 -1.3978952 16711680
-0.32547772 0.0029925704 -1.4036069 16711680
-0.32686663 0.0019966909 -1.4067178 16711680
-0.26313207 0.01220667 -1.4026109 16711680
-0.3264865 -0.0025521363 -1.4087417 16711680
-0.26153576 0.0078426497 -1.4044331 16711680
-0.32572341 -0.0070360629 -1.4107503 16711680
-0.26023948 0.0034507904 -1.4065142 16711680
-0.32451281 -0.011532337 -1.4128221 16711680
-0.25946718 -0.0010414161 -1.408651 16711680
-0.32285216 -0.015815943 -1.4149086 16711680
-0.25908816 -0.0052927816 -1.4109907 16711680
-0.2611776 -0.0075876825 -1.4095975 16711680
-0.31824207 -0.020931335 -1.4151975 16711680
-0.32089919 -0.01973491 -1.4171534 16711680
-0.25864118 -0.0091138724 -1.4138358 16711680
-0.26139882 -0.011474364 -1.4122744 16711680
-0.26426297 -0.014328893 -1.4122839 16711680
-0.31210828 -0.025478881 -1.4169598 16711680
-0.31591201 -0.024162993 -1.4176151 16711680
-0.31905657 -0.023207309 -1.4197651 16711680
-0.25837877 -0.01237885 -1.4163189 16711680
-0.26085156 -0.015077157 -1.4154929 16711680
-0.26410601 -0.01722841 -1.4143724 16711680
-0.31058899 -0.028069556 -1.4189264 16711680
-0.31420955 -0.027553029 -1.4207828 16711680
-0.31735772 -0.02618172 -1.4221103 16711680
-0.26025182 -0.019156871 -1.4184865 16711680
-0.26365417 -0.021224711 -1.4168478 16711680
-0.30880523 -0.03177797 -1.4213318 16711680
-0.31237376 -0.031292509 -1.4235746 16711680
-0.25989154 -0.023510858 -1.4210991 16711680
-0.26270974 -0.025372727 -1.4195081 16711680
-0.3072235 -0.035852034 -1.4238586 16711680
-0.31027815 -0.03527835 -1.4260309 16711680
-0.25950176 -0.026683416 -1.4232163 16711680
-0.26207063 -0.029628081 -1.4221026 16711680
-0.30553323 -0.039742135 -1.4263459 16711680
-0.3085863 -0.038459174 -1.4280969 16711680
-0.26215467 -0.033827282 -1.4244949 16711680
-0.26331496 -0.036069997 -1.4231145 16711680
-0.30140883 -0.044950694 -1.4268186 16711680
-0.30317581 -0.043367326 -1.4284942 16711680
-0.26203948 -0.036776185 -1.4270904 16711680
-0.26313242 -0.03964714 -1.4263428 16711680
-0.29941925 -0.048089564 -1.4298568 16711680
-0.30149597 -0.045974188 -1.4309522 16711680
-0.26404589 -0.043932281 -1.4286637 16711680
-0.26529214 -0.04699824 -1.4279364 16711680
-0.29402363 -0.053644113 -1.4311606 16711680
-0.29632199 -0.051430419 -1.4318848 16711680
-0.26475641 -0.046344049 -1.4309523 16711680
-0.26666555 -0.049464568 -1.4310408 16711680
-0.26915222 -0.051996134 -1.4326673 16711680
-0.287541 -0.05629836 -1.4344412 16711680
-0.2911526 -0.055166081 -1.4334322 16711680
-0.29418993 -0.053216062 -1.433821 16711680
-0.27123579 -0.053482354 -1.4328948 16711680
-0.27549401 -0.055249967 -1.4337099 16711680
-0.2803334 -0.05638089 -1.4341832 16711680
-0.28507313 -0.05666288 -1.4342995 16711680
-0.28552851 0.027028436 -1.3924845 16711680
-0.28896999 0.026539283 -1.3915797 16711680
-0.29358238 0.025706135 -1.3907436 16711680
-0.29842088 0.024911698 -1.3905989 16711680
-0.30325931 0.023778569 -1.3910699 16711680
-0.30786127 0.022348905 -1.3921323 16711680
-0.31214052 0.021063605 -1.3938223 16711680
-0.31520233 0.020131938 -1.395413 16711680
-0.27902856 0.024048401 -1.3932571 16711680
-0.28296363 0.024023132 -1.3917077 16711680
-0.28734601 0.023966327 -1.3904175 16711680
-0.29181597 0.023232127 -1.3893495 16711680
-0.30857131 0.01933069 -1.3909961 16711680
-0.31262457 0.018051872 -1.3928921 16711680
-0.31627601 0.016263569 -1.3949828 16711680
-0.31949174 0.0149302 -1.3973335 16711680
-0.2733075 0.021219723 -1.3948886 16711680
-0.27677885 0.020989237 -1.3930882 16711680
-0.28056085 0.020570559 -1.3911459 16711680
-0.31696153 0.012061473 -1.3947074 16711680
-0.32012856 0.010880621 -1.3973449 16711680
-0.32310361 0.009383915 -1.3998742 16711680
-0.27098283 0.01757169 -1.3951067 16711680
-0.27447599 0.016854512 -1.3930721 16711680
-0.32033074 0.0061769076 -1.3975631 16711680
-0.32330889 0.0053344332 -1.4002013 16711680
-0.26660281 0.014351128 -1.3984907 16711680
-0.26889819 0.013436761 -1.3961306 16711680
-0.27244234 0.013594303 -1.3936951 16711680
-0.32058221 0.0023962567 -1.3984075 16711680
-0.32310125 0.00067908224 -1.4014013 16711680
-0.32514822 0.00067311386 -1.4042096 16711680
-0.26505393 0.010255281 -1.3999077 16711680
-0.26717106 0.0089285569 -1.3976221 16711680
-0.32242858 -0.0039751106 -1.4030181 16711680
-0.3244611 -0.0036372421 -1.4057364 16711680
-0.26378864 0.0057533048 -1.40152 16711680
-0.26579437 0.0044568293 -1.3994807 16711680
-0.32135412 -0.0085075237 -1.4049275 16711680
-0.32331276 -0.0081313914 -1.407353 16711680
-0.26249138 0.0016338686 -1.4038051 16711680
-0.26494825 -0.0002015084 -1.40171 16711680
-0.31971958 -0.012923209 -1.4070998 16711680
-0.32221058 -0.012210604 -1.4095421 16711680
-0.26181611 -0.0021940186 -1.4058988 16711680
-0.26427817 -0.0042727357 -1.404375 16711680
-0.26737639 -0.0066009462 -1.4034799 16711680
-0.31437898 -0.017549926 -1.4080645 16711680
-0.31789964 -0.01679392 -1.409579 16711680
-0.3208735 -0.015820356 -1.4116886 16711680
-0.26134157 -0.0048863017 -1.4076793 16711680
-0.26362491 -0.0080140326 -1.4074792 16711680
-0.26733175 -0.0103036 -1.4061351 16711680
-0.31230843 -0.020785332 -1.4105341 16711680
-0.31632912 -0.020302694 -1.4126432 16711680
-0.31968307 -0.018495291 -1.413424 16711680
-0.26376525 -0.011466915 -1.4101753 16711680
-0.26693097 -0.014153525 -1.4092996 16711680
-0.26946995 -0.016692573 -1.4081815 16711680
-0.30721039 -0.02545275 -1.411778 16711680
-0.3104102 -0.024300797 -1.4136006 16711680
-0.31426132 -0.023310458 -1.4152594 16711680
-0.26656491 -0.018143767 -1.412172 16711680
-0.26919991 -0.020237999 -1.4104527 16711680
-0.30550292 -0.028712837 -1.414008 16711680
-0.3085314 -0.027842749 -1.4163026 16711680
-0.2659339 -0.022295812 -1.414763 16711680
-0.26842576 -0.024299938 -1.4129034 16711680
-0.30390131 -0.032636933 -1.4163681 16711680
-0.30655593 -0.031881291 -1.4186764 16711680
-0.2650778 -0.026812153 -1.4171495 16711680
-0.26728711 -0.028597824 -1.4151155 16711680
-0.30267313 -0.036843814 -1.4185846 16711680
-0.30501816 -0.036121629 -1.4210535 16711680
-0.26430404 -0.03100119 -1.4193659 16711680
-0.26597545 -0.032879688 -1.4174839 16711680
-0.30155453 -0.0411264 -1.4209992 16711680
-0.30339524 -0.040407486 -1.4234445 16711680
-0.26512322 -0.037128501 -1.4198629 16711680
-0.29994243 -0.045277983 -1.4232987 16711680
-0.26513055 -0.041775607 -1.4220504 16711680
-0.26630896 -0.04513377 -1.4211019 16711680
-0.29515943 -0.051889867 -1.4239502 16711680
-0.29759091 -0.049254484 -1.4253128 16711680
-0.26530603 -0.045118831 -1.4244419 16711680
-0.26617086 -0.047639348 -1.4242562 16711680
-0.2936205 -0.054035291 -1.4269347 16711680
-0.29549426 -0.05209709 -1.4273592 16711680
-0.26737824 -0.051359519 -1.4267615 16711680
-0.26929638 -0.054331653 -1.4272054 16711680
-0.28738895 -0.058559336 -1.4289559 16711680
-0.29042795 -0.056772046 -1.4290148 16711680
-0.27121446 -0.055625193 -1.4285507 16711680
-0.27537566 -0.057578944 -1.4292835 16711680
-0.28023088 -0.058709413 -1.4297636 16711680
-0.28488812 -0.05881878 -1.4298806 16711680
-0.29478517 0.022770856 -1.3889955 16711680
-0.29842502 0.021863213 -1.3887875 16711680
-0.30228722 0.020968834 -1.3891711 16711680
-0.30553705 0.020248098 -1.3899817 16711680
-0.28377426 0.020727297 -1.3899294 16711680
-0.28762725 0.020420635 -1.3886806 16711680
-0.29243252 0.019866331 -1.3876442 16711680
-0.29733846 0.019305473 -1.3873386 16711680
-0.30236593 0.018131206 -1.3878328 16711680
-0.3070223 0.016576024 -1.3891652 16711680
-0.31114158 0.014947858 -1.390992 16711680
-0.31439334 0.013625169 -1.3929117 16711680
-0.27809373 0.017704895 -1.3914278 16711680
-0.28183174 0.01750982 -1.3896765 16711680
-0.2859191 0.017075242 -1.3878487 16711680
-0.2900582 0.016936624 -1.3865826 16711680
-0.30787972 0.012758991 -1.3883307 16711680
-0.31137186 0.011084635 -1.3903635 16711680
-0.3148706 0.0099065863 -1.3929808 16711680
-0.31762031 0.0087175863 -1.3951308 16711680
-0.27613193 0.01445468 -1.3919597 16711680
-0.27981591 0.013465801 -1.3898351 16711680
-0.28329635 0.013824249 -1.3878468 16711680
-0.31223482 0.0071900412 -1.3906901 16711680
-0.31483018 0.0052982597 -1.39333 16711680
-0.31802198 0.0047115944 -1.39605 16711680
-0.27091238 0.010970494 -1.3945351 16711680
-0.27428946 0.010284973 -1.3928684 16711680
-0.27761742 0.0089016017 -1.3909106 16711680
-0.31448838 0.00028701779 -1.394536 16711680
-0.31772092 0.0001867786 -1.3971626 16711680
-0.32061306 -0.00065135304 -1.3994129 16711680
-0.26948342 0.0069740554 -1.3959341 16711680
-0.27303672 0.0056223171 -1.3941798 16711680
-0.27563497 0.0042031938 -1.3926578 16711680
-0.3138577 -0.0047621429 -1.3964492 16711680
-0.31647304 -0.0045127664 -1.3984377 16711680
-0.3198446 -0.0046505388 -1.4007899 16711680
-0.26816988 0.0029759947 -1.3978317 16711680
-0.27179554 0.0011268035 -1.3961589 16711680
-0.27433169 -0.00023057219 -1.3946687 16711680
-0.31266132 -0.0092265913 -1.3984528 16711680
-0.31522888 -0.0089939833 -1.4004101 16711680
-0.31889471 -0.0087935142 -1.4027374 16711680
-0.26744482 -0.0010460587 -1.3999734 16711680
-0.27051148 -0.0029451624 -1.3987724 16711680
-0.27342674 -0.0050215684 -1.3972961 16711680
-0.31090471 -0.013747375 -1.4009709 16711680
-0.31407556 -0.013108517 -1.4030305 16711680
-0.31739607 -0.012669138 -1.4048421 16711680
-0.26735279 -0.0037585329 -1.4016012 16711680
-0.26975313 -0.0069174059 -1.4015733 16711680
-0.27302068 -0.0092382934 -1.3998735 16711680
-0.30893341 -0.017602013 -1.4033897 16711680
-0.31251833 -0.016852356 -1.4057339 16711680
-0.31599066 -0.015157636 -1.4064204 16711680
-0.26961625 -0.010871371 -1.4041985 16711680
-0.27259028 -0.013225839 -1.4027362 16711680
-0.27513266 -0.015986972 -1.4019589 16711680
-0.30374479 -0.022628108 -1.4047471 16711680
-0.30700073 -0.021289088 -1.4061279 16711680
-0.310388 -0.02028833 -1.408058 16711680
-0.2695922 -0.013832146 -1.4061974 16711680
-0.27207941 -0.017007086 -1.4057086 16711680
-0.27510834 -0.019350985 -1.4043133 16711680
-0.3017447 -0.025616551 -1.4069022 16711680
-0.30532134 -0.024751622 -1.4090176 16711680
-0.30871645 -0.023003196 -1.4100413 16711680
-0.27164775 -0.021226568 -1.4086078 16711680
-0.27501953 -0.023313602 -1.4068793 16711680
-0.27761337 -0.025552066 -1.4062847 16711680
-0.29659349 -0.029958423 -1.4081624 16711680
-0.29973063 -0.029114792 -1.4093659 16711680
-0.30331677 -0.028517013 -1.4116611 16711680
-0.27099642 -0.025779715 -1.4110955 16711680
-0.27416646 -0.027550751 -1.4094231 16711680
-0.27731487 -0.029038442 -1.4080981 16711680
-0.29495052 -0.033116661 -1.4098014 16711680
-0.2981683 -0.033086091 -1.4117616 16711680
-0.30137986 -0.032871582 -1.4140761 16711680
-0.26975429 -0.030214278 -1.4131578 16711680
-0.27281725 -0.03188394 -1.4113522 16711680
-0.27602807 -0.032997128 -1.4098866 16711680
-0.29401034 -0.03717155 -1.4116389 16711680
-0.29701149 -0.037547894 -1.4137007 16711680
-0.30015361 -0.037288792 -1.4161302 16711680
-0.26836947 -0.034629397 -1.4150227 16711680
-0.27108943 -0.036233485 -1.4129655 16711680
-0.27464265 -0.035676159 -1.4109603 16711680
-0.29385751 -0.040116251 -1.4128271 16711680
-0.29637229 -0.042136975 -1.4154471 16711680
-0.29909822 -0.04178682 -1.4180406 16711680
-0.26734769 -0.039067082 -1.4168063 16711680
-0.26931301 -0.040625446 -1.4147332 16711680
-0.2956844 -0.046784148 -1.4173281 16711680
-0.29771277 -0.046135254 -1.4197705 16711680
-0.26662156 -0.042587101 -1.418913 16711680
-0.26781392 -0.044961452 -1.4174559 16711680
-0.29463756 -0.051142417 -1.4200726 16711680
-0.29642457 -0.049534038 -1.421838 16711680
-0.26767731 -0.049225546 -1.420083 16711680
-0.29239959 -0.054928593 -1.4223881 16711680
-0.26839963 -0.053072393 -1.422067 16711680
-0.26970235 -0.055910252 -1.4226493 16711680
-0.287249 -0.059948862 -1.4242674 16711680
-0.28967124 -0.058040902 -1.4241349 16711680
-0.27166942 -0.057826631 -1.4240773 16711680
-0.27549934 -0.059712723 -1.4248155 16711680
-0.28002357 -0.060768262 -1.4252567 16711680
-0.28434312 -0.060784601 -1.4253178 16711680
-0.29298136 0.016578062 -1.3859898 16711680
-0.29707721 0.01576679 -1.3855878 16711680
-0.30140087 0.014708355 -1.3859926 16711680
-0.30491191 0.013830625 -1.3870641 16711680
-0.28690118 0.01378241 -1.3860933 16711680
-0.2910192 0.013719779 -1.3848335 16711680
-0.29595572 0.013058359 -1.3841501 16711680
-0.3013896 0.011844562 -1.3846966 16711680
-0.30600867 0.010233599 -1.3863448 16711680
-0.30938241 0.0084654409 -1.3883014 16711680
-0.28152919 0.010752572 -1.3881341 16711680
-0.28434122 0.010660967 -1.38597 16711680
-0.28814298 0.010698132 -1.3837916 16711680
-0.30731568 0.0061883312 -1.3856485 16711680
-0.3102327 0.0045827581 -1.3884752 16711680
-0.31231773 0.0035424167 -1.3911114 16711680
-0.27971125 0.006748925 -1.3886561 16711680
-0.28199187 0.0071532847 -1.3861254 16711680
-0.31075385 0.00038937479 -1.3889562 16711680
-0.312141 -0.00088425726 -1.3918988 16711680
-0.27751535 0.0026446236 -1.3906263 16711680
-0.31189138 -0.0053617386 -1.3939991 16711680
-0.27633932 -0.0018124916 -1.3926471 16711680
-0.31058785 -0.0098200068 -1.396015 16711680
-0.27594283 -0.0061156936 -1.3947941 16711680
-0.27770513 -0.0091864513 -1.3935618 16711680
-0.30605122 -0.015735464 -1.3963969 16711680
-0.30867648 -0.013723525 -1.3980093 16711680
-0.27552029 -0.010136272 -1.3976824 16711680
-0.27767891 -0.012249161 -1.396144 16711680
-0.30413991 -0.018475588 -1.3987163 16711680
-0.30682996 -0.017334301 -1.4007449 16711680
-0.27522895 -0.013303672 -1.4000188 16711680
-0.27771941 -0.016149975 -1.3992712 16711680
-0.28084919 -0.01901274 -1.3983134 16711680
-0.29798818 -0.0229811 -1.3998803 16711680
-0.30186978 -0.021789573 -1.401649 16711680
-0.3051717 -0.020290114 -1.4029582 16711680
-0.27761459 -0.01977988 -1.4023262 16711680
-0.28118655 -0.022054324 -1.4010919 16711680
-0.28538105 -0.024619455 -1.4009098 16711680
-0.2911306 -0.025952669 -1.4014684 16711680
-0.29590145 -0.025481015 -1.4025342 16711680
-0.2998687 -0.024921646 -1.4044987 16711680
-0.27752966 -0.023205232 -1.4048909 16711680
-0.28025082 -0.025476472 -1.4046243 16711680
-0.2848815 -0.027274925 -1.4038494 16711680
-0.28981912 -0.028483888 -1.404384 16711680
-0.29461631 -0.028869951 -1.4061084 16711680
-0.29792416 -0.027966691 -1.4069086 16711680
-0.2797077 -0.029901778 -1.4074223 16711680
-0.2839531 -0.031129256 -1.4068221 16711680
-0.28843126 -0.032176673 -1.4072636 16711680
-0.2925849 -0.032906957 -1.4086843 16711680
-0.27810806 -0.034473307 -1.4094888 16711680
-0.28249454 -0.035941064 -1.4089885 16711680
-0.28719181 -0.037032373 -1.4094471 16711680
-0.29160962 -0.037623174 -1.4108117 16711680
-0.27313 -0.038735896 -1.4118947 16711680
-0.27634519 -0.039041825 -1.4107102 16711680
-0.2810427 -0.040532008 -1.4100782 16711680
-0.28626323 -0.041735262 -1.4105877 16711680
-0.29097173 -0.042465277 -1.4121635 16711680
-0.29379886 -0.043270297 -1.4138989 16711680
-0.27148536 -0.042359941 -1.4129032 16711680
-0.27503812 -0.043943033 -1.4111869 16711680
-0.28009006 -0.044862255 -1.4104007 16711680
-0.2851986 -0.046028987 -1.4109107 16711680
-0.28984857 -0.047392458 -1.4126407 16711680
-0.29334676 -0.047455274 -1.4150443 16711680
-0.27023017 -0.04720632 -1.413929 16711680
-0.27275166 -0.047659561 -1.4117128 16711680
-0.29013631 -0.051709332 -1.4134207 16711680
-0.29217124 -0.052291542 -1.4160941 16711680
-0.26947075 -0.051327765 -1.4159898 16711680
-0.27033508 -0.053242184 -1.4145058 16711680
-0.2892884 -0.057677582 -1.4163996 16711680
-0.29061228 -0.056267999 -1.4180634 16711680
-0.26937401 -0.054093353 -1.4182739 16711680
-0.27059329 -0.057147622 -1.4179325 16711680
-0.28672582 -0.060909458 -1.4195209 16711680
-0.28913936 -0.058605544 -1.4201487 16711680
-0.27221528 -0.059653729 -1.4198091 16711680
-0.27513617 -0.061462484 -1.4198676 16711680
-0.28047836 -0.062708579 -1.4203887 16711680
-0.28377953 -0.06238696 -1.4209437 16711680
-0.29142359 0.010105146 -1.3826064 16711680
-0.295672 0.0093220863 -1.3819332 16711680
-0.3004069 0.0081858821 -1.3823744 16711680
-0.30439529 0.0070884991 -1.3838835 16711680
-0.28552586 0.0074538505 -1.3828664 16711680
-0.28956169 0.0080957664 -1.3814576 16711680
-0.29434004 0.0072167953 -1.380228 16711680
-0.30097535 0.0056727752 -1.380878 16711680
-0.30535215 0.0044023776 -1.3829921 16711680
-0.30836689 0.0021493025 -1.3851185 16711680
-0.28058332 0.0032629119 -1.3849766 16711680
-0.2824249 0.0048221909 -1.3834573 16711680
-0.30984208 -0.0015825992 -1.3861452 16711680
-0.31048051 -0.0035012001 -1.387807 16711680
-0.27908394 0.00026411284 -1.3859003 16711680
-0.31033692 -0.0070204716 -1.3888732 16711680
-0.27798867 -0.0042933607 -1.3881196 16711680
-0.30887797 -0.011531319 -1.391138 16711680
-0.27797204 -0.0071181348 -1.3901362 16711680
-0.27855033 -0.0095851664 -1.3903538 16711680
-0.30566213 -0.015906058 -1.3930044 16711680
-0.30732679 -0.01393974 -1.3929322 16711680
-0.27982044 -0.013637795 -1.3927243 16711680
-0.28167433 -0.016593952 -1.392517 16711680
-0.29951707 -0.02068634 -1.3941787 16711680
-0.30232283 -0.018896893 -1.3949381 16711680
-0.28023368 -0.016361289 -1.3960394 16711680
-0.28278989 -0.019007739 -1.3952519 16711680
-0.2866852 -0.022028016 -1.3952216 16711680
-0.29212669 -0.023298899 -1.3957814 16711680
-0.29689312 -0.022299727 -1.3966327 16711680
-0.30037367 -0.020806966 -1.397759 16711680
-0.28353545 -0.021644318 -1.3984948 16711680
-0.28668609 -0.023429239 -1.3984143 16711680
-0.29101628 -0.024455275 -1.3989062 16711680
-0.2944715 -0.024189366 -1.3995548 16711680
-0.27621299 -0.047147118 -1.4104599 16711680
-0.27990606 -0.047678694 -1.4101983 16711680
-0.28412026 -0.048654109 -1.4106116 16711680
-0.28752583 -0.049797133 -1.4115645 16711680
-0.27408099 -0.050487623 -1.4100631 16711680
-0.27881688 -0.050896242 -1.4091686 16711680
-0.28384206 -0.052102916 -1.4096476 16711680
-0.28796899 -0.053681001 -1.4113896 16711680
-0.27189347 -0.054382436 -1.4113044 16711680
-0.28799126 -0.058190212 -1.4128751 16711680
-0.2720072 -0.058918796 -1.4136945 16711680
-0.2739332 -0.062173374 -1.4132544 16711680
-0.28222981 -0.06421645 -1.4139373 16711680
-0.28541693 -0.062122859 -1.4150081 16711680
-0.27297258 -0.06119296 -1.4161962 16711680
-0.27567211 -0.062915735 -1.4154499 16711680
-0.28018743 -0.063969344 -1.4158928 16711680
-0.28319722 -0.063566938 -1.4171802 16711680
-0.29724491 0.0064102234 -1.379908 16711680
-0.29841968 0.006173416 -1.3800927 16711680
-0.28558129 0.0044690575 -1.3781517 16711680
-0.29003108 0.0055066999 -1.3778604 16711680
-0.29486173 0.0054279938 -1.3778307 16711680
-0.30019975 0.0041890685 -1.37836 16711680
-0.30446109 0.0021459553 -1.3792641 16711680
-0.30788636 -0.00074134581 -1.3803211 16711680
-0.28028935 0.0011072643 -1.3793455 16711680
-0.28255594 0.003034018 -1.3794131 16711680
-0.3096557 -0.0032520685 -1.3820715 16711680
-0.31089917 -0.006149821 -1.3822761 16711680
-0.27821186 -0.0018352531 -1.3811833 16711680
-0.31104571 -0.0094902692 -1.3844048 16711680
-0.27718332 -0.006463266 -1.3834267 16711680
-0.30951393 -0.01400244 -1.38659 16711680
-0.27730191 -0.010236226 -1.384369 16711680
-0.27842036 -0.011903757 -1.3864398 16711680
-0.30552357 -0.01810837 -1.389136 16711680
-0.30751628 -0.01727066 -1.3874277 16711680
-0.27970403 -0.015964102 -1.3873532 16711680
-0.28173342 -0.017911568 -1.3895286 16711680
-0.29936346 -0.02202337 -1.3912576 16711680
-0.30242643 -0.021221522 -1.3895859 16711680
-0.28041163 -0.01988003 -1.3871311 16711680
-0.2832157 -0.021144355 -1.3895856 16711680
-0.28680444 -0.023439625 -1.3912562 16711680
-0.29214221 -0.024623487 -1.3918601 16711680
-0.29669911 -0.024210168 -1.3909166 16711680
-0.30013201 -0.02452312 -1.3890221 16711680
-0.28770962 -0.026244706 -1.3899721 16711680
-0.29039282 -0.026863005 -1.3902335 16711680
-0.27514812 -0.05391676 -1.4076874 16711680
-0.27845994 -0.054612331 -1.4069579 16711680
-0.28292453 -0.055661961 -1.407387 16711680
-0.28600025 -0.056425497 -1.408756 16711680
-0.27400705 -0.056661308 -1.4079146 16711680
-0.27702576 -0.057723373 -1.4057771 16711680
-0.28297621 -0.059020154 -1.4063438 16711680
-0.28576314 -0.05941578 -1.4090447 16711680
-0.27351037 -0.059996843 -1.4096973 16711680
-0.27590904 -0.062635526 -1.4093102 16711680
-0.28122649 -0.063880093 -1.409826 16711680
-0.28443989 -0.062556826 -1.4108741 16711680
-0.27666035 -0.063798763 -1.4125477 16711680
-0.27943954 -0.064449459 -1.4128201 16711680
-0.28732187 0.0050409567 -1.3704855 16711680
-0.2909542 0.0052400958 -1.3712174 16711680
-0.29568139 0.004849745 -1.3720345 16711680
-0.3003011 0.0037696697 -1.3724947 16711680
-0.30471483 0.0020392668 -1.372577 16711680
-0.30791384 0.00035258569 -1.3723186 16711680
-0.28140253 0.0025218818 -1.3720827 16711680
-0.28476366 0.0038665831 -1.3730581 16711680
-0.2896097 0.0047858525 -1.3738449 16711680
-0.29482144 0.0045900121 -1.3749584 16711680
-0.30044043 0.0032751821 -1.3755182 16711680
-0.30522668 0.0011415128 -1.3754697 16711680
-0.30928025 -0.0018532779 -1.3754627 16711680
-0.31183702 -0.0045875963 -1.37507 16711680
-0.27912825 0.0004107058 -1.3746605 16711680
-0.28222537 0.0025383737 -1.3759747 16711680
-0.31040615 -0.0040688906 -1.3787957 16711680
-0.3124463 -0.0074363705 -1.3779606 16711680
-0.27489468 -0.0048010331 -1.3747231 16711680
-0.27635044 -0.0033676904 -1.3767844 16711680
-0.3128064 -0.011876157 -1.3803931 16711680
-0.3137871 -0.014178656 -1.3787471 16711680
-0.27396798 -0.0080959368 -1.376272 16711680
-0.27517352 -0.0078657549 -1.3789778 16711680
-0.31148049 -0.016335947 -1.3825388 16711680
-0.31292251 -0.017224377 -1.380115 16711680
-0.27524987 -0.012697032 -1.3809445 16711680
-0.27726945 -0.014210721 -1.3841208 16711680
-0.30594769 -0.020888615 -1.3868972 16711680
-0.30899629 -0.020540796 -1.3841873 16711680
-0.27538556 -0.017213438 -1.3818551 16711680
-0.27761906 -0.018174153 -1.384431 16711680
-0.30380231 -0.024252366 -1.3870115 16711680
-0.30667567 -0.024492729 -1.384921 16711680
-0.27545407 -0.020922752 -1.3821939 16711680
-0.2781432 -0.022480404 -1.3847566 16711680
-0.28147069 -0.023840833 -1.3872796 16711680
-0.28554723 -0.025600143 -1.3893608 16711680
-0.29267856 -0.027228383 -1.3900719 16711680
-0.29736552 -0.027565625 -1.3888534 16711680
-0.30139717 -0.027902517 -1.3870368 16711680
-0.3049351 -0.027777078 -1.3850768 16711680
-0.27881962 -0.026437055 -1.384954 16711680
-0.28189939 -0.027711904 -1.3867366 16711680
-0.28604525 -0.029159356 -1.3883249 16711680
-0.29083744 -0.030276844 -1.388799 16711680
-0.2953845 -0.030791409 -1.3881071 16711680
-0.29903558 -0.031162934 -1.3869343 16711680
-0.28783411 -0.033021167 -1.3874753 16711680
-0.2782062 -0.060021713 -1.4053218 16711680
-0.28119001 -0.060860038 -1.4056562 16711680
-0.27786931 -0.062099047 -1.406356 16711680
-0.28027886 -0.06266436 -1.4065952 16711680
-0.29818311 0.0093498584 -1.3622477 16711680
-0.30140913 0.0086143706 -1.3625777 16711680
-0.28869045 0.0074672233 -1.3637059 16711680
-0.29231191 0.0081339944 -1.3640206 16711680
-0.29691377 0.0076825861 -1.364885 16711680
-0.30182415 0.0065570772 -1.3653293 16711680
-0.30619216 0.0048495624 -1.3654372 16711680
-0.30913013 0.0026853774 -1.365729 16711680
-0.28282592 0.004143374 -1.3657235 16711680
-0.28619152 0.0056397114 -1.3664629 16711680
-0.2909655 0.0063259527 -1.3675275 16711680
-0.29583663 0.0059107561 -1.3683413 16711680
-0.30127397 0.0046674609 -1.368816 16711680
-0.30591175 0.0028433464 -1.368989 16711680
