# .PCD v0.7 - Point Cloud Data file format
VERSION 0.7
FIELDS x y z rgb
SIZE 4 4 4 4
TYPE F F F U
COUNT 1 1 1 1
WIDTH 1251
HEIGHT 1
VIEWPOINT 0 0 0 1 0 0 0
POINTS 1251
DATA ascii
0.36404201 0.066189401 -1.41944 65280
0.366799 0.066189401 -1.41944 65280
0.36955699 0.066189401 -1.41944 65280
0.37231499 0.066189401 -1.41944 65280
0.37507299 0.066189401 -1.41944 65280
0.37783101 0.066189401 -1.41944 65280
0.38058901 0.066189401 -1.41944 65280
0.383347 0.066189401 -1.41944 65280
0.386105 0.066189401 -1.41944 65280
0.388863 0.066189401 -1.41944 65280
0.39162001 0.066189401 -1.41944 65280
0.39437801 0.066189401 -1.41944 65280
0.397136 0.066189401 -1.41944 65280
-0.39954001 0.068886198 -1.41818 65280
-0.39678499 0.068886198 -1.41818 65280
-0.39402899 0.068886198 -1.41818 65280
-0.39127401 0.068886198 -1.41818 65280
-0.38851801 0.068886198 -1.41818 65280
-0.38576299 0.068886198 -1.41818 65280
-0.38300699 0.068886198 -1.41818 65280
-0.380252 0.068886198 -1.41818 65280
-0.377496 0.068886198 -1.41818 65280
-0.37474099 0.068886198 -1.41818 65280
-0.371986 0.068886198 -1.41818 65280
-0.36923 0.068886198 -1.41818 65280
-0.36647499 0.068886198 -1.41818 65280
-0.36371899 0.068886198 -1.41818 65280
-0.360964 0.068886198 -1.41818 65280
-0.358208 0.068886198 -1.41818 65280
-0.35545301 0.068886198 -1.41818 65280
-0.35269701 0.068886198 -1.41818 65280
-0.349942 0.068886198 -1.41818 65280
-0.34718701 0.068886198 -1.41818 65280
-0.34443101 0.068886198 -1.41818 65280
-0.341676 0.068886198 -1.41818 65280
-0.33892 0.068886198 -1.41818 65280
-0.33616501 0.068886198 -1.41818 65280
-0.33340901 0.068886198 -1.41818 65280
-0.330654 0.068886198 -1.41818 65280
-0.327898 0.068886198 -1.41818 65280
-0.32514301 0.068886198 -1.41818 65280
-0.32238799 0.068886198 -1.41818 65280
-0.31963199 0.068886198 -1.41818 65280
-0.31687701 0.068886198 -1.41818 65280
-0.31412101 0.068886198 -1.41818 65280
-0.31136599 0.068886198 -1.41818 65280
-0.30860999 0.068886198 -1.41818 65280
-0.30585501 0.068886198 -1.41818 65280
-0.30309901 0.068886198 -1.41818 65280
-0.30034399 0.068886198 -1.41818 65280
-0.29758799 0.068886198 -1.41818 65280
-0.294833 0.068886198 -1.41818 65280
-0.29207799 0.068886198 -1.41818 65280
-0.28932199 0.068886198 -1.41818 65280
-0.286567 0.068886198 -1.41818 65280
-0.283811 0.068886198 -1.41818 65280
-0.28105599 0.068886198 -1.41818 65280
-0.27829999 0.068886198 -1.41818 65280
-0.275545 0.068886198 -1.41818 65280
-0.272789 0.068886198 -1.41818 65280
-0.27003399 0.068886198 -1.41818 65280
-0.267279 0.068886198 -1.41818 65280
-0.264523 0.068886198 -1.41818 65280
-0.26176801 0.068886198 -1.41818 65280
-0.25901201 0.068886198 -1.41818 65280
-0.256257 0.068886198 -1.41818 65280
-0.253501 0.068886198 -1.41818 65280
-0.25074601 0.068886198 -1.41818 65280
-0.24799 0.068886198 -1.41818 65280
-0.245235 0.068886198 -1.41818 65280
-0.242479 0.068886198 -1.41818 65280
-0.239724 0.068886198 -1.41818 65280
-0.23696899 0.068886198 -1.41818 65280
-0.23421299 0.068886198 -1.41818 65280
-0.23145799 0.068886198 -1.41818 65280
-0.22870199 0.068886198 -1.41818 65280
-0.22594699 0.068886198 -1.41818 65280
-0.22319099 0.068886198 -1.41818 65280
-0.22043601 0.068886198 -1.41818 65280
-0.21768001 0.068886198 -1.41818 65280
-0.21492501 0.068886198 -1.41818 65280
-0.21217 0.068886198 -1.41818 65280
-0.20941401 0.068886198 -1.41818 65280
-0.206659 0.068886198 -1.41818 65280
-0.203903 0.068886198 -1.41818 65280
-0.201148 0.068886198 -1.41818 65280
-0.198392 0.068886198 -1.41818 65280
-0.195637 0.068886198 -1.41818 65280
-0.192881 0.068886198 -1.41818 65280
-0.190126 0.068886198 -1.41818 65280
-0.187371 0.068886198 -1.41818 65280
-0.184615 0.068886198 -1.41818 65280
-0.18186 0.068886198 -1.41818 65280
-0.179104 0.068886198 -1.41818 65280
-0.176349 0.068886198 -1.41818 65280
-0.173593 0.068886198 -1.41818 65280
-0.170838 0.068886198 -1.41818 65280
-0.168082 0.068886198 -1.41818 65280
-0.165327 0.068886198 -1.41818 65280
-0.162571 0.068886198 -1.41818 65280
-0.159816 0.068886198 -1.41818 65280
-0.157061 0.068886198 -1.41818 65280
-0.154305 0.068886198 -1.41818 65280
-0.15154999 0.068886198 -1.41818 65280
-0.148794 0.068886198 -1.41818 65280
-0.14603899 0.068886198 -1.41818 65280
-0.14328299 0.068886198 -1.41818 65280
-0.14052799 0.068886198 -1.41818 65280
-0.13777199 0.068886198 -1.41818 65280
-0.13501699 0.068886198 -1.41818 65280
-0.13226201 0.068886198 -1.41818 65280
-0.12950601 0.068886198 -1.41818 65280
-0.12675101 0.068886198 -1.41818 65280
-0.123995 0.068886198 -1.41818 65280
-0.12124 0.068886198 -1.41818 65280
-0.114811 0.0667504 -1.37421 65280
-0.11137 0.066291399 -1.36476 65280
-0.108354 0.066069402 -1.36019 65280
-0.105528 0.065954998 -1.35783 65280
-0.102807 0.065902203 -1.35675 65280
-0.100226 0.065938197 -1.3574899 65280
-0.097745501 0.066044301 -1.35967 65280
-0.095295697 0.066177599 -1.3624099 65280
-0.092857398 0.0663267 -1.36549 65280
-0.090401597 0.0664718 -1.36847 65280
-0.087921001 0.066606797 -1.37125 65280
-0.085423097 0.066736802 -1.37393 65280
-0.0829188 0.066869996 -1.37667 65280
-0.080401398 0.067001201 -1.37937 65280
-0.0778635 0.067123704 -1.3818901 65280
-0.075245999 0.067184001 -1.38313 65280
-0.072639197 0.0672585 -1.38467 65280
-0.0700569 0.067362398 -1.3868099 65280
-0.067476898 0.067476898 -1.38916 65280
-0.064908199 0.0676127 -1.39196 65280
-0.062475599 0.067908198 -1.39805 65280
-0.060619898 0.068886198 -1.41818 65280
-0.057864401 0.068886198 -1.41818 65280
-0.055109002 0.068886198 -1.41818 65280
-0.052353501 0.068886198 -1.41818 65280
-0.049598102 0.068886198 -1.41818 65280
-0.046842601 0.068886198 -1.41818 65280
-0.044087201 0.068886198 -1.41818 65280
-0.041331701 0.068886198 -1.41818 65280
-0.038576301 0.068886198 -1.41818 65280
-0.035820801 0.068886198 -1.41818 65280
-0.033065401 0.068886198 -1.41818 65280
-0.030309901 0.068886198 -1.41818 65280
-0.027554501 0.068886198 -1.41818 65280
-0.024799 0.068886198 -1.41818 65280
-0.022043601 0.068886198 -1.41818 65280
-0.0192881 0.068886198 -1.41818 65280
-0.016532701 0.068886198 -1.41818 65280
-0.0137772 0.068886198 -1.41818 65280
-0.0110218 0.068886198 -1.41818 65280
-0.0082663503 0.068886198 -1.41818 65280
-0.0055109002 0.068886198 -1.41818 65280
-0.0027554501 0.068886198 -1.41818 65280
0 0.068886198 -1.41818 65280
0.0027554501 0.068886198 -1.41818 65280
0.0055109002 0.068886198 -1.41818 65280
0.0082663503 0.068886198 -1.41818 65280
0.0110218 0.068886198 -1.41818 65280
0.0137772 0.068886198 -1.41818 65280
0.016532701 0.068886198 -1.41818 65280
0.0192881 0.068886198 -1.41818 65280
0.022043601 0.068886198 -1.41818 65280
0.024799 0.068886198 -1.41818 65280
0.027554501 0.068886198 -1.41818 65280
0.030309901 0.068886198 -1.41818 65280
0.033065401 0.068886198 -1.41818 65280
0.035820801 0.068886198 -1.41818 65280
0.038576301 0.068886198 -1.41818 65280
0.041331701 0.068886198 -1.41818 65280
0.044087201 0.068886198 -1.41818 65280
0.046842601 0.068886198 -1.41818 65280
0.049598102 0.068886198 -1.41818 65280
0.052353501 0.068886198 -1.41818 65280
0.055109002 0.068886198 -1.41818 65280
0.057864401 0.068886198 -1.41818 65280
0.060619898 0.068886198 -1.41818 65280
0.063375302 0.068886198 -1.41818 65280
0.066130802 0.068886198 -1.41818 65280
0.068886198 0.068886198 -1.41818 65280
0.071641698 0.068886198 -1.41818 65280
0.074397102 0.068886198 -1.41818 65280
0.077152602 0.068886198 -1.41818 65280
0.079907998 0.068886198 -1.41818 65280
0.082663499 0.068886198 -1.41818 65280
0.085418902 0.068886198 -1.41818 65280
0.088174403 0.068886198 -1.41818 65280
0.090929799 0.068886198 -1.41818 65280
0.093685299 0.068886198 -1.41818 65280
0.096440703 0.068886198 -1.41818 65280
0.099196203 0.068886198 -1.41818 65280
0.101952 0.068886198 -1.41818 65280
0.104707 0.068886198 -1.41818 65280
0.107463 0.068886198 -1.41818 65280
0.110218 0.068886198 -1.41818 65280
0.112973 0.068886198 -1.41818 65280
0.115729 0.068886198 -1.41818 65280
0.118484 0.068886198 -1.41818 65280
0.12124 0.068886198 -1.41818 65280
0.123995 0.068886198 -1.41818 65280
0.12675101 0.068886198 -1.41818 65280
0.12950601 0.068886198 -1.41818 65280
0.13226201 0.068886198 -1.41818 65280
0.13501699 0.068886198 -1.41818 65280
0.13777199 0.068886198 -1.41818 65280
0.14052799 0.068886198 -1.41818 65280
0.14328299 0.068886198 -1.41818 65280
0.14603899 0.068886198 -1.41818 65280
0.148794 0.068886198 -1.41818 65280
0.15154999 0.068886198 -1.41818 65280
0.154305 0.068886198 -1.41818 65280
0.157061 0.068886198 -1.41818 65280
0.159816 0.068886198 -1.41818 65280
0.162571 0.068886198 -1.41818 65280
0.165327 0.068886198 -1.41818 65280
0.168082 0.068886198 -1.41818 65280
0.170838 0.068886198 -1.41818 65280
0.173593 0.068886198 -1.41818 65280
0.176349 0.068886198 -1.41818 65280
0.179104 0.068886198 -1.41818 65280
0.18186 0.068886198 -1.41818 65280
0.184615 0.068886198 -1.41818 65280
0.187371 0.068886198 -1.41818 65280
0.190126 0.068886198 -1.41818 65280
0.192881 0.068886198 -1.41818 65280
0.195637 0.068886198 -1.41818 65280
0.198392 0.068886198 -1.41818 65280
0.201148 0.068886198 -1.41818 65280
0.203903 0.068886198 -1.41818 65280
0.206659 0.068886198 -1.41818 65280
0.20941401 0.068886198 -1.41818 65280
0.21217 0.068886198 -1.41818 65280
0.21492501 0.068886198 -1.41818 65280
0.21768001 0.068886198 -1.41818 65280
0.22043601 0.068886198 -1.41818 65280
0.22319099 0.068886198 -1.41818 65280
0.22594699 0.068886198 -1.41818 65280
0.22870199 0.068886198 -1.41818 65280
0.23145799 0.068886198 -1.41818 65280
0.23421299 0.068886198 -1.41818 65280
0.23696899 0.068886198 -1.41818 65280
0.239724 0.068886198 -1.41818 65280
0.242479 0.068886198 -1.41818 65280
0.245235 0.068886198 -1.41818 65280
0.24799 0.068886198 -1.41818 65280
0.25074601 0.068886198 -1.41818 65280
0.253501 0.068886198 -1.41818 65280
0.256257 0.068886198 -1.41818 65280
0.25901201 0.068886198 -1.41818 65280
0.26176801 0.068886198 -1.41818 65280
0.264523 0.068886198 -1.41818 65280
0.267279 0.068886198 -1.41818 65280
0.27003399 0.068886198 -1.41818 65280
0.272789 0.068886198 -1.41818 65280
0.275545 0.068886198 -1.41818 65280
0.27829999 0.068886198 -1.41818 65280
0.28105599 0.068886198 -1.41818 65280
0.283811 0.068886198 -1.41818 65280
0.286567 0.068886198 -1.41818 65280
0.28932199 0.068886198 -1.41818 65280
0.29207799 0.068886198 -1.41818 65280
0.294833 0.068886198 -1.41818 65280
0.29758799 0.068886198 -1.41818 65280
0.30034399 0.068886198 -1.41818 65280
0.30309901 0.068886198 -1.41818 65280
0.30585501 0.068886198 -1.41818 65280
0.30860999 0.068886198 -1.41818 65280
0.31136599 0.068886198 -1.41818 65280
0.31412101 0.068886198 -1.41818 65280
0.31687701 0.068886198 -1.41818 65280
0.31963199 0.068886198 -1.41818 65280
0.32238799 0.068886198 -1.41818 65280
0.32514301 0.068886198 -1.41818 65280
0.327898 0.068886198 -1.41818 65280
0.330654 0.068886198 -1.41818 65280
0.33340901 0.068886198 -1.41818 65280
0.33616501 0.068886198 -1.41818 65280
0.33892 0.068886198 -1.41818 65280
0.341676 0.068886198 -1.41818 65280
0.34443101 0.068886198 -1.41818 65280
0.34718701 0.068886198 -1.41818 65280
0.349942 0.068886198 -1.41818 65280
0.35269701 0.068886198 -1.41818 65280
0.35545301 0.068886198 -1.41818 65280
0.358208 0.068886198 -1.41818 65280
0.360964 0.068886198 -1.41818 65280
0.36371899 0.068886198 -1.41818 65280
0.36647499 0.068886198 -1.41818 65280
0.36923 0.068886198 -1.41818 65280
0.371986 0.068886198 -1.41818 65280
0.37474099 0.068886198 -1.41818 65280
0.377496 0.068886198 -1.41818 65280
0.380252 0.068886198 -1.41818 65280
0.38300699 0.068886198 -1.41818 65280
0.38576299 0.068886198 -1.41818 65280
0.38851801 0.068886198 -1.41818 65280
0.39127401 0.068886198 -1.41818 65280
0.39402899 0.068886198 -1.41818 65280
0.39678499 0.068886198 -1.41818 65280
-0.399187 0.071578301 -1.4169199 65280
-0.39643401 0.071578301 -1.4169199 65280
-0.39368099 0.071578301 -1.4169199 65280
-0.390928 0.071578301 -1.4169199 65280
-0.38817501 0.071578301 -1.4169199 65280
-0.38542199 0.071578301 -1.4169199 65280
-0.382669 0.071578301 -1.4169199 65280
-0.37991601 0.071578301 -1.4169199 65280
-0.37716299 0.071578301 -1.4169199 65280
-0.37441 0.071578301 -1.4169199 65280
-0.37165701 0.071578301 -1.4169199 65280
-0.36890399 0.071578301 -1.4169199 65280
-0.36614999 0.071578301 -1.4169199 65280
-0.363397 0.071578301 -1.4169199 65280
-0.36064401 0.071578301 -1.4169199 65280
-0.35789099 0.071578301 -1.4169199 65280
-0.355138 0.071578301 -1.4169199 65280
-0.35238501 0.071578301 -1.4169199 65280
-0.34963199 0.071578301 -1.4169199 65280
-0.34687901 0.071578301 -1.4169199 65280
-0.34412599 0.071578301 -1.4169199 65280
-0.341373 0.071578301 -1.4169199 65280
-0.33862001 0.071578301 -1.4169199 65280
-0.33586699 0.071578301 -1.4169199 65280
-0.333114 0.071578301 -1.4169199 65280
-0.33036101 0.071578301 -1.4169199 65280
-0.32760799 0.071578301 -1.4169199 65280
-0.324855 0.071578301 -1.4169199 65280
-0.32210201 0.071578301 -1.4169199 65280
-0.31934899 0.071578301 -1.4169199 65280
-0.316596 0.071578301 -1.4169199 65280
-0.31384301 0.071578301 -1.4169199 65280
-0.31108999 0.071578301 -1.4169199 65280
-0.308337 0.071578301 -1.4169199 65280
-0.30558401 0.071578301 -1.4169199 65280
-0.30283099 0.071578301 -1.4169199 65280
-0.300078 0.071578301 -1.4169199 65280
-0.29732499 0.071578301 -1.4169199 65280
-0.294572 0.071578301 -1.4169199 65280
-0.29181901 0.071578301 -1.4169199 65280
-0.28906599 0.071578301 -1.4169199 65280
-0.286313 0.071578301 -1.4169199 65280
-0.28356001 0.071578301 -1.4169199 65280
-0.28080699 0.071578301 -1.4169199 65280
-0.278054 0.071578301 -1.4169199 65280
-0.27530101 0.071578301 -1.4169199 65280
-0.27254799 0.071578301 -1.4169199 65280
-0.269795 0.071578301 -1.4169199 65280
-0.26704201 0.071578301 -1.4169199 65280
-0.26428899 0.071578301 -1.4169199 65280
-0.261536 0.071578301 -1.4169199 65280
-0.25878301 0.071578301 -1.4169199 65280
-0.25602999 0.071578301 -1.4169199 65280
-0.253277 0.071578301 -1.4169199 65280
-0.25052401 0.071578301 -1.4169199 65280
-0.24777099 0.071578301 -1.4169199 65280
-0.24501801 0.071578301 -1.4169199 65280
-0.242265 0.071578301 -1.4169199 65280
-0.239512 0.071578301 -1.4169199 65280
-0.23675901 0.071578301 -1.4169199 65280
-0.234006 0.071578301 -1.4169199 65280
-0.231253 0.071578301 -1.4169199 65280
-0.22849999 0.071578301 -1.4169199 65280
-0.225747 0.071578301 -1.4169199 65280
-0.222994 0.071578301 -1.4169199 65280
-0.220241 0.071578301 -1.4169199 65280
-0.21748801 0.071578301 -1.4169199 65280
-0.214735 0.071578301 -1.4169199 65280
-0.211982 0.071578301 -1.4169199 65280
-0.20922901 0.071578301 -1.4169199 65280
-0.206476 0.071578301 -1.4169199 65280
-0.203723 0.071578301 -1.4169199 65280
-0.20096999 0.071578301 -1.4169199 65280
-0.198217 0.071578301 -1.4169199 65280
-0.195464 0.071578301 -1.4169199 65280
-0.192711 0.071578301 -1.4169199 65280
-0.18995801 0.071578301 -1.4169199 65280
-0.187205 0.071578301 -1.4169199 65280
-0.184452 0.071578301 -1.4169199 65280
-0.18169899 0.071578301 -1.4169199 65280
-0.178946 0.071578301 -1.4169199 65280
-0.176193 0.071578301 -1.4169199 65280
-0.17343999 0.071578301 -1.4169199 65280
-0.170687 0.071578301 -1.4169199 65280
-0.167934 0.071578301 -1.4169199 65280
-0.165181 0.071578301 -1.4169199 65280
-0.16242801 0.071578301 -1.4169199 65280
-0.159675 0.071578301 -1.4169199 65280
-0.156922 0.071578301 -1.4169199 65280
-0.15416899 0.071578301 -1.4169199 65280
-0.151416 0.071578301 -1.4169199 65280
-0.148663 0.071578301 -1.4169199 65280
-0.14590999 0.071578301 -1.4169199 65280
-0.14315701 0.071578301 -1.4169199 65280
-0.140404 0.071578301 -1.4169199 65280
-0.137651 0.071578301 -1.4169199 65280
-0.13489801 0.071578301 -1.4169199 65280
-0.132145 0.071578301 -1.4169199 65280
-0.129392 0.071578301 -1.4169199 65280
-0.12663899 0.071578301 -1.4169199 65280
-0.123886 0.071578301 -1.4169199 65280
-0.121132 0.071578301 -1.4169199 65280
-0.115365 0.069755398 -1.3808399 65280
-0.111855 0.069243498 -1.37071 65280
-0.108754 0.068966202 -1.36522 65280
-0.105862 0.068810403 -1.36213 65280
-0.10308 0.068720303 -1.36035 65280
-0.100451 0.068729296 -1.36053 65280
-0.097924501 0.068811797 -1.36216 65280
-0.095452003 0.0689376 -1.36465 65280
-0.092990503 0.069078699 -1.36744 65280
-0.090514198 0.069216698 -1.37018 65280
-0.088026598 0.069354303 -1.3729 65280
-0.085526899 0.069490597 -1.3756 65280
-0.0830158 0.0696261 -1.37828 65280
-0.080492899 0.069760501 -1.38094 65280
-0.077934504 0.069872297 -1.38315 65280
-0.075306498 0.069927499 -1.38425 65280
-0.072712198 0.0700192 -1.38606 65280
-0.070139401 0.070139401 -1.38844 65280
-0.067579001 0.070282198 -1.39127 65280
-0.065157898 0.070587799 -1.39732 65280
-0.063319303 0.071578301 -1.4169199 65280
-0.060566202 0.071578301 -1.4169199 65280
-0.057813201 0.071578301 -1.4169199 65280
-0.0550602 0.071578301 -1.4169199 65280
-0.0523072 0.071578301 -1.4169199 65280
-0.049554199 0.071578301 -1.4169199 65280
-0.046801198 0.071578301 -1.4169199 65280
-0.044048201 0.071578301 -1.4169199 65280
-0.041295201 0.071578301 -1.4169199 65280
-0.0385422 0.071578301 -1.4169199 65280
-0.035789099 0.071578301 -1.4169199 65280
-0.033036102 0.071578301 -1.4169199 65280
-0.030283101 0.071578301 -1.4169199 65280
-0.0275301 0.071578301 -1.4169199 65280
-0.024777099 0.071578301 -1.4169199 65280
-0.022024101 0.071578301 -1.4169199 65280
-0.0192711 0.071578301 -1.4169199 65280
-0.016518099 0.071578301 -1.4169199 65280
-0.0137651 0.071578301 -1.4169199 65280
-0.011012 0.071578301 -1.4169199 65280
-0.0082590301 0.071578301 -1.4169199 65280
-0.00550602 0.071578301 -1.4169199 65280
-0.00275301 0.071578301 -1.4169199 65280
0 0.071578301 -1.4169199 65280
0.00275301 0.071578301 -1.4169199 65280
0.00550602 0.071578301 -1.4169199 65280
0.0082590301 0.071578301 -1.4169199 65280
0.011012 0.071578301 -1.4169199 65280
0.0137651 0.071578301 -1.4169199 65280
0.016518099 0.071578301 -1.4169199 65280
0.0192711 0.071578301 -1.4169199 65280
0.022024101 0.071578301 -1.4169199 65280
0.024777099 0.071578301 -1.4169199 65280
0.0275301 0.071578301 -1.4169199 65280
0.030283101 0.071578301 -1.4169199 65280
0.033036102 0.071578301 -1.4169199 65280
0.035789099 0.071578301 -1.4169199 65280
0.0385422 0.071578301 -1.4169199 65280
0.041295201 0.071578301 -1.4169199 65280
0.044048201 0.071578301 -1.4169199 65280
0.046801198 0.071578301 -1.4169199 65280
0.049554199 0.071578301 -1.4169199 65280
0.0523072 0.071578301 -1.4169199 65280
0.0550602 0.071578301 -1.4169199 65280
0.057813201 0.071578301 -1.4169199 65280
0.060566202 0.071578301 -1.4169199 65280
0.063319303 0.071578301 -1.4169199 65280
0.0660723 0.071578301 -1.4169199 65280
0.068825297 0.071578301 -1.4169199 65280
0.071578301 0.071578301 -1.4169199 65280
0.074331298 0.071578301 -1.4169199 65280
0.077084303 0.071578301 -1.4169199 65280
0.0798373 0.071578301 -1.4169199 65280
0.082590297 0.071578301 -1.4169199 65280
0.085343301 0.071578301 -1.4169199 65280
0.088096403 0.071578301 -1.4169199 65280
0.0908494 0.071578301 -1.4169199 65280
0.093602397 0.071578301 -1.4169199 65280
0.096355401 0.071578301 -1.4169199 65280
0.099108398 0.071578301 -1.4169199 65280
0.101861 0.071578301 -1.4169199 65280
0.104614 0.071578301 -1.4169199 65280
0.107367 0.071578301 -1.4169199 65280
0.11012 0.071578301 -1.4169199 65280
0.112873 0.071578301 -1.4169199 65280
0.115626 0.071578301 -1.4169199 65280
0.118379 0.071578301 -1.4169199 65280
0.121132 0.071578301 -1.4169199 65280
0.123886 0.071578301 -1.4169199 65280
0.12663899 0.071578301 -1.4169199 65280
0.129392 0.071578301 -1.4169199 65280
0.132145 0.071578301 -1.4169199 65280
0.13489801 0.071578301 -1.4169199 65280
0.137651 0.071578301 -1.4169199 65280
0.140404 0.071578301 -1.4169199 65280
0.14315701 0.071578301 -1.4169199 65280
0.14590999 0.071578301 -1.4169199 65280
0.148663 0.071578301 -1.4169199 65280
0.151416 0.071578301 -1.4169199 65280
0.15416899 0.071578301 -1.4169199 65280
0.156922 0.071578301 -1.4169199 65280
0.159675 0.071578301 -1.4169199 65280
0.16242801 0.071578301 -1.4169199 65280
0.165181 0.071578301 -1.4169199 65280
0.167934 0.071578301 -1.4169199 65280
0.170687 0.071578301 -1.4169199 65280
0.17343999 0.071578301 -1.4169199 65280
0.176193 0.071578301 -1.4169199 65280
0.178946 0.071578301 -1.4169199 65280
0.18169899 0.071578301 -1.4169199 65280
0.184452 0.071578301 -1.4169199 65280
0.187205 0.071578301 -1.4169199 65280
0.18995801 0.071578301 -1.4169199 65280
0.192711 0.071578301 -1.4169199 65280
0.195464 0.071578301 -1.4169199 65280
0.198217 0.071578301 -1.4169199 65280
0.20096999 0.071578301 -1.4169199 65280
0.203723 0.071578301 -1.4169199 65280
0.206476 0.071578301 -1.4169199 65280
0.20922901 0.071578301 -1.4169199 65280
0.211982 0.071578301 -1.4169199 65280
0.214735 0.071578301 -1.4169199 65280
0.21748801 0.071578301 -1.4169199 65280
0.220241 0.071578301 -1.4169199 65280
0.222994 0.071578301 -1.4169199 65280
0.225747 0.071578301 -1.4169199 65280
0.22849999 0.071578301 -1.4169199 65280
0.231253 0.071578301 -1.4169199 65280
0.234006 0.071578301 -1.4169199 65280
0.23675901 0.071578301 -1.4169199 65280
0.239512 0.071578301 -1.4169199 65280
0.242265 0.071578301 -1.4169199 65280
0.24501801 0.071578301 -1.4169199 65280
0.24777099 0.071578301 -1.4169199 65280
0.25052401 0.071578301 -1.4169199 65280
0.253277 0.071578301 -1.4169199 65280
0.25602999 0.071578301 -1.4169199 65280
0.25878301 0.071578301 -1.4169199 65280
0.261536 0.071578301 -1.4169199 65280
0.26428899 0.071578301 -1.4169199 65280
0.26704201 0.071578301 -1.4169199 65280
0.269795 0.071578301 -1.4169199 65280
0.27254799 0.071578301 -1.4169199 65280
0.27530101 0.071578301 -1.4169199 65280
0.278054 0.071578301 -1.4169199 65280
0.28080699 0.071578301 -1.4169199 65280
0.28356001 0.071578301 -1.4169199 65280
0.286313 0.071578301 -1.4169199 65280
0.28906599 0.071578301 -1.4169199 65280
0.29181901 0.071578301 -1.4169199 65280
0.294572 0.071578301 -1.4169199 65280
0.29732499 0.071578301 -1.4169199 65280
0.300078 0.071578301 -1.4169199 65280
0.30283099 0.071578301 -1.4169199 65280
0.30558401 0.071578301 -1.4169199 65280
0.308337 0.071578301 -1.4169199 65280
0.31108999 0.071578301 -1.4169199 65280
0.31384301 0.071578301 -1.4169199 65280
0.316596 0.071578301 -1.4169199 65280
0.31934899 0.071578301 -1.4169199 65280
0.32210201 0.071578301 -1.4169199 65280
0.324855 0.071578301 -1.4169199 65280
0.32760799 0.071578301 -1.4169199 65280
0.33036101 0.071578301 -1.4169199 65280
0.333114 0.071578301 -1.4169199 65280
0.33586699 0.071578301 -1.4169199 65280
0.33862001 0.071578301 -1.4169199 65280
0.341373 0.071578301 -1.4169199 65280
0.34412599 0.071578301 -1.4169199 65280
0.34687901 0.071578301 -1.4169199 65280
0.34963199 0.071578301 -1.4169199 65280
0.35238501 0.071578301 -1.4169199 65280
0.355138 0.071578301 -1.4169199 65280
0.35789099 0.071578301 -1.4169199 65280
0.36064401 0.071578301 -1.4169199 65280
0.363397 0.071578301 -1.4169199 65280
0.36614999 0.071578301 -1.4169199 65280
0.36890399 0.071578301 -1.4169199 65280
0.37165701 0.071578301 -1.4169199 65280
0.37441 0.071578301 -1.4169199 65280
0.37716299 0.071578301 -1.4169199 65280
0.37991601 0.071578301 -1.4169199 65280
0.382669 0.071578301 -1.4169199 65280
0.38542199 0.071578301 -1.4169199 65280
0.38817501 0.071578301 -1.4169199 65280
0.390928 0.071578301 -1.4169199 65280
0.39368099 0.071578301 -1.4169199 65280
0.39643401 0.071578301 -1.4169199 65280
-0.39883301 0.074265502 -1.41567 65280
-0.396083 0.074265502 -1.41567 65280
-0.393332 0.074265502 -1.41567 65280
-0.390582 0.074265502 -1.41567 65280
-0.387831 0.074265502 -1.41567 65280
-0.38508099 0.074265502 -1.41567 65280
-0.38233 0.074265502 -1.41567 65280
-0.37957901 0.074265502 -1.41567 65280
-0.376829 0.074265502 -1.41567 65280
-0.37407801 0.074265502 -1.41567 65280
-0.371328 0.074265502 -1.41567 65280
-0.368577 0.074265502 -1.41567 65280
-0.36582699 0.074265502 -1.41567 65280
-0.363076 0.074265502 -1.41567 65280
-0.36032501 0.074265502 -1.41567 65280
-0.357575 0.074265502 -1.41567 65280
-0.35482401 0.074265502 -1.41567 65280
-0.352074 0.074265502 -1.41567 65280
-0.349323 0.074265502 -1.41567 65280
-0.346573 0.074265502 -1.41567 65280
-0.343822 0.074265502 -1.41567 65280
-0.34107101 0.074265502 -1.41567 65280
-0.338321 0.074265502 -1.41567 65280
-0.33557001 0.074265502 -1.41567 65280
-0.33282 0.074265502 -1.41567 65280
-0.33006901 0.074265502 -1.41567 65280
-0.327319 0.074265502 -1.41567 65280
-0.324568 0.074265502 -1.41567 65280
-0.32181701 0.074265502 -1.41567 65280
-0.319067 0.074265502 -1.41567 65280
-0.31631601 0.074265502 -1.41567 65280
-0.313566 0.074265502 -1.41567 65280
-0.31081501 0.074265502 -1.41567 65280
-0.30806401 0.074265502 -1.41567 65280
-0.305314 0.074265502 -1.41567 65280
-0.30256301 0.074265502 -1.41567 65280
-0.299813 0.074265502 -1.41567 65280
-0.29706201 0.074265502 -1.41567 65280
-0.294312 0.074265502 -1.41567 65280
-0.29156101 0.074265502 -1.41567 65280
-0.28881001 0.074265502 -1.41567 65280
-0.28606001 0.074265502 -1.41567 65280
-0.28330901 0.074265502 -1.41567 65280
-0.280559 0.074265502 -1.41567 65280
-0.27780801 0.074265502 -1.41567 65280
-0.275058 0.074265502 -1.41567 65280
-0.27230701 0.074265502 -1.41567 65280
-0.26955599 0.074265502 -1.41567 65280
-0.26680601 0.074265502 -1.41567 65280
-0.26405501 0.074265502 -1.41567 65280
-0.261305 0.074265502 -1.41567 65280
-0.25855401 0.074265502 -1.41567 65280
-0.255804 0.074265502 -1.41567 65280
-0.25305301 0.074265502 -1.41567 65280
-0.25030199 0.074265502 -1.41567 65280
-0.24755201 0.074265502 -1.41567 65280
-0.244801 0.074265502 -1.41567 65280
-0.24205101 0.074265502 -1.41567 65280
-0.2393 0.074265502 -1.41567 65280
-0.23655 0.074265502 -1.41567 65280
-0.233799 0.074265502 -1.41567 65280
-0.231048 0.074265502 -1.41567 65280
-0.22829799 0.074265502 -1.41567 65280
-0.225547 0.074265502 -1.41567 65280
-0.22279701 0.074265502 -1.41567 65280
-0.220046 0.074265502 -1.41567 65280
-0.21729501 0.074265502 -1.41567 65280
-0.214545 0.074265502 -1.41567 65280
-0.211794 0.074265502 -1.41567 65280
-0.20904399 0.074265502 -1.41567 65280
-0.206293 0.074265502 -1.41567 65280
-0.20354301 0.074265502 -1.41567 65280
-0.200792 0.074265502 -1.41567 65280
-0.19804101 0.074265502 -1.41567 65280
-0.195291 0.074265502 -1.41567 65280
-0.19254 0.074265502 -1.41567 65280
-0.18979 0.074265502 -1.41567 65280
-0.187039 0.074265502 -1.41567 65280
-0.18428899 0.074265502 -1.41567 65280
-0.181538 0.074265502 -1.41567 65280
-0.17878699 0.074265502 -1.41567 65280
-0.176037 0.074265502 -1.41567 65280
-0.17328601 0.074265502 -1.41567 65280
-0.170536 0.074265502 -1.41567 65280
-0.167785 0.074265502 -1.41567 65280
-0.16503499 0.074265502 -1.41567 65280
-0.162284 0.074265502 -1.41567 65280
-0.15953299 0.074265502 -1.41567 65280
-0.156783 0.074265502 -1.41567 65280
-0.15403201 0.074265502 -1.41567 65280
-0.151282 0.074265502 -1.41567 65280
-0.148531 0.074265502 -1.41567 65280
-0.145781 0.074265502 -1.41567 65280
-0.14303 0.074265502 -1.41567 65280
-0.140279 0.074265502 -1.41567 65280
-0.137529 0.074265502 -1.41567 65280
-0.13477799 0.074265502 -1.41567 65280
-0.132028 0.074265502 -1.41567 65280
-0.12927701 0.074265502 -1.41567 65280
-0.126526 0.074265502 -1.41567 65280
-0.123776 0.074265502 -1.41567 65280
-0.121025 0.074265502 -1.41567 65280
-0.118275 0.074265502 -1.41567 65280
-0.112565 0.072363101 -1.37941 65280
-0.109299 0.071977198 -1.37205 65280
-0.106317 0.071764298 -1.36799 65280
-0.103473 0.071634904 -1.36552 65280
-0.100756 0.071589902 -1.36467 65280
-0.098159403 0.0716298 -1.36543 65280
-0.095649898 0.071737401 -1.36748 65280
-0.0931518 0.07186 -1.36982 65280
-0.090664499 0.071998298 -1.37245 65280
-0.088165998 0.072135799 -1.37507 65280
-0.085655302 0.072271697 -1.37766 65280
-0.083135903 0.072408698 -1.38028 65280
-0.080607504 0.072546802 -1.38291 65280
-0.078043498 0.072661199 -1.38509 65280
-0.075414203 0.072720803 -1.38623 65280
-0.072824501 0.072824501 -1.3882 65280
-0.070273101 0.072975896 -1.39109 65280
-0.068764403 0.074265502 -1.41567 65280
-0.066013798 0.074265502 -1.41567 65280
-0.0632632 0.074265502 -1.41567 65280
-0.060512699 0.074265502 -1.41567 65280
-0.057762101 0.074265502 -1.41567 65280
-0.0550115 0.074265502 -1.41567 65280
-0.052260902 0.074265502 -1.41567 65280
-0.049510401 0.074265502 -1.41567 65280
-0.046759799 0.074265502 -1.41567 65280
-0.044009201 0.074265502 -1.41567 65280
-0.0412586 0.074265502 -1.41567 65280
-0.038508099 0.074265502 -1.41567 65280
-0.035757501 0.074265502 -1.41567 65280
-0.033006899 0.074265502 -1.41567 65280
-0.030256299 0.074265502 -1.41567 65280
-0.0275058 0.074265502 -1.41567 65280
-0.0247552 0.074265502 -1.41567 65280
-0.022004601 0.074265502 -1.41567 65280
-0.019254001 0.074265502 -1.41567 65280
-0.0165035 0.074265502 -1.41567 65280
-0.0137529 0.074265502 -1.41567 65280
-0.0110023 0.074265502 -1.41567 65280
-0.0082517304 0.074265502 -1.41567 65280
-0.0055011502 0.074265502 -1.41567 65280
-0.00275058 0.074265502 -1.41567 65280
0 0.074265502 -1.41567 65280
0.00275058 0.074265502 -1.41567 65280
0.0055011502 0.074265502 -1.41567 65280
0.0082517304 0.074265502 -1.41567 65280
0.0110023 0.074265502 -1.41567 65280
0.0137529 0.074265502 -1.41567 65280
0.0165035 0.074265502 -1.41567 65280
0.019254001 0.074265502 -1.41567 65280
0.022004601 0.074265502 -1.41567 65280
0.0247552 0.074265502 -1.41567 65280
0.0275058 0.074265502 -1.41567 65280
0.030256299 0.074265502 -1.41567 65280
0.033006899 0.074265502 -1.41567 65280
0.035757501 0.074265502 -1.41567 65280
0.038508099 0.074265502 -1.41567 65280
0.0412586 0.074265502 -1.41567 65280
0.044009201 0.074265502 -1.41567 65280
0.046759799 0.074265502 -1.41567 65280
0.049510401 0.074265502 -1.41567 65280
0.052260902 0.074265502 -1.41567 65280
0.0550115 0.074265502 -1.41567 65280
0.057762101 0.074265502 -1.41567 65280
0.060512699 0.074265502 -1.41567 65280
0.0632632 0.074265502 -1.41567 65280
0.066013798 0.074265502 -1.41567 65280
0.068764403 0.074265502 -1.41567 65280
0.071515001 0.074265502 -1.41567 65280
0.074265502 0.074265502 -1.41567 65280
0.0770161 0.074265502 -1.41567 65280
0.079766698 0.074265502 -1.41567 65280
0.082517304 0.074265502 -1.41567 65280
0.085267797 0.074265502 -1.41567 65280
0.088018402 0.074265502 -1.41567 65280
0.090769 0.074265502 -1.41567 65280
0.093519598 0.074265502 -1.41567 65280
0.096270204 0.074265502 -1.41567 65280
0.099020697 0.074265502 -1.41567 65280
0.101771 0.074265502 -1.41567 65280
0.104522 0.074265502 -1.41567 65280
0.107272 0.074265502 -1.41567 65280
0.110023 0.074265502 -1.41567 65280
0.112774 0.074265502 -1.41567 65280
0.115524 0.074265502 -1.41567 65280
0.118275 0.074265502 -1.41567 65280
0.121025 0.074265502 -1.41567 65280
0.123776 0.074265502 -1.41567 65280
0.126526 0.074265502 -1.41567 65280
0.12927701 0.074265502 -1.41567 65280
0.132028 0.074265502 -1.41567 65280
0.13477799 0.074265502 -1.41567 65280
0.137529 0.074265502 -1.41567 65280
0.140279 0.074265502 -1.41567 65280
0.14303 0.074265502 -1.41567 65280
0.145781 0.074265502 -1.41567 65280
0.148531 0.074265502 -1.41567 65280
0.151282 0.074265502 -1.41567 65280
0.15403201 0.074265502 -1.41567 65280
0.156783 0.074265502 -1.41567 65280
0.15953299 0.074265502 -1.41567 65280
0.162284 0.074265502 -1.41567 65280
0.16503499 0.074265502 -1.41567 65280
0.167785 0.074265502 -1.41567 65280
0.170536 0.074265502 -1.41567 65280
0.17328601 0.074265502 -1.41567 65280
0.176037 0.074265502 -1.41567 65280
0.17878699 0.074265502 -1.41567 65280
0.181538 0.074265502 -1.41567 65280
0.18428899 0.074265502 -1.41567 65280
0.187039 0.074265502 -1.41567 65280
0.18979 0.074265502 -1.41567 65280
0.19254 0.074265502 -1.41567 65280
0.195291 0.074265502 -1.41567 65280
0.19804101 0.074265502 -1.41567 65280
0.200792 0.074265502 -1.41567 65280
0.20354301 0.074265502 -1.41567 65280
0.206293 0.074265502 -1.41567 65280
0.20904399 0.074265502 -1.41567 65280
0.211794 0.074265502 -1.41567 65280
0.214545 0.074265502 -1.41567 65280
0.21729501 0.074265502 -1.41567 65280
0.220046 0.074265502 -1.41567 65280
0.22279701 0.074265502 -1.41567 65280
0.225547 0.074265502 -1.41567 65280
0.22829799 0.074265502 -1.41567 65280
0.231048 0.074265502 -1.41567 65280
0.233799 0.074265502 -1.41567 65280
0.23655 0.074265502 -1.41567 65280
0.2393 0.074265502 -1.41567 65280
0.24205101 0.074265502 -1.41567 65280
0.244801 0.074265502 -1.41567 65280
0.24755201 0.074265502 -1.41567 65280
0.25030199 0.074265502 -1.41567 65280
0.25305301 0.074265502 -1.41567 65280
0.255804 0.074265502 -1.41567 65280
0.25855401 0.074265502 -1.41567 65280
0.261305 0.074265502 -1.41567 65280
0.26405501 0.074265502 -1.41567 65280
0.26680601 0.074265502 -1.41567 65280
0.26955599 0.074265502 -1.41567 65280
0.27230701 0.074265502 -1.41567 65280
0.275058 0.074265502 -1.41567 65280
0.27780801 0.074265502 -1.41567 65280
0.280559 0.074265502 -1.41567 65280
0.28330901 0.074265502 -1.41567 65280
0.28606001 0.074265502 -1.41567 65280
0.28881001 0.074265502 -1.41567 65280
0.29156101 0.074265502 -1.41567 65280
0.294312 0.074265502 -1.41567 65280
0.29706201 0.074265502 -1.41567 65280
0.299813 0.074265502 -1.41567 65280
0.30256301 0.074265502 -1.41567 65280
0.305314 0.074265502 -1.41567 65280
0.30806401 0.074265502 -1.41567 65280
0.31081501 0.074265502 -1.41567 65280
0.313566 0.074265502 -1.41567 65280
0.31631601 0.074265502 -1.41567 65280
0.319067 0.074265502 -1.41567 65280
0.32181701 0.074265502 -1.41567 65280
0.324568 0.074265502 -1.41567 65280
0.327319 0.074265502 -1.41567 65280
0.33006901 0.074265502 -1.41567 65280
0.33282 0.074265502 -1.41567 65280
0.33557001 0.074265502 -1.41567 65280
0.338321 0.074265502 -1.41567 65280
0.34107101 0.074265502 -1.41567 65280
0.343822 0.074265502 -1.41567 65280
0.346573 0.074265502 -1.41567 65280
0.349323 0.074265502 -1.41567 65280
0.352074 0.074265502 -1.41567 65280
0.35482401 0.074265502 -1.41567 65280
0.357575 0.074265502 -1.41567 65280
0.36032501 0.074265502 -1.41567 65280
0.363076 0.074265502 -1.41567 65280
0.36582699 0.074265502 -1.41567 65280
0.368577 0.074265502 -1.41567 65280
0.371328 0.074265502 -1.41567 65280
0.37407801 0.074265502 -1.41567 65280
0.376829 0.074265502 -1.41567 65280
0.37957901 0.074265502 -1.41567 65280
0.38233 0.074265502 -1.41567 65280
0.38508099 0.074265502 -1.41567 65280
0.387831 0.074265502 -1.41567 65280
0.390582 0.074265502 -1.41567 65280
0.393332 0.074265502 -1.41567 65280
0.396083 0.074265502 -1.41567 65280
-0.40122899 0.076948099 -1.41442 65280
-0.39848101 0.076948099 -1.41442 65280
-0.395733 0.076948099 -1.41442 65280
-0.39298499 0.076948099 -1.41442 65280
-0.390237 0.076948099 -1.41442 65280
-0.38748899 0.076948099 -1.41442 65280
-0.38474101 0.076948099 -1.41442 65280
-0.38199201 0.076948099 -1.41442 65280
-0.379244 0.076948099 -1.41442 65280
-0.37649599 0.076948099 -1.41442 65280
-0.373748 0.076948099 -1.41442 65280
-0.37099999 0.076948099 -1.41442 65280
-0.36825201 0.076948099 -1.41442 65280
-0.365504 0.076948099 -1.41442 65280
-0.362755 0.076948099 -1.41442 65280
-0.36000699 0.076948099 -1.41442 65280
-0.35725901 0.076948099 -1.41442 65280
-0.35451099 0.076948099 -1.41442 65280
-0.35176301 0.076948099 -1.41442 65280
-0.349015 0.076948099 -1.41442 65280
-0.34626701 0.076948099 -1.41442 65280
-0.34351799 0.076948099 -1.41442 65280
-0.34077001 0.076948099 -1.41442 65280
-0.33802199 0.076948099 -1.41442 65280
-0.33527401 0.076948099 -1.41442 65280
-0.332526 0.076948099 -1.41442 65280
-0.32977799 0.076948099 -1.41442 65280
-0.32702899 0.076948099 -1.41442 65280
-0.32428101 0.076948099 -1.41442 65280
-0.32153299 0.076948099 -1.41442 65280
-0.31878501 0.076948099 -1.41442 65280
-0.316037 0.076948099 -1.41442 65280
-0.31328899 0.076948099 -1.41442 65280
-0.310541 0.076948099 -1.41442 65280
-0.30779201 0.076948099 -1.41442 65280
-0.305044 0.076948099 -1.41442 65280
-0.30229601 0.076948099 -1.41442 65280
-0.299548 0.076948099 -1.41442 65280
-0.29679999 0.076948099 -1.41442 65280
-0.294052 0.076948099 -1.41442 65280
-0.29130399 0.076948099 -1.41442 65280
-0.288555 0.076948099 -1.41442 65280
-0.28580701 0.076948099 -1.41442 65280
-0.283059 0.076948099 -1.41442 65280
-0.28031099 0.076948099 -1.41442 65280
-0.27756301 0.076948099 -1.41442 65280
-0.27481499 0.076948099 -1.41442 65280
-0.27206701 0.076948099 -1.41442 65280
-0.26931801 0.076948099 -1.41442 65280
-0.26657 0.076948099 -1.41442 65280
-0.26382199 0.076948099 -1.41442 65280
-0.26107401 0.076948099 -1.41442 65280
-0.25832599 0.076948099 -1.41442 65280
-0.25557801 0.076948099 -1.41442 65280
-0.25283 0.076948099 -1.41442 65280
-0.250081 0.076948099 -1.41442 65280
-0.24733301 0.076948099 -1.41442 65280
-0.24458501 0.076948099 -1.41442 65280
-0.24183699 0.076948099 -1.41442 65280
-0.239089 0.076948099 -1.41442 65280
-0.236341 0.076948099 -1.41442 65280
-0.233592 0.076948099 -1.41442 65280
-0.23084401 0.076948099 -1.41442 65280
-0.22809599 0.076948099 -1.41442 65280
-0.225348 0.076948099 -1.41442 65280
-0.2226 0.076948099 -1.41442 65280
-0.219852 0.076948099 -1.41442 65280
-0.217104 0.076948099 -1.41442 65280
-0.21435501 0.076948099 -1.41442 65280
-0.21160699 0.076948099 -1.41442 65280
-0.208859 0.076948099 -1.41442 65280
-0.206111 0.076948099 -1.41442 65280
-0.203363 0.076948099 -1.41442 65280
-0.200615 0.076948099 -1.41442 65280
-0.19786701 0.076948099 -1.41442 65280
-0.195118 0.076948099 -1.41442 65280
-0.19237 0.076948099 -1.41442 65280
-0.189622 0.076948099 -1.41442 65280
-0.186874 0.076948099 -1.41442 65280
-0.184126 0.076948099 -1.41442 65280
-0.18137801 0.076948099 -1.41442 65280
-0.17862999 0.076948099 -1.41442 65280
-0.175881 0.076948099 -1.41442 65280
-0.173133 0.076948099 -1.41442 65280
-0.170385 0.076948099 -1.41442 65280
-0.16763701 0.076948099 -1.41442 65280
-0.16488899 0.076948099 -1.41442 65280
-0.162141 0.076948099 -1.41442 65280
-0.159393 0.076948099 -1.41442 65280
-0.156644 0.076948099 -1.41442 65280
-0.153896 0.076948099 -1.41442 65280
-0.15114801 0.076948099 -1.41442 65280
-0.14839999 0.076948099 -1.41442 65280
-0.145652 0.076948099 -1.41442 65280
-0.142904 0.076948099 -1.41442 65280
-0.140155 0.076948099 -1.41442 65280
-0.137407 0.076948099 -1.41442 65280
-0.13465901 0.076948099 -1.41442 65280
-0.13191099 0.076948099 -1.41442 65280
-0.129163 0.076948099 -1.41442 65280
-0.126415 0.076948099 -1.41442 65280
-0.123667 0.076948099 -1.41442 65280
-0.120918 0.076948099 -1.41442 65280
-0.11817 0.076948099 -1.41442 65280
-0.115422 0.076948099 -1.41442 65280
-0.110222 0.075273298 -1.38363 65280
-0.10694 0.074857801 -1.376 65280
-0.10397 0.074644998 -1.37209 65280
-0.101172 0.0745482 -1.3703099 65280
-0.098490201 0.074533202 -1.37003 65280
-0.095896997 0.074586503 -1.3710099 65280
-0.093369201 0.074695297 -1.37301 65280
-0.090850301 0.074817903 -1.37526 65280
-0.0883338 0.074949898 -1.37769 65280
-0.085810602 0.075084299 -1.38016 65280
-0.083286799 0.075226799 -1.38278 65280
-0.080752403 0.075368904 -1.38539 65280
-0.078191496 0.075495303 -1.38772 65280
-0.075566299 0.075566299 -1.38902 65280
-0.0730111 0.075715199 -1.39176 65280
-0.071451798 0.076948099 -1.41442 65280
-0.068703704 0.076948099 -1.41442 65280
-0.065955497 0.076948099 -1.41442 65280
-0.063207403 0.076948099 -1.41442 65280
-0.0604592 0.076948099 -1.41442 65280
-0.057711098 0.076948099 -1.41442 65280
-0.0549629 0.076948099 -1.41442 65280
-0.052214801 0.076948099 -1.41442 65280
-0.049466599 0.076948099 -1.41442 65280
-0.046718501 0.076948099 -1.41442 65280
-0.043970399 0.076948099 -1.41442 65280
-0.0412222 0.076948099 -1.41442 65280
-0.038474102 0.076948099 -1.41442 65280
-0.035725899 0.076948099 -1.41442 65280
-0.032977801 0.076948099 -1.41442 65280
-0.0302296 0.076948099 -1.41442 65280
-0.0274815 0.076948099 -1.41442 65280
-0.024733299 0.076948099 -1.41442 65280
-0.021985199 0.076948099 -1.41442 65280
-0.019237 0.076948099 -1.41442 65280
-0.0164889 0.076948099 -1.41442 65280
-0.0137407 0.076948099 -1.41442 65280
-0.0109926 0.076948099 -1.41442 65280
-0.00824444 0.076948099 -1.41442 65280
-0.00549629 0.076948099 -1.41442 65280
-0.0027481499 0.076948099 -1.41442 65280
0 0.076948099 -1.41442 65280
0.0027481499 0.076948099 -1.41442 65280
0.00549629 0.076948099 -1.41442 65280
0.00824444 0.076948099 -1.41442 65280
0.0109926 0.076948099 -1.41442 65280
0.0137407 0.076948099 -1.41442 65280
0.0164889 0.076948099 -1.41442 65280
0.019237 0.076948099 -1.41442 65280
0.021985199 0.076948099 -1.41442 65280
0.024733299 0.076948099 -1.41442 65280
0.0274815 0.076948099 -1.41442 65280
0.0302296 0.076948099 -1.41442 65280
0.032977801 0.076948099 -1.41442 65280
0.035725899 0.076948099 -1.41442 65280
0.038474102 0.076948099 -1.41442 65280
0.0412222 0.076948099 -1.41442 65280
0.043970399 0.076948099 -1.41442 65280
0.046718501 0.076948099 -1.41442 65280
0.049466599 0.076948099 -1.41442 65280
0.052214801 0.076948099 -1.41442 65280
0.0549629 0.076948099 -1.41442 65280
0.057711098 0.076948099 -1.41442 65280
0.0604592 0.076948099 -1.41442 65280
0.063207403 0.076948099 -1.41442 65280
0.065955497 0.076948099 -1.41442 65280
0.068703704 0.076948099 -1.41442 65280
0.071451798 0.076948099 -1.41442 65280
0.074199997 0.076948099 -1.41442 65280
0.076948099 0.076948099 -1.41442 65280
0.079696298 0.076948099 -1.41442 65280
0.0824444 0.076948099 -1.41442 65280
0.085192598 0.076948099 -1.41442 65280
0.0879407 0.076948099 -1.41442 65280
0.090688802 0.076948099 -1.41442 65280
0.093437001 0.076948099 -1.41442 65280
0.096185103 0.076948099 -1.41442 65280
0.098933302 0.076948099 -1.41442 65280
0.101681 0.076948099 -1.41442 65280
0.10443 0.076948099 -1.41442 65280
0.107178 0.076948099 -1.41442 65280
0.109926 0.076948099 -1.41442 65280
0.112674 0.076948099 -1.41442 65280
0.115422 0.076948099 -1.41442 65280
0.11817 0.076948099 -1.41442 65280
0.120918 0.076948099 -1.41442 65280
0.123667 0.076948099 -1.41442 65280
0.126415 0.076948099 -1.41442 65280
0.129163 0.076948099 -1.41442 65280
0.13191099 0.076948099 -1.41442 65280
0.13465901 0.076948099 -1.41442 65280
0.137407 0.076948099 -1.41442 65280
0.140155 0.076948099 -1.41442 65280
0.142904 0.076948099 -1.41442 65280
0.145652 0.076948099 -1.41442 65280
0.14839999 0.076948099 -1.41442 65280
0.15114801 0.076948099 -1.41442 65280
0.153896 0.076948099 -1.41442 65280
0.156644 0.076948099 -1.41442 65280
0.159393 0.076948099 -1.41442 65280
0.162141 0.076948099 -1.41442 65280
0.16488899 0.076948099 -1.41442 65280
0.16763701 0.076948099 -1.41442 65280
0.170385 0.076948099 -1.41442 65280
0.173133 0.076948099 -1.41442 65280
0.175881 0.076948099 -1.41442 65280
0.17862999 0.076948099 -1.41442 65280
0.18137801 0.076948099 -1.41442 65280
0.184126 0.076948099 -1.41442 65280
0.186874 0.076948099 -1.41442 65280
0.189622 0.076948099 -1.41442 65280
0.19237 0.076948099 -1.41442 65280
0.195118 0.076948099 -1.41442 65280
0.19786701 0.076948099 -1.41442 65280
0.200615 0.076948099 -1.41442 65280
0.203363 0.076948099 -1.41442 65280
0.206111 0.076948099 -1.41442 65280
0.208859 0.076948099 -1.41442 65280
0.21160699 0.076948099 -1.41442 65280
0.21435501 0.076948099 -1.41442 65280
0.217104 0.076948099 -1.41442 65280
0.219852 0.076948099 -1.41442 65280
0.2226 0.076948099 -1.41442 65280
0.225348 0.076948099 -1.41442 65280
0.22809599 0.076948099 -1.41442 65280
0.23084401 0.076948099 -1.41442 65280
0.233592 0.076948099 -1.41442 65280
0.236341 0.076948099 -1.41442 65280
0.239089 0.076948099 -1.41442 65280
0.24183699 0.076948099 -1.41442 65280
0.24458501 0.076948099 -1.41442 65280
0.24733301 0.076948099 -1.41442 65280
0.250081 0.076948099 -1.41442 65280
0.25283 0.076948099 -1.41442 65280
0.25557801 0.076948099 -1.41442 65280
0.25832599 0.076948099 -1.41442 65280
0.26107401 0.076948099 -1.41442 65280
0.26382199 0.076948099 -1.41442 65280
0.26657 0.076948099 -1.41442 65280
0.26931801 0.076948099 -1.41442 65280
0.27206701 0.076948099 -1.41442 65280
0.27481499 0.076948099 -1.41442 65280
0.27756301 0.076948099 -1.41442 65280
0.28031099 0.076948099 -1.41442 65280
0.283059 0.076948099 -1.41442 65280
0.28580701 0.076948099 -1.41442 65280
0.288555 0.076948099 -1.41442 65280
0.29130399 0.076948099 -1.41442 65280
0.294052 0.076948099 -1.41442 65280
0.29679999 0.076948099 -1.41442 65280
0.299548 0.076948099 -1.41442 65280
0.30229601 0.076948099 -1.41442 65280
0.305044 0.076948099 -1.41442 65280
0.30779201 0.076948099 -1.41442 65280
0.310541 0.076948099 -1.41442 65280
0.31328899 0.076948099 -1.41442 65280
0.316037 0.076948099 -1.41442 65280
0.31878501 0.076948099 -1.41442 65280
0.32153299 0.076948099 -1.41442 65280
0.32428101 0.076948099 -1.41442 65280
0.32702899 0.076948099 -1.41442 65280
0.32977799 0.076948099 -1.41442 65280
0.332526 0.076948099 -1.41442 65280
0.33527401 0.076948099 -1.41442 65280
0.33802199 0.076948099 -1.41442 65280
0.34077001 0.076948099 -1.41442 65280
0.34351799 0.076948099 -1.41442 65280
0.34626701 0.076948099 -1.41442 65280
0.349015 0.076948099 -1.41442 65280
0.35176301 0.076948099 -1.41442 65280
0.35451099 0.076948099 -1.41442 65280
0.35725901 0.076948099 -1.41442 65280
0.36000699 0.076948099 -1.41442 65280
0.362755 0.076948099 -1.41442 65280
0.365504 0.076948099 -1.41442 65280
0.36825201 0.076948099 -1.41442 65280
0.37099999 0.076948099 -1.41442 65280
0.373748 0.076948099 -1.41442 65280
0.37649599 0.076948099 -1.41442 65280
0.379244 0.076948099 -1.41442 65280
0.38199201 0.076948099 -1.41442 65280
0.38474101 0.076948099 -1.41442 65280
0.38748899 0.076948099 -1.41442 65280
0.390237 0.076948099 -1.41442 65280
0.39298499 0.076948099 -1.41442 65280
0.395733 0.076948099 -1.41442 65280
0.39848101 0.076948099 -1.41442 65280
-0.400875 0.079625897 -1.41317 65280
-0.39813 0.079625897 -1.41317 65280
-0.39538401 0.079625897 -1.41317 65280
-0.392638 0.079625897 -1.41317 65280
-0.389893 0.079625897 -1.41317 65280
-0.38714701 0.079625897 -1.41317 65280
-0.38440099 0.079625897 -1.41317 65280
-0.38165501 0.079625897 -1.41317 65280
-0.37891001 0.079625897 -1.41317 65280
-0.37616399 0.079625897 -1.41317 65280
-0.373418 0.079625897 -1.41317 65280
-0.370673 0.079625897 -1.41317 65280
-0.36792701 0.079625897 -1.41317 65280
-0.365181 0.079625897 -1.41317 65280
-0.36243501 0.079625897 -1.41317 65280
-0.35969001 0.079625897 -1.41317 65280
-0.35694399 0.079625897 -1.41317 65280
-0.35419801 0.079625897 -1.41317 65280
-0.35145199 0.079625897 -1.41317 65280
-0.34870699 0.079625897 -1.41317 65280
-0.345961 0.079625897 -1.41317 65280
-0.34321499 0.079625897 -1.41317 65280
-0.34046999 0.079625897 -1.41317 65280
-0.337724 0.079625897 -1.41317 65280
-0.33497801 0.079625897 -1.41317 65280
-0.332232 0.079625897 -1.41317 65280
-0.329487 0.079625897 -1.41317 65280
-0.32674101 0.079625897 -1.41317 65280
-0.32399499 0.079625897 -1.41317 65280
-0.32124999 0.079625897 -1.41317 65280
-0.31850401 0.079625897 -1.41317 65280
-0.31575799 0.079625897 -1.41317 65280
-0.313012 0.079625897 -1.41317 65280
-0.310267 0.079625897 -1.41317 65280
-0.30752099 0.079625897 -1.41317 65280
-0.304775 0.079625897 -1.41317 65280
-0.30202901 0.079625897 -1.41317 65280
-0.29928401 0.079625897 -1.41317 65280
-0.296538 0.079625897 -1.41317 65280
-0.29379201 0.079625897 -1.41317 65280
-0.29104701 0.079625897 -1.41317 65280
-0.28830099 0.079625897 -1.41317 65280
-0.28555501 0.079625897 -1.41317 65280
-0.28280899 0.079625897 -1.41317 65280
-0.28006399 0.079625897 -1.41317 65280
-0.277318 0.079625897 -1.41317 65280
-0.27457201 0.079625897 -1.41317 65280
-0.27182701 0.079625897 -1.41317 65280
-0.269081 0.079625897 -1.41317 65280
-0.26633501 0.079625897 -1.41317 65280
-0.26358899 0.079625897 -1.41317 65280
-0.26084399 0.079625897 -1.41317 65280
-0.25809801 0.079625897 -1.41317 65280
-0.25535199 0.079625897 -1.41317 65280
-0.252606 0.079625897 -1.41317 65280
-0.249861 0.079625897 -1.41317 65280
-0.247115 0.079625897 -1.41317 65280
-0.244369 0.079625897 -1.41317 65280
-0.241624 0.079625897 -1.41317 65280
-0.238878 0.079625897 -1.41317 65280
-0.236132 0.079625897 -1.41317 65280
-0.233386 0.079625897 -1.41317 65280
-0.23064101 0.079625897 -1.41317 65280
-0.22789501 0.079625897 -1.41317 65280
-0.22514901 0.079625897 -1.41317 65280
-0.222404 0.079625897 -1.41317 65280
-0.219658 0.079625897 -1.41317 65280
-0.216912 0.079625897 -1.41317 65280
-0.214166 0.079625897 -1.41317 65280
-0.211421 0.079625897 -1.41317 65280
-0.208675 0.079625897 -1.41317 65280
-0.205929 0.079625897 -1.41317 65280
-0.203183 0.079625897 -1.41317 65280
-0.20043799 0.079625897 -1.41317 65280
-0.19769201 0.079625897 -1.41317 65280
-0.19494601 0.079625897 -1.41317 65280
