# .PCD v0.7 - Point Cloud Data file format
VERSION 0.7
FIELDS x y z rgb
SIZE 4 4 4 4
TYPE F F F U
COUNT 1 1 1 1
WIDTH 1305
HEIGHT 1
VIEWPOINT 0 0 0 1 0 0 0
POINTS 1305
DATA ascii
0.29480401 0.0112306 -1.44505 65280
0.29761201 0.0112306 -1.44505 65280
0.30041999 0.0112306 -1.44505 65280
0.30322701 0.0112306 -1.44505 65280
0.30603501 0.0112306 -1.44505 65280
0.30884299 0.0112306 -1.44505 65280
0.31165001 0.0112306 -1.44505 65280
0.31445801 0.0112306 -1.44505 65280
0.31726599 0.0112306 -1.44505 65280
0.32007301 0.0112306 -1.44505 65280
0.32288101 0.0112306 -1.44505 65280
0.32568899 0.0112306 -1.44505 65280
0.32849601 0.0112306 -1.44505 65280
0.33130401 0.0112306 -1.44505 65280
0.33411199 0.0112306 -1.44505 65280
0.33691901 0.0112306 -1.44505 65280
0.33972701 0.0112306 -1.44505 65280
0.34253499 0.0112306 -1.44505 65280
0.34534201 0.0112306 -1.44505 65280
0.34815001 0.0112306 -1.44505 65280
0.35095799 0.0112306 -1.44505 65280
0.35376501 0.0112306 -1.44505 65280
0.35657299 0.0112306 -1.44505 65280
0.35938099 0.0112306 -1.44505 65280
0.36218801 0.0112306 -1.44505 65280
0.36499599 0.0112306 -1.44505 65280
0.36780399 0.0112306 -1.44505 65280
0.37061101 0.0112306 -1.44505 65280
0.37341899 0.0112306 -1.44505 65280
0.37622699 0.0112306 -1.44505 65280
0.37903401 0.0112306 -1.44505 65280
0.38184199 0.0112306 -1.44505 65280
0.38464999 0.0112306 -1.44505 65280
0.38745701 0.0112306 -1.44505 65280
0.39026499 0.0112306 -1.44505 65280
0.39307299 0.0112306 -1.44505 65280
0.39588001 0.0112306 -1.44505 65280
-0.40113401 0.0140257 -1.44375 65280
-0.39832899 0.0140257 -1.44375 65280
-0.39552301 0.0140257 -1.44375 65280
-0.39271799 0.0140257 -1.44375 65280
-0.38991299 0.0140257 -1.44375 65280
-0.387108 0.0140257 -1.44375 65280
-0.384303 0.0140257 -1.44375 65280
-0.38149801 0.0140257 -1.44375 65280
-0.37869301 0.0140257 -1.44375 65280
-0.37588701 0.0140257 -1.44375 65280
-0.37308201 0.0140257 -1.44375 65280
-0.37027699 0.0140257 -1.44375 65280
-0.36747199 0.0140257 -1.44375 65280
-0.364667 0.0140257 -1.44375 65280
-0.361862 0.0140257 -1.44375 65280
-0.35905701 0.0140257 -1.44375 65280
-0.35625201 0.0140257 -1.44375 65280
-0.35344601 0.0140257 -1.44375 65280
-0.35064101 0.0140257 -1.44375 65280
-0.34783599 0.0140257 -1.44375 65280
-0.34503099 0.0140257 -1.44375 65280
-0.342226 0.0140257 -1.44375 65280
-0.339421 0.0140257 -1.44375 65280
-0.33661601 0.0140257 -1.44375 65280
-0.33381101 0.0140257 -1.44375 65280
-0.33100501 0.0140257 -1.44375 65280
-0.32820001 0.0140257 -1.44375 65280
-0.32539499 0.0140257 -1.44375 65280
-0.32258999 0.0140257 -1.44375 65280
-0.319785 0.0140257 -1.44375 65280
-0.31698 0.0140257 -1.44375 65280
-0.31417501 0.0140257 -1.44375 65280
-0.311369 0.0140257 -1.44375 65280
-0.30856401 0.0140257 -1.44375 65280
-0.30575901 0.0140257 -1.44375 65280
-0.30295399 0.0140257 -1.44375 65280
-0.30014899 0.0140257 -1.44375 65280
-0.297344 0.0140257 -1.44375 65280
-0.294539 0.0140257 -1.44375 65280
-0.29173401 0.0140257 -1.44375 65280
-0.288928 0.0140257 -1.44375 65280
-0.28612301 0.0140257 -1.44375 65280
-0.28331801 0.0140257 -1.44375 65280
-0.28051299 0.0140257 -1.44375 65280
-0.27770799 0.0140257 -1.44375 65280
-0.274903 0.0140257 -1.44375 65280
-0.272098 0.0140257 -1.44375 65280
-0.26929301 0.0140257 -1.44375 65280
-0.266487 0.0140257 -1.44375 65280
-0.26368201 0.0140257 -1.44375 65280
-0.26087701 0.0140257 -1.44375 65280
-0.25807199 0.0140257 -1.44375 65280
-0.25526699 0.0140257 -1.44375 65280
-0.252462 0.0140257 -1.44375 65280
-0.24965701 0.0140257 -1.44375 65280
-0.246851 0.0140257 -1.44375 65280
-0.244046 0.0140257 -1.44375 65280
-0.24124099 0.0140257 -1.44375 65280
-0.238436 0.0140257 -1.44375 65280
-0.235631 0.0140257 -1.44375 65280
-0.23282599 0.0140257 -1.44375 65280
-0.230021 0.0140257 -1.44375 65280
-0.22721601 0.0140257 -1.44375 65280
-0.22441 0.0140257 -1.44375 65280
-0.221605 0.0140257 -1.44375 65280
-0.21879999 0.0140257 -1.44375 65280
-0.215995 0.0140257 -1.44375 65280
-0.21319 0.0140257 -1.44375 65280
-0.21038499 0.0140257 -1.44375 65280
-0.20758 0.0140257 -1.44375 65280
-0.20477501 0.0140257 -1.44375 65280
-0.201969 0.0140257 -1.44375 65280
-0.199164 0.0140257 -1.44375 65280
-0.19635899 0.0140257 -1.44375 65280
-0.193554 0.0140257 -1.44375 65280
-0.190749 0.0140257 -1.44375 65280
-0.18794399 0.0140257 -1.44375 65280
-0.185139 0.0140257 -1.44375 65280
-0.18233299 0.0140257 -1.44375 65280
-0.179528 0.0140257 -1.44375 65280
-0.176723 0.0140257 -1.44375 65280
-0.17391799 0.0140257 -1.44375 65280
-0.171113 0.0140257 -1.44375 65280
-0.168308 0.0140257 -1.44375 65280
-0.165503 0.0140257 -1.44375 65280
-0.162698 0.0140257 -1.44375 65280
-0.15989199 0.0140257 -1.44375 65280
-0.157087 0.0140257 -1.44375 65280
-0.154282 0.0140257 -1.44375 65280
-0.15147699 0.0140257 -1.44375 65280
-0.148672 0.0140257 -1.44375 65280
-0.145867 0.0140257 -1.44375 65280
-0.143062 0.0140257 -1.44375 65280
-0.140257 0.0140257 -1.44375 65280
-0.13745099 0.0140257 -1.44375 65280
-0.134646 0.0140257 -1.44375 65280
-0.131841 0.0140257 -1.44375 65280
-0.12903599 0.0140257 -1.44375 65280
-0.126231 0.0140257 -1.44375 65280
-0.123426 0.0140257 -1.44375 65280
-0.120621 0.0140257 -1.44375 65280
-0.117815 0.0140257 -1.44375 65280
-0.11501 0.0140257 -1.44375 65280
-0.112205 0.0140257 -1.44375 65280
-0.1094 0.0140257 -1.44375 65280
-0.106595 0.0140257 -1.44375 65280
-0.10379 0.0140257 -1.44375 65280
-0.100985 0.0140257 -1.44375 65280
-0.098179601 0.0140257 -1.44375 65280
-0.095374398 0.0140257 -1.44375 65280
-0.092569299 0.0140257 -1.44375 65280
-0.0897642 0.0140257 -1.44375 65280
-0.086958997 0.0140257 -1.44375 65280
-0.084153898 0.0140257 -1.44375 65280
-0.081348799 0.0140257 -1.44375 65280
-0.0785437 0.0140257 -1.44375 65280
-0.075738497 0.0140257 -1.44375 65280
-0.072933398 0.0140257 -1.44375 65280
-0.070128299 0.0140257 -1.44375 65280
-0.067323104 0.0140257 -1.44375 65280
-0.064517997 0.0140257 -1.44375 65280
-0.061712898 0.0140257 -1.44375 65280
-0.058907699 0.0140257 -1.44375 65280
-0.0561026 0.0140257 -1.44375 65280
-0.053297501 0.0140257 -1.44375 65280
-0.050492398 0.0140257 -1.44375 65280
-0.047687199 0.0140257 -1.44375 65280
-0.0448821 0.0140257 -1.44375 65280
-0.040426798 0.0134756 -1.38713 65280
-0.0375848 0.0134231 -1.38173 65280
-0.0348498 0.0134038 -1.37973 65280
-0.032148901 0.0133954 -1.37887 65280
-0.029493099 0.013406 -1.3799599 65280
-0.026862601 0.0134313 -1.38257 65280
-0.0242135 0.013452 -1.38469 65280
-0.021547301 0.0134671 -1.38625 65280
-0.0188688 0.0134777 -1.38735 65280
-0.016183799 0.0134865 -1.38825 65280
-0.0134938 0.0134938 -1.3890001 65280
-0.0107989 0.0134986 -1.3895 65280
-0.0081003103 0.0135005 -1.38969 65280
-0.0054001799 0.0135004 -1.38969 65280
-0.0026199799 0.0130999 -1.3484499 65280
0 0.013055 -1.34383 65280
0.0026050401 0.0130252 -1.34076 65280
0.0052013099 0.0130033 -1.33851 65280
0.0077919001 0.0129865 -1.33678 65280
0.0103795 0.0129743 -1.33553 65280
0.0129651 0.0129651 -1.3345701 65280
0.0155523 0.0129603 -1.33408 65280
0.0181424 0.0129589 -1.33394 65280
0.020736201 0.0129601 -1.33407 65280
0.023333101 0.0129628 -1.33435 65280
0.025934599 0.0129673 -1.33481 65280
0.0285421 0.0129737 -1.3354599 65280
0.0311631 0.0129846 -1.3365901 65280
0.033806302 0.0130024 -1.33842 65280
0.036474101 0.0130265 -1.3408999 65280
0.039163899 0.0130546 -1.3437999 65280
0.041801699 0.013063 -1.34466 65280
0.044428501 0.0130672 -1.34509 65280
0.047053698 0.0130705 -1.34543 65280
0.049670201 0.0130711 -1.34549 65280
0.052262999 0.0130657 -1.3449399 65280
0.054833502 0.0130556 -1.34389 65280
0.057462301 0.0130596 -1.34431 65280
0.064517997 0.0140257 -1.44375 65280
0.067323104 0.0140257 -1.44375 65280
0.070128299 0.0140257 -1.44375 65280
0.072933398 0.0140257 -1.44375 65280
0.075738497 0.0140257 -1.44375 65280
0.0785437 0.0140257 -1.44375 65280
0.081348799 0.0140257 -1.44375 65280
0.084153898 0.0140257 -1.44375 65280
0.086958997 0.0140257 -1.44375 65280
0.0897642 0.0140257 -1.44375 65280
0.092569299 0.0140257 -1.44375 65280
0.095374398 0.0140257 -1.44375 65280
0.098179601 0.0140257 -1.44375 65280
0.100985 0.0140257 -1.44375 65280
0.10379 0.0140257 -1.44375 65280
0.106595 0.0140257 -1.44375 65280
0.1094 0.0140257 -1.44375 65280
0.112205 0.0140257 -1.44375 65280
0.11501 0.0140257 -1.44375 65280
0.117815 0.0140257 -1.44375 65280
0.120621 0.0140257 -1.44375 65280
0.123426 0.0140257 -1.44375 65280
0.126231 0.0140257 -1.44375 65280
0.12903599 0.0140257 -1.44375 65280
0.131841 0.0140257 -1.44375 65280
0.134646 0.0140257 -1.44375 65280
0.13745099 0.0140257 -1.44375 65280
0.140257 0.0140257 -1.44375 65280
0.143062 0.0140257 -1.44375 65280
0.145867 0.0140257 -1.44375 65280
0.148672 0.0140257 -1.44375 65280
0.15147699 0.0140257 -1.44375 65280
0.154282 0.0140257 -1.44375 65280
0.157087 0.0140257 -1.44375 65280
0.15989199 0.0140257 -1.44375 65280
0.162698 0.0140257 -1.44375 65280
0.165503 0.0140257 -1.44375 65280
0.168308 0.0140257 -1.44375 65280
0.171113 0.0140257 -1.44375 65280
0.17391799 0.0140257 -1.44375 65280
0.176723 0.0140257 -1.44375 65280
0.179528 0.0140257 -1.44375 65280
0.18233299 0.0140257 -1.44375 65280
0.185139 0.0140257 -1.44375 65280
0.18794399 0.0140257 -1.44375 65280
0.190749 0.0140257 -1.44375 65280
0.193554 0.0140257 -1.44375 65280
0.19635899 0.0140257 -1.44375 65280
0.199164 0.0140257 -1.44375 65280
0.201969 0.0140257 -1.44375 65280
0.20477501 0.0140257 -1.44375 65280
0.20758 0.0140257 -1.44375 65280
0.21038499 0.0140257 -1.44375 65280
0.21319 0.0140257 -1.44375 65280
0.215995 0.0140257 -1.44375 65280
0.21879999 0.0140257 -1.44375 65280
0.221605 0.0140257 -1.44375 65280
0.22441 0.0140257 -1.44375 65280
0.22721601 0.0140257 -1.44375 65280
0.230021 0.0140257 -1.44375 65280
0.23282599 0.0140257 -1.44375 65280
0.235631 0.0140257 -1.44375 65280
0.238436 0.0140257 -1.44375 65280
0.24124099 0.0140257 -1.44375 65280
0.244046 0.0140257 -1.44375 65280
0.246851 0.0140257 -1.44375 65280
0.24965701 0.0140257 -1.44375 65280
0.252462 0.0140257 -1.44375 65280
0.25526699 0.0140257 -1.44375 65280
0.25807199 0.0140257 -1.44375 65280
0.26087701 0.0140257 -1.44375 65280
0.26368201 0.0140257 -1.44375 65280
0.266487 0.0140257 -1.44375 65280
0.26929301 0.0140257 -1.44375 65280
0.272098 0.0140257 -1.44375 65280
0.274903 0.0140257 -1.44375 65280
0.27770799 0.0140257 -1.44375 65280
0.28051299 0.0140257 -1.44375 65280
0.28331801 0.0140257 -1.44375 65280
0.28612301 0.0140257 -1.44375 65280
0.288928 0.0140257 -1.44375 65280
0.29173401 0.0140257 -1.44375 65280
0.294539 0.0140257 -1.44375 65280
0.297344 0.0140257 -1.44375 65280
0.30014899 0.0140257 -1.44375 65280
0.30295399 0.0140257 -1.44375 65280
0.30575901 0.0140257 -1.44375 65280
0.30856401 0.0140257 -1.44375 65280
0.311369 0.0140257 -1.44375 65280
0.31417501 0.0140257 -1.44375 65280
0.31698 0.0140257 -1.44375 65280
0.319785 0.0140257 -1.44375 65280
0.32258999 0.0140257 -1.44375 65280
0.32539499 0.0140257 -1.44375 65280
0.32820001 0.0140257 -1.44375 65280
0.33100501 0.0140257 -1.44375 65280
0.33381101 0.0140257 -1.44375 65280
0.33661601 0.0140257 -1.44375 65280
0.339421 0.0140257 -1.44375 65280
0.342226 0.0140257 -1.44375 65280
0.34503099 0.0140257 -1.44375 65280
0.34783599 0.0140257 -1.44375 65280
0.35064101 0.0140257 -1.44375 65280
0.35344601 0.0140257 -1.44375 65280
0.35625201 0.0140257 -1.44375 65280
0.35905701 0.0140257 -1.44375 65280
0.361862 0.0140257 -1.44375 65280
0.364667 0.0140257 -1.44375 65280
0.36747199 0.0140257 -1.44375 65280
0.37027699 0.0140257 -1.44375 65280
0.37308201 0.0140257 -1.44375 65280
0.37588701 0.0140257 -1.44375 65280
0.37869301 0.0140257 -1.44375 65280
0.38149801 0.0140257 -1.44375 65280
0.384303 0.0140257 -1.44375 65280
0.387108 0.0140257 -1.44375 65280
0.38991299 0.0140257 -1.44375 65280
0.39271799 0.0140257 -1.44375 65280
0.39552301 0.0140257 -1.44375 65280
0.39832899 0.0140257 -1.44375 65280
-0.40077201 0.016815601 -1.44245 65280
-0.39796901 0.016815601 -1.44245 65280
-0.39516699 0.016815601 -1.44245 65280
-0.392364 0.016815601 -1.44245 65280
-0.38956201 0.016815601 -1.44245 65280
-0.38675901 0.016815601 -1.44245 65280
-0.38395599 0.016815601 -1.44245 65280
-0.381154 0.016815601 -1.44245 65280
-0.378351 0.016815601 -1.44245 65280
-0.37554899 0.016815601 -1.44245 65280
-0.37274599 0.016815601 -1.44245 65280
-0.36994299 0.016815601 -1.44245 65280
-0.36714101 0.016815601 -1.44245 65280
-0.36433801 0.016815601 -1.44245 65280
-0.361536 0.016815601 -1.44245 65280
-0.358733 0.016815601 -1.44245 65280
-0.35593 0.016815601 -1.44245 65280
-0.35312799 0.016815601 -1.44245 65280
-0.35032499 0.016815601 -1.44245 65280
-0.347523 0.016815601 -1.44245 65280
-0.34472001 0.016815601 -1.44245 65280
-0.34191701 0.016815601 -1.44245 65280
-0.33911499 0.016815601 -1.44245 65280
-0.336312 0.016815601 -1.44245 65280
-0.33351001 0.016815601 -1.44245 65280
-0.33070701 0.016815601 -1.44245 65280
-0.32790399 0.016815601 -1.44245 65280
-0.325102 0.016815601 -1.44245 65280
-0.322299 0.016815601 -1.44245 65280
-0.31949699 0.016815601 -1.44245 65280
-0.31669399 0.016815601 -1.44245 65280
-0.31389099 0.016815601 -1.44245 65280
-0.31108901 0.016815601 -1.44245 65280
-0.30828601 0.016815601 -1.44245 65280
-0.305484 0.016815601 -1.44245 65280
-0.302681 0.016815601 -1.44245 65280
-0.299878 0.016815601 -1.44245 65280
-0.29707599 0.016815601 -1.44245 65280
-0.29427299 0.016815601 -1.44245 65280
-0.291471 0.016815601 -1.44245 65280
-0.28866801 0.016815601 -1.44245 65280
-0.28586501 0.016815601 -1.44245 65280
-0.28306299 0.016815601 -1.44245 65280
-0.28026 0.016815601 -1.44245 65280
-0.27745801 0.016815601 -1.44245 65280
-0.27465501 0.016815601 -1.44245 65280
-0.27185199 0.016815601 -1.44245 65280
-0.26905 0.016815601 -1.44245 65280
-0.266247 0.016815601 -1.44245 65280
-0.26344499 0.016815601 -1.44245 65280
-0.26064199 0.016815601 -1.44245 65280
-0.25783899 0.016815601 -1.44245 65280
-0.25503701 0.016815601 -1.44245 65280
-0.25223401 0.016815601 -1.44245 65280
-0.249432 0.016815601 -1.44245 65280
-0.246629 0.016815601 -1.44245 65280
-0.243826 0.016815601 -1.44245 65280
-0.241024 0.016815601 -1.44245 65280
-0.238221 0.016815601 -1.44245 65280
-0.23541901 0.016815601 -1.44245 65280
-0.23261601 0.016815601 -1.44245 65280
-0.22981299 0.016815601 -1.44245 65280
-0.227011 0.016815601 -1.44245 65280
-0.224208 0.016815601 -1.44245 65280
-0.221406 0.016815601 -1.44245 65280
-0.218603 0.016815601 -1.44245 65280
-0.2158 0.016815601 -1.44245 65280
-0.212998 0.016815601 -1.44245 65280
-0.210195 0.016815601 -1.44245 65280
-0.20739301 0.016815601 -1.44245 65280
-0.20458999 0.016815601 -1.44245 65280
-0.20178699 0.016815601 -1.44245 65280
-0.198985 0.016815601 -1.44245 65280
-0.196182 0.016815601 -1.44245 65280
-0.19338 0.016815601 -1.44245 65280
-0.190577 0.016815601 -1.44245 65280
-0.187774 0.016815601 -1.44245 65280
-0.184972 0.016815601 -1.44245 65280
-0.18216901 0.016815601 -1.44245 65280
-0.17936701 0.016815601 -1.44245 65280
-0.17656399 0.016815601 -1.44245 65280
-0.173761 0.016815601 -1.44245 65280
-0.170959 0.016815601 -1.44245 65280
-0.168156 0.016815601 -1.44245 65280
-0.165354 0.016815601 -1.44245 65280
-0.162551 0.016815601 -1.44245 65280
-0.159748 0.016815601 -1.44245 65280
-0.156946 0.016815601 -1.44245 65280
-0.15414301 0.016815601 -1.44245 65280
-0.15134101 0.016815601 -1.44245 65280
-0.14853799 0.016815601 -1.44245 65280
-0.145735 0.016815601 -1.44245 65280
-0.142933 0.016815601 -1.44245 65280
-0.14013 0.016815601 -1.44245 65280
-0.137327 0.016815601 -1.44245 65280
-0.134525 0.016815601 -1.44245 65280
-0.131722 0.016815601 -1.44245 65280
-0.12892 0.016815601 -1.44245 65280
-0.12611701 0.016815601 -1.44245 65280
-0.123314 0.016815601 -1.44245 65280
-0.120512 0.016815601 -1.44245 65280
-0.117709 0.016815601 -1.44245 65280
-0.114907 0.016815601 -1.44245 65280
-0.112104 0.016815601 -1.44245 65280
-0.109301 0.016815601 -1.44245 65280
-0.106499 0.016815601 -1.44245 65280
-0.103696 0.016815601 -1.44245 65280
-0.100894 0.016815601 -1.44245 65280
-0.098091103 0.016815601 -1.44245 65280
-0.0952885 0.016815601 -1.44245 65280
-0.092485897 0.016815601 -1.44245 65280
-0.089683302 0.016815601 -1.44245 65280
-0.086880699 0.016815601 -1.44245 65280
-0.084078103 0.016815601 -1.44245 65280
-0.0812755 0.016815601 -1.44245 65280
-0.078472897 0.016815601 -1.44245 65280
-0.075670302 0.016815601 -1.44245 65280
-0.072867699 0.016815601 -1.44245 65280
-0.070065103 0.016815601 -1.44245 65280
-0.067262404 0.016815601 -1.44245 65280
-0.064459801 0.016815601 -1.44245 65280
-0.061657201 0.016815601 -1.44245 65280
-0.058854599 0.016815601 -1.44245 65280
-0.056051999 0.016815601 -1.44245 65280
-0.0532494 0.016815601 -1.44245 65280
-0.050446801 0.016815601 -1.44245 65280
-0.047644202 0.016815601 -1.44245 65280
-0.044841599 0.016815601 -1.44245 65280
-0.0404795 0.016191799 -1.38894 65280
-0.037647702 0.0161347 -1.38404 65280
-0.0349047 0.016109901 -1.38191 65280
-0.0321946 0.0160973 -1.38083 65280
-0.0295185 0.016101001 -1.38115 65280
-0.0268682 0.016120899 -1.3828599 65280
-0.024208499 0.016139001 -1.38441 65280
-0.0215372 0.0161529 -1.3856 65280
-0.018858099 0.0161641 -1.38656 65280
-0.0161724 0.0161724 -1.38727 65280
-0.0134822 0.0161786 -1.3878 65280
-0.0107883 0.016182501 -1.38814 65280
-0.0080914199 0.016182801 -1.38817 65280
-0.0053932201 0.016179699 -1.3879 65280
-0.00262739 0.0157643 -1.35227 65280
0 0.0156867 -1.34561 65280
0.0026078499 0.0156471 -1.3422101 65280
0.0052060299 0.0156181 -1.33972 65280
0.00779803 0.0155961 -1.3378299 65280
0.0103865 0.0155797 -1.33643 65280
0.0129735 0.0155682 -1.33544 65280
0.0155611 0.0155611 -1.3348401 65280
0.018151401 0.0155584 -1.3346 65280
0.0207456 0.0155592 -1.3346699 65280
0.023344301 0.0155628 -1.33498 65280
0.025947601 0.0155686 -1.33548 65280
0.0285591 0.0155777 -1.33626 65280
0.031171201 0.0155856 -1.3369401 65280
0.033812899 0.0156059 -1.33868 65280
0.036467899 0.0156291 -1.34067 65280
0.039174199 0.0156697 -1.3441499 65280
0.041803502 0.015676299 -1.34472 65280
0.044422101 0.0156784 -1.3449 65280
0.047037899 0.0156793 -1.34497 65280
0.049642801 0.0156767 -1.34475 65280
0.0522248 0.015667399 -1.34396 65280
0.054799899 0.015657101 -1.34307 65280
0.058000602 0.0158183 -1.3569 65280
0.064459801 0.016815601 -1.44245 65280
0.067262404 0.016815601 -1.44245 65280
0.070065103 0.016815601 -1.44245 65280
0.072867699 0.016815601 -1.44245 65280
0.075670302 0.016815601 -1.44245 65280
0.078472897 0.016815601 -1.44245 65280
0.0812755 0.016815601 -1.44245 65280
0.084078103 0.016815601 -1.44245 65280
0.086880699 0.016815601 -1.44245 65280
0.089683302 0.016815601 -1.44245 65280
0.092485897 0.016815601 -1.44245 65280
0.0952885 0.016815601 -1.44245 65280
0.098091103 0.016815601 -1.44245 65280
0.100894 0.016815601 -1.44245 65280
0.103696 0.016815601 -1.44245 65280
0.106499 0.016815601 -1.44245 65280
0.109301 0.016815601 -1.44245 65280
0.112104 0.016815601 -1.44245 65280
0.114907 0.016815601 -1.44245 65280
0.117709 0.016815601 -1.44245 65280
0.120512 0.016815601 -1.44245 65280
0.123314 0.016815601 -1.44245 65280
0.12611701 0.016815601 -1.44245 65280
0.12892 0.016815601 -1.44245 65280
0.131722 0.016815601 -1.44245 65280
0.134525 0.016815601 -1.44245 65280
0.137327 0.016815601 -1.44245 65280
0.14013 0.016815601 -1.44245 65280
0.142933 0.016815601 -1.44245 65280
0.145735 0.016815601 -1.44245 65280
0.14853799 0.016815601 -1.44245 65280
0.15134101 0.016815601 -1.44245 65280
0.15414301 0.016815601 -1.44245 65280
0.156946 0.016815601 -1.44245 65280
0.159748 0.016815601 -1.44245 65280
0.162551 0.016815601 -1.44245 65280
0.165354 0.016815601 -1.44245 65280
0.168156 0.016815601 -1.44245 65280
0.170959 0.016815601 -1.44245 65280
0.173761 0.016815601 -1.44245 65280
0.17656399 0.016815601 -1.44245 65280
0.17936701 0.016815601 -1.44245 65280
0.18216901 0.016815601 -1.44245 65280
0.184972 0.016815601 -1.44245 65280
0.187774 0.016815601 -1.44245 65280
0.190577 0.016815601 -1.44245 65280
0.19338 0.016815601 -1.44245 65280
0.196182 0.016815601 -1.44245 65280
0.198985 0.016815601 -1.44245 65280
0.20178699 0.016815601 -1.44245 65280
0.20458999 0.016815601 -1.44245 65280
0.20739301 0.016815601 -1.44245 65280
0.210195 0.016815601 -1.44245 65280
0.212998 0.016815601 -1.44245 65280
0.2158 0.016815601 -1.44245 65280
0.218603 0.016815601 -1.44245 65280
0.221406 0.016815601 -1.44245 65280
0.224208 0.016815601 -1.44245 65280
0.227011 0.016815601 -1.44245 65280
0.22981299 0.016815601 -1.44245 65280
0.23261601 0.016815601 -1.44245 65280
0.23541901 0.016815601 -1.44245 65280
0.238221 0.016815601 -1.44245 65280
0.241024 0.016815601 -1.44245 65280
0.243826 0.016815601 -1.44245 65280
0.246629 0.016815601 -1.44245 65280
0.249432 0.016815601 -1.44245 65280
0.25223401 0.016815601 -1.44245 65280
0.25503701 0.016815601 -1.44245 65280
0.25783899 0.016815601 -1.44245 65280
0.26064199 0.016815601 -1.44245 65280
0.26344499 0.016815601 -1.44245 65280
0.266247 0.016815601 -1.44245 65280
0.26905 0.016815601 -1.44245 65280
0.27185199 0.016815601 -1.44245 65280
0.27465501 0.016815601 -1.44245 65280
0.27745801 0.016815601 -1.44245 65280
0.28026 0.016815601 -1.44245 65280
0.28306299 0.016815601 -1.44245 65280
0.28586501 0.016815601 -1.44245 65280
0.28866801 0.016815601 -1.44245 65280
0.291471 0.016815601 -1.44245 65280
0.29427299 0.016815601 -1.44245 65280
0.29707599 0.016815601 -1.44245 65280
0.299878 0.016815601 -1.44245 65280
0.302681 0.016815601 -1.44245 65280
0.305484 0.016815601 -1.44245 65280
0.30828601 0.016815601 -1.44245 65280
0.31108901 0.016815601 -1.44245 65280
0.31389099 0.016815601 -1.44245 65280
0.31669399 0.016815601 -1.44245 65280
0.31949699 0.016815601 -1.44245 65280
0.322299 0.016815601 -1.44245 65280
0.325102 0.016815601 -1.44245 65280
0.32790399 0.016815601 -1.44245 65280
0.33070701 0.016815601 -1.44245 65280
0.33351001 0.016815601 -1.44245 65280
0.336312 0.016815601 -1.44245 65280
0.33911499 0.016815601 -1.44245 65280
0.34191701 0.016815601 -1.44245 65280
0.34472001 0.016815601 -1.44245 65280
0.347523 0.016815601 -1.44245 65280
0.35032499 0.016815601 -1.44245 65280
0.35312799 0.016815601 -1.44245 65280
0.35593 0.016815601 -1.44245 65280
0.358733 0.016815601 -1.44245 65280
0.361536 0.016815601 -1.44245 65280
0.36433801 0.016815601 -1.44245 65280
0.36714101 0.016815601 -1.44245 65280
0.36994299 0.016815601 -1.44245 65280
0.37274599 0.016815601 -1.44245 65280
0.37554899 0.016815601 -1.44245 65280
0.378351 0.016815601 -1.44245 65280
0.381154 0.016815601 -1.44245 65280
0.38395599 0.016815601 -1.44245 65280
0.38675901 0.016815601 -1.44245 65280
0.38956201 0.016815601 -1.44245 65280
0.392364 0.016815601 -1.44245 65280
0.39516699 0.016815601 -1.44245 65280
0.39796901 0.016815601 -1.44245 65280
-0.40041199 0.0196006 -1.44115 65280
-0.39761099 0.0196006 -1.44115 65280
-0.394811 0.0196006 -1.44115 65280
-0.39201099 0.0196006 -1.44115 65280
-0.389211 0.0196006 -1.44115 65280
-0.38641101 0.0196006 -1.44115 65280
-0.38361099 0.0196006 -1.44115 65280
-0.38081101 0.0196006 -1.44115 65280
-0.37801099 0.0196006 -1.44115 65280
-0.375211 0.0196006 -1.44115 65280
-0.37241101 0.0196006 -1.44115 65280
-0.369611 0.0196006 -1.44115 65280
-0.36681101 0.0196006 -1.44115 65280
-0.36401001 0.0196006 -1.44115 65280
-0.36120999 0.0196006 -1.44115 65280
-0.35841 0.0196006 -1.44115 65280
-0.35561001 0.0196006 -1.44115 65280
-0.35281 0.0196006 -1.44115 65280
-0.35001001 0.0196006 -1.44115 65280
-0.34720999 0.0196006 -1.44115 65280
-0.34441 0.0196006 -1.44115 65280
-0.34161001 0.0196006 -1.44115 65280
-0.33881 0.0196006 -1.44115 65280
-0.33601001 0.0196006 -1.44115 65280
-0.33320999 0.0196006 -1.44115 65280
-0.33040899 0.0196006 -1.44115 65280
-0.327609 0.0196006 -1.44115 65280
-0.32480901 0.0196006 -1.44115 65280
-0.322009 0.0196006 -1.44115 65280
-0.31920901 0.0196006 -1.44115 65280
-0.31640899 0.0196006 -1.44115 65280
-0.313609 0.0196006 -1.44115 65280
-0.31080899 0.0196006 -1.44115 65280
-0.308009 0.0196006 -1.44115 65280
-0.30520901 0.0196006 -1.44115 65280
-0.30240899 0.0196006 -1.44115 65280
-0.29960901 0.0196006 -1.44115 65280
-0.29680899 0.0196006 -1.44115 65280
-0.29400799 0.0196006 -1.44115 65280
-0.291208 0.0196006 -1.44115 65280
-0.28840801 0.0196006 -1.44115 65280
-0.28560799 0.0196006 -1.44115 65280
-0.28280801 0.0196006 -1.44115 65280
-0.28000799 0.0196006 -1.44115 65280
-0.277208 0.0196006 -1.44115 65280
-0.27440801 0.0196006 -1.44115 65280
-0.271608 0.0196006 -1.44115 65280
-0.26880801 0.0196006 -1.44115 65280
-0.26600799 0.0196006 -1.44115 65280
-0.263208 0.0196006 -1.44115 65280
-0.260407 0.0196006 -1.44115 65280
-0.25760701 0.0196006 -1.44115 65280
-0.254807 0.0196006 -1.44115 65280
-0.25200701 0.0196006 -1.44115 65280
-0.249207 0.0196006 -1.44115 65280
-0.246407 0.0196006 -1.44115 65280
-0.243607 0.0196006 -1.44115 65280
-0.240807 0.0196006 -1.44115 65280
-0.23800699 0.0196006 -1.44115 65280
-0.23520701 0.0196006 -1.44115 65280
-0.232407 0.0196006 -1.44115 65280
-0.229607 0.0196006 -1.44115 65280
-0.226807 0.0196006 -1.44115 65280
-0.224006 0.0196006 -1.44115 65280
-0.22120599 0.0196006 -1.44115 65280
-0.21840601 0.0196006 -1.44115 65280
-0.215606 0.0196006 -1.44115 65280
-0.212806 0.0196006 -1.44115 65280
-0.210006 0.0196006 -1.44115 65280
-0.207206 0.0196006 -1.44115 65280
-0.20440599 0.0196006 -1.44115 65280
-0.20160601 0.0196006 -1.44115 65280
-0.198806 0.0196006 -1.44115 65280
-0.196006 0.0196006 -1.44115 65280
-0.193206 0.0196006 -1.44115 65280
-0.190405 0.0196006 -1.44115 65280
-0.18760499 0.0196006 -1.44115 65280
-0.18480501 0.0196006 -1.44115 65280
-0.182005 0.0196006 -1.44115 65280
-0.179205 0.0196006 -1.44115 65280
-0.176405 0.0196006 -1.44115 65280
-0.173605 0.0196006 -1.44115 65280
-0.17080501 0.0196006 -1.44115 65280
-0.168005 0.0196006 -1.44115 65280
-0.165205 0.0196006 -1.44115 65280
-0.162405 0.0196006 -1.44115 65280
-0.159605 0.0196006 -1.44115 65280
-0.15680499 0.0196006 -1.44115 65280
-0.15400399 0.0196006 -1.44115 65280
-0.151204 0.0196006 -1.44115 65280
-0.148404 0.0196006 -1.44115 65280
-0.145604 0.0196006 -1.44115 65280
-0.142804 0.0196006 -1.44115 65280
-0.14000399 0.0196006 -1.44115 65280
-0.13720401 0.0196006 -1.44115 65280
-0.134404 0.0196006 -1.44115 65280
-0.131604 0.0196006 -1.44115 65280
-0.128804 0.0196006 -1.44115 65280
-0.126004 0.0196006 -1.44115 65280
-0.123204 0.0196006 -1.44115 65280
-0.120403 0.0196006 -1.44115 65280
-0.117603 0.0196006 -1.44115 65280
-0.114803 0.0196006 -1.44115 65280
-0.112003 0.0196006 -1.44115 65280
-0.109203 0.0196006 -1.44115 65280
-0.106403 0.0196006 -1.44115 65280
-0.103603 0.0196006 -1.44115 65280
-0.100803 0.0196006 -1.44115 65280
-0.098002799 0.0196006 -1.44115 65280
-0.095202699 0.0196006 -1.44115 65280
-0.092402697 0.0196006 -1.44115 65280
-0.089602597 0.0196006 -1.44115 65280
-0.086802498 0.0196006 -1.44115 65280
-0.084002398 0.0196006 -1.44115 65280
-0.081202298 0.0196006 -1.44115 65280
-0.078402303 0.0196006 -1.44115 65280
-0.075602204 0.0196006 -1.44115 65280
-0.072802097 0.0196006 -1.44115 65280
-0.070001997 0.0196006 -1.44115 65280
-0.067201898 0.0196006 -1.44115 65280
-0.064401902 0.0196006 -1.44115 65280
-0.061601799 0.0196006 -1.44115 65280
-0.058801699 0.0196006 -1.44115 65280
-0.0560016 0.0196006 -1.44115 65280
-0.0532015 0.0196006 -1.44115 65280
-0.050401401 0.0196006 -1.44115 65280
-0.047601402 0.0196006 -1.44115 65280
-0.044801299 0.0196006 -1.44115 65280
-0.0405697 0.018932501 -1.39203 65280
-0.037717599 0.0188588 -1.38661 65280
-0.034964301 0.018827001 -1.38427 65280
-0.0322432 0.018808501 -1.38292 65280
-0.029550999 0.0188052 -1.38267 65280
-0.026879899 0.018815899 -1.38346 65280
-0.024209799 0.0188298 -1.38448 65280
-0.0215321 0.0188406 -1.38527 65280
-0.018851399 0.018851399 -1.38606 65280
-0.0161651 0.018859301 -1.38664 65280
-0.0134744 0.018864101 -1.387 65280
-0.0107807 0.018866301 -1.3871599 65280
-0.0080853999 0.0188659 -1.38714 65280
-0.0053885598 0.018859999 -1.3867 65280
-0.0026926601 0.0188486 -1.38586 65280
0 0.018337499 -1.34828 65280
0.0026117801 0.018282499 -1.3442301 65280
0.0052129999 0.0182455 -1.34152 65280
0.0078073898 0.0182172 -1.33944 65280
0.0103978 0.018196199 -1.33789 65280
0.0129864 0.018181 -1.3367701 65280
0.015575 0.018170901 -1.33603 65280
0.018166 0.018166 -1.33567 65280
0.020761101 0.018166 -1.33567 65280
0.0233618 0.018170301 -1.33599 65280
0.0259686 0.018177999 -1.33656 65280
0.0285843 0.01819 -1.33744 65280
0.0311966 0.018198 -1.33803 65280
0.033838298 0.0182206 -1.33969 65280
0.036492299 0.0182462 -1.34157 65280
0.039188001 0.0182877 -1.34462 65280
0.041813198 0.018293301 -1.34503 65280
0.0444308 0.018294999 -1.34516 65280
0.047038101 0.0182926 -1.34498 65280
0.049631801 0.018285399 -1.34445 65280
0.052211799 0.0182741 -1.3436199 65280
0.054808699 0.0182696 -1.34329 65280
0.0579652 0.018443501 -1.35607 65280
0.064401902 0.0196006 -1.44115 65280
0.067201898 0.0196006 -1.44115 65280
0.070001997 0.0196006 -1.44115 65280
0.072802097 0.0196006 -1.44115 65280
0.075602204 0.0196006 -1.44115 65280
0.078402303 0.0196006 -1.44115 65280
0.081202298 0.0196006 -1.44115 65280
0.084002398 0.0196006 -1.44115 65280
0.086802498 0.0196006 -1.44115 65280
0.089602597 0.0196006 -1.44115 65280
0.092402697 0.0196006 -1.44115 65280
0.095202699 0.0196006 -1.44115 65280
0.098002799 0.0196006 -1.44115 65280
0.100803 0.0196006 -1.44115 65280
0.103603 0.0196006 -1.44115 65280
0.106403 0.0196006 -1.44115 65280
0.109203 0.0196006 -1.44115 65280
0.112003 0.0196006 -1.44115 65280
0.114803 0.0196006 -1.44115 65280
0.117603 0.0196006 -1.44115 65280
0.120403 0.0196006 -1.44115 65280
0.123204 0.0196006 -1.44115 65280
0.126004 0.0196006 -1.44115 65280
0.128804 0.0196006 -1.44115 65280
0.131604 0.0196006 -1.44115 65280
0.134404 0.0196006 -1.44115 65280
0.13720401 0.0196006 -1.44115 65280
0.14000399 0.0196006 -1.44115 65280
0.142804 0.0196006 -1.44115 65280
0.145604 0.0196006 -1.44115 65280
0.148404 0.0196006 -1.44115 65280
0.151204 0.0196006 -1.44115 65280
0.15400399 0.0196006 -1.44115 65280
0.15680499 0.0196006 -1.44115 65280
0.159605 0.0196006 -1.44115 65280
0.162405 0.0196006 -1.44115 65280
0.165205 0.0196006 -1.44115 65280
0.168005 0.0196006 -1.44115 65280
0.17080501 0.0196006 -1.44115 65280
0.173605 0.0196006 -1.44115 65280
0.176405 0.0196006 -1.44115 65280
0.179205 0.0196006 -1.44115 65280
0.182005 0.0196006 -1.44115 65280
0.18480501 0.0196006 -1.44115 65280
0.18760499 0.0196006 -1.44115 65280
0.190405 0.0196006 -1.44115 65280
0.193206 0.0196006 -1.44115 65280
0.196006 0.0196006 -1.44115 65280
0.198806 0.0196006 -1.44115 65280
0.20160601 0.0196006 -1.44115 65280
0.20440599 0.0196006 -1.44115 65280
0.207206 0.0196006 -1.44115 65280
0.210006 0.0196006 -1.44115 65280
0.212806 0.0196006 -1.44115 65280
0.215606 0.0196006 -1.44115 65280
0.21840601 0.0196006 -1.44115 65280
0.22120599 0.0196006 -1.44115 65280
0.224006 0.0196006 -1.44115 65280
0.226807 0.0196006 -1.44115 65280
0.229607 0.0196006 -1.44115 65280
0.232407 0.0196006 -1.44115 65280
0.23520701 0.0196006 -1.44115 65280
0.23800699 0.0196006 -1.44115 65280
0.240807 0.0196006 -1.44115 65280
0.243607 0.0196006 -1.44115 65280
0.246407 0.0196006 -1.44115 65280
0.249207 0.0196006 -1.44115 65280
0.25200701 0.0196006 -1.44115 65280
0.254807 0.0196006 -1.44115 65280
0.25760701 0.0196006 -1.44115 65280
0.260407 0.0196006 -1.44115 65280
0.263208 0.0196006 -1.44115 65280
0.26600799 0.0196006 -1.44115 65280
0.26880801 0.0196006 -1.44115 65280
0.271608 0.0196006 -1.44115 65280
0.27440801 0.0196006 -1.44115 65280
0.277208 0.0196006 -1.44115 65280
0.28000799 0.0196006 -1.44115 65280
0.28280801 0.0196006 -1.44115 65280
0.28560799 0.0196006 -1.44115 65280
0.28840801 0.0196006 -1.44115 65280
0.291208 0.0196006 -1.44115 65280
0.29400799 0.0196006 -1.44115 65280
0.29680899 0.0196006 -1.44115 65280
0.29960901 0.0196006 -1.44115 65280
0.30240899 0.0196006 -1.44115 65280
0.30520901 0.0196006 -1.44115 65280
0.308009 0.0196006 -1.44115 65280
0.31080899 0.0196006 -1.44115 65280
0.313609 0.0196006 -1.44115 65280
0.31640899 0.0196006 -1.44115 65280
0.31920901 0.0196006 -1.44115 65280
0.322009 0.0196006 -1.44115 65280
0.32480901 0.0196006 -1.44115 65280
0.327609 0.0196006 -1.44115 65280
0.33040899 0.0196006 -1.44115 65280
0.33320999 0.0196006 -1.44115 65280
0.33601001 0.0196006 -1.44115 65280
0.33881 0.0196006 -1.44115 65280
0.34161001 0.0196006 -1.44115 65280
0.34441 0.0196006 -1.44115 65280
0.34720999 0.0196006 -1.44115 65280
0.35001001 0.0196006 -1.44115 65280
0.35281 0.0196006 -1.44115 65280
0.35561001 0.0196006 -1.44115 65280
0.35841 0.0196006 -1.44115 65280
0.36120999 0.0196006 -1.44115 65280
0.36401001 0.0196006 -1.44115 65280
0.36681101 0.0196006 -1.44115 65280
0.369611 0.0196006 -1.44115 65280
0.37241101 0.0196006 -1.44115 65280
0.375211 0.0196006 -1.44115 65280
0.37801099 0.0196006 -1.44115 65280
0.38081101 0.0196006 -1.44115 65280
0.38361099 0.0196006 -1.44115 65280
0.38641101 0.0196006 -1.44115 65280
0.389211 0.0196006 -1.44115 65280
0.39201099 0.0196006 -1.44115 65280
0.394811 0.0196006 -1.44115 65280
0.39761099 0.0196006 -1.44115 65280
-0.40005201 0.022380499 -1.43985 65280
-0.39725399 0.022380499 -1.43985 65280
-0.394456 0.022380499 -1.43985 65280
-0.39165899 0.022380499 -1.43985 65280
-0.388861 0.022380499 -1.43985 65280
-0.38606399 0.022380499 -1.43985 65280
-0.383266 0.022380499 -1.43985 65280
-0.38046899 0.022380499 -1.43985 65280
-0.377671 0.022380499 -1.43985 65280
-0.37487301 0.022380499 -1.43985 65280
-0.372076 0.022380499 -1.43985 65280
-0.36927801 0.022380499 -1.43985 65280
-0.36648101 0.022380499 -1.43985 65280
-0.36368299 0.022380499 -1.43985 65280
-0.36088601 0.022380499 -1.43985 65280
-0.35808799 0.022380499 -1.43985 65280
-0.35529101 0.022380499 -1.43985 65280
-0.35249299 0.022380499 -1.43985 65280
-0.349695 0.022380499 -1.43985 65280
-0.34689799 0.022380499 -1.43985 65280
-0.3441 0.022380499 -1.43985 65280
-0.34130299 0.022380499 -1.43985 65280
-0.338505 0.022380499 -1.43985 65280
-0.33570799 0.022380499 -1.43985 65280
-0.33291 0.022380499 -1.43985 65280
-0.33011201 0.022380499 -1.43985 65280
-0.327315 0.022380499 -1.43985 65280
-0.32451701 0.022380499 -1.43985 65280
-0.32172 0.022380499 -1.43985 65280
-0.31892201 0.022380499 -1.43985 65280
-0.31612501 0.022380499 -1.43985 65280
-0.31332701 0.022380499 -1.43985 65280
-0.31053001 0.022380499 -1.43985 65280
-0.30773199 0.022380499 -1.43985 65280
-0.304934 0.022380499 -1.43985 65280
-0.30213699 0.022380499 -1.43985 65280
-0.299339 0.022380499 -1.43985 65280
-0.29654199 0.022380499 -1.43985 65280
-0.293744 0.022380499 -1.43985 65280
-0.29094699 0.022380499 -1.43985 65280
-0.288149 0.022380499 -1.43985 65280
-0.28535101 0.022380499 -1.43985 65280
-0.282554 0.022380499 -1.43985 65280
-0.27975601 0.022380499 -1.43985 65280
-0.276959 0.022380499 -1.43985 65280
-0.27416101 0.022380499 -1.43985 65280
-0.271364 0.022380499 -1.43985 65280
-0.26856601 0.022380499 -1.43985 65280
-0.265769 0.022380499 -1.43985 65280
-0.26297101 0.022380499 -1.43985 65280
-0.26017299 0.022380499 -1.43985 65280
-0.25737599 0.022380499 -1.43985 65280
-0.25457799 0.022380499 -1.43985 65280
-0.25178099 0.022380499 -1.43985 65280
-0.248983 0.022380499 -1.43985 65280
-0.246186 0.022380499 -1.43985 65280
-0.243388 0.022380499 -1.43985 65280
-0.24059001 0.022380499 -1.43985 65280
-0.237793 0.022380499 -1.43985 65280
-0.23499499 0.022380499 -1.43985 65280
-0.232198 0.022380499 -1.43985 65280
-0.22939999 0.022380499 -1.43985 65280
-0.226603 0.022380499 -1.43985 65280
-0.223805 0.022380499 -1.43985 65280
-0.221008 0.022380499 -1.43985 65280
-0.21821 0.022380499 -1.43985 65280
-0.21541201 0.022380499 -1.43985 65280
-0.212615 0.022380499 -1.43985 65280
-0.20981701 0.022380499 -1.43985 65280
-0.20702 0.022380499 -1.43985 65280
-0.20422199 0.022380499 -1.43985 65280
-0.201425 0.022380499 -1.43985 65280
-0.198627 0.022380499 -1.43985 65280
-0.195829 0.022380499 -1.43985 65280
-0.193032 0.022380499 -1.43985 65280
-0.19023401 0.022380499 -1.43985 65280
-0.187437 0.022380499 -1.43985 65280
-0.18463901 0.022380499 -1.43985 65280
-0.181842 0.022380499 -1.43985 65280
-0.17904399 0.022380499 -1.43985 65280
-0.176246 0.022380499 -1.43985 65280
-0.17344899 0.022380499 -1.43985 65280
-0.170651 0.022380499 -1.43985 65280
-0.167854 0.022380499 -1.43985 65280
-0.16505601 0.022380499 -1.43985 65280
-0.162259 0.022380499 -1.43985 65280
-0.15946101 0.022380499 -1.43985 65280
-0.156664 0.022380499 -1.43985 65280
-0.15386599 0.022380499 -1.43985 65280
-0.151068 0.022380499 -1.43985 65280
-0.14827099 0.022380499 -1.43985 65280
-0.145473 0.022380499 -1.43985 65280
-0.142676 0.022380499 -1.43985 65280
-0.139878 0.022380499 -1.43985 65280
-0.137081 0.022380499 -1.43985 65280
-0.13428301 0.022380499 -1.43985 65280
-0.131485 0.022380499 -1.43985 65280
-0.12868799 0.022380499 -1.43985 65280
-0.12589 0.022380499 -1.43985 65280
-0.123093 0.022380499 -1.43985 65280
-0.120295 0.022380499 -1.43985 65280
-0.117498 0.022380499 -1.43985 65280
-0.1147 0.022380499 -1.43985 65280
-0.111903 0.022380499 -1.43985 65280
-0.109105 0.022380499 -1.43985 65280
-0.106307 0.022380499 -1.43985 65280
-0.10351 0.022380499 -1.43985 65280
-0.100712 0.022380499 -1.43985 65280
-0.097914703 0.022380499 -1.43985 65280
-0.095117196 0.022380499 -1.43985 65280
-0.0923196 0.022380499 -1.43985 65280
-0.089521997 0.022380499 -1.43985 65280
-0.086724497 0.022380499 -1.43985 65280
-0.083926901 0.022380499 -1.43985 65280
-0.081129298 0.022380499 -1.43985 65280
-0.078331798 0.022380499 -1.43985 65280
-0.075534202 0.022380499 -1.43985 65280
-0.072736703 0.022380499 -1.43985 65280
-0.069939099 0.022380499 -1.43985 65280
-0.067141503 0.022380499 -1.43985 65280
-0.064343996 0.022380499 -1.43985 65280
-0.0615464 0.022380499 -1.43985 65280
-0.0587488 0.022380499 -1.43985 65280
-0.055951301 0.022380499 -1.43985 65280
-0.053153701 0.022380499 -1.43985 65280
-0.050356101 0.022380499 -1.43985 65280
-0.047558598 0.022380499 -1.43985 65280
-0.044760998 0.022380499 -1.43985 65280
-0.040683798 0.021698 -1.39595 65280
-0.037791699 0.021595299 -1.38934 65280
-0.035025701 0.0215542 -1.3867 65280
-0.032291401 0.0215276 -1.38498 65280
-0.0295824 0.0215145 -1.38414 65280
-0.0268989 0.0215191 -1.3844399 65280
-0.024216101 0.0215255 -1.38484 65280
-0.021532699 0.021532699 -1.3853101 65280
-0.018848799 0.0215415 -1.38588 65280
-0.0161612 0.0215482 -1.38631 65280
-0.0134697 0.021551499 -1.38652 65280
-0.0107764 0.021552799 -1.3866 65280
-0.0080814296 0.021550501 -1.3864501 65280
-0.0053855702 0.0215423 -1.3859299 65280
-0.00269104 0.0215283 -1.38503 65280
0 0.021040499 -1.35365 65280
0.0026171601 0.020937299 -1.347 65280
0.0052219001 0.0208876 -1.34381 65280
0.0078203604 0.0208543 -1.34166 65280
0.0104141 0.020828201 -1.33999 65280
0.0130049 0.020807801 -1.33867 65280
0.0155945 0.0207927 -1.3377 65280
0.018185999 0.020784 -1.33714 65280
0.020781999 0.020781999 -1.33701 65280
0.0233842 0.020786 -1.33727 65280
0.0259944 0.0207955 -1.33788 65280
0.028612699 0.0208093 -1.33877 65280
0.0312436 0.020829 -1.34004 65280
0.0338681 0.0208419 -1.34087 65280
0.036527 0.0208726 -1.34284 65280
0.0391987 0.020905999 -1.34499 65280
0.0418237 0.0209118 -1.3453701 65280
0.0444417 0.0209137 -1.34549 65280
0.047047101 0.020909799 -1.34524 65280
0.049640998 0.020901499 -1.3447 65280
0.052239299 0.020895701 -1.34433 65280
0.055251502 0.021048199 -1.35414 65280
0.0615464 0.022380499 -1.43985 65280
0.064343996 0.022380499 -1.43985 65280
0.067141503 0.022380499 -1.43985 65280
0.069939099 0.022380499 -1.43985 65280
0.072736703 0.022380499 -1.43985 65280
0.075534202 0.022380499 -1.43985 65280
0.078331798 0.022380499 -1.43985 65280
0.081129298 0.022380499 -1.43985 65280
0.083926901 0.022380499 -1.43985 65280
0.086724497 0.022380499 -1.43985 65280
0.089521997 0.022380499 -1.43985 65280
0.0923196 0.022380499 -1.43985 65280
0.095117196 0.022380499 -1.43985 65280
0.097914703 0.022380499 -1.43985 65280
0.100712 0.022380499 -1.43985 65280
0.10351 0.022380499 -1.43985 65280
0.106307 0.022380499 -1.43985 65280
0.109105 0.022380499 -1.43985 65280
0.111903 0.022380499 -1.43985 65280
0.1147 0.022380499 -1.43985 65280
0.117498 0.022380499 -1.43985 65280
0.120295 0.022380499 -1.43985 65280
0.123093 0.022380499 -1.43985 65280
0.12589 0.022380499 -1.43985 65280
0.12868799 0.022380499 -1.43985 65280
0.131485 0.022380499 -1.43985 65280
0.13428301 0.022380499 -1.43985 65280
0.137081 0.022380499 -1.43985 65280
0.139878 0.022380499 -1.43985 65280
0.142676 0.022380499 -1.43985 65280
0.145473 0.022380499 -1.43985 65280
0.14827099 0.022380499 -1.43985 65280
0.151068 0.022380499 -1.43985 65280
0.15386599 0.022380499 -1.43985 65280
0.156664 0.022380499 -1.43985 65280
0.15946101 0.022380499 -1.43985 65280
0.162259 0.022380499 -1.43985 65280
0.16505601 0.022380499 -1.43985 65280
0.167854 0.022380499 -1.43985 65280
0.170651 0.022380499 -1.43985 65280
0.17344899 0.022380499 -1.43985 65280
0.176246 0.022380499 -1.43985 65280
0.17904399 0.022380499 -1.43985 65280
0.181842 0.022380499 -1.43985 65280
0.18463901 0.022380499 -1.43985 65280
0.187437 0.022380499 -1.43985 65280
0.19023401 0.022380499 -1.43985 65280
0.193032 0.022380499 -1.43985 65280
0.195829 0.022380499 -1.43985 65280
0.198627 0.022380499 -1.43985 65280
0.201425 0.022380499 -1.43985 65280
0.20422199 0.022380499 -1.43985 65280
0.20702 0.022380499 -1.43985 65280
0.20981701 0.022380499 -1.43985 65280
0.212615 0.022380499 -1.43985 65280
0.21541201 0.022380499 -1.43985 65280
0.21821 0.022380499 -1.43985 65280
0.221008 0.022380499 -1.43985 65280
0.223805 0.022380499 -1.43985 65280
0.226603 0.022380499 -1.43985 65280
0.22939999 0.022380499 -1.43985 65280
0.232198 0.022380499 -1.43985 65280
0.23499499 0.022380499 -1.43985 65280
0.237793 0.022380499 -1.43985 65280
0.24059001 0.022380499 -1.43985 65280
0.243388 0.022380499 -1.43985 65280
0.246186 0.022380499 -1.43985 65280
0.248983 0.022380499 -1.43985 65280
0.25178099 0.022380499 -1.43985 65280
0.25457799 0.022380499 -1.43985 65280
0.25737599 0.022380499 -1.43985 65280
0.26017299 0.022380499 -1.43985 65280
0.26297101 0.022380499 -1.43985 65280
0.265769 0.022380499 -1.43985 65280
0.26856601 0.022380499 -1.43985 65280
0.271364 0.022380499 -1.43985 65280
0.27416101 0.022380499 -1.43985 65280
0.276959 0.022380499 -1.43985 65280
0.27975601 0.022380499 -1.43985 65280
0.282554 0.022380499 -1.43985 65280
0.28535101 0.022380499 -1.43985 65280
0.288149 0.022380499 -1.43985 65280
0.29094699 0.022380499 -1.43985 65280
0.293744 0.022380499 -1.43985 65280
0.29654199 0.022380499 -1.43985 65280
0.299339 0.022380499 -1.43985 65280
0.30213699 0.022380499 -1.43985 65280
0.304934 0.022380499 -1.43985 65280
0.30773199 0.022380499 -1.43985 65280
0.31053001 0.022380499 -1.43985 65280
0.31332701 0.022380499 -1.43985 65280
0.31612501 0.022380499 -1.43985 65280
0.31892201 0.022380499 -1.43985 65280
0.32172 0.022380499 -1.43985 65280
0.32451701 0.022380499 -1.43985 65280
0.327315 0.022380499 -1.43985 65280
0.33011201 0.022380499 -1.43985 65280
0.33291 0.022380499 -1.43985 65280
0.33570799 0.022380499 -1.43985 65280
0.338505 0.022380499 -1.43985 65280
0.34130299 0.022380499 -1.43985 65280
0.3441 0.022380499 -1.43985 65280
0.34689799 0.022380499 -1.43985 65280
0.349695 0.022380499 -1.43985 65280
0.35249299 0.022380499 -1.43985 65280
0.35529101 0.022380499 -1.43985 65280
0.35808799 0.022380499 -1.43985 65280
0.36088601 0.022380499 -1.43985 65280
0.36368299 0.022380499 -1.43985 65280
0.36648101 0.022380499 -1.43985 65280
0.36927801 0.022380499 -1.43985 65280
0.372076 0.022380499 -1.43985 65280
0.37487301 0.022380499 -1.43985 65280
0.377671 0.022380499 -1.43985 65280
0.38046899 0.022380499 -1.43985 65280
0.383266 0.022380499 -1.43985 65280
0.38606399 0.022380499 -1.43985 65280
0.388861 0.022380499 -1.43985 65280
0.39165899 0.022380499 -1.43985 65280
0.394456 0.022380499 -1.43985 65280
0.39725399 0.022380499 -1.43985 65280
-0.399692 0.0251555 -1.43856 65280
-0.39689699 0.0251555 -1.43856 65280
-0.39410201 0.0251555 -1.43856 65280
-0.391307 0.0251555 -1.43856 65280
-0.38851199 0.0251555 -1.43856 65280
-0.385717 0.0251555 -1.43856 65280
-0.38292199 0.0251555 -1.43856 65280
-0.38012701 0.0251555 -1.43856 65280
-0.377332 0.0251555 -1.43856 65280
-0.37453699 0.0251555 -1.43856 65280
-0.37174201 0.0251555 -1.43856 65280
-0.368947 0.0251555 -1.43856 65280
-0.36615199 0.0251555 -1.43856 65280
-0.36335701 0.0251555 -1.43856 65280
-0.360562 0.0251555 -1.43856 65280
-0.35776699 0.0251555 -1.43856 65280
-0.35497099 0.0251555 -1.43856 65280
-0.35217601 0.0251555 -1.43856 65280
-0.349381 0.0251555 -1.43856 65280
-0.34658599 0.0251555 -1.43856 65280
-0.34379101 0.0251555 -1.43856 65280
-0.340996 0.0251555 -1.43856 65280
-0.33820099 0.0251555 -1.43856 65280
-0.33540601 0.0251555 -1.43856 65280
-0.33261099 0.0251555 -1.43856 65280
-0.32981601 0.0251555 -1.43856 65280
-0.327021 0.0251555 -1.43856 65280
-0.32422599 0.0251555 -1.43856 65280
-0.32143101 0.0251555 -1.43856 65280
-0.318636 0.0251555 -1.43856 65280
-0.31584099 0.0251555 -1.43856 65280
-0.31304601 0.0251555 -1.43856 65280
-0.310251 0.0251555 -1.43856 65280
-0.30745599 0.0251555 -1.43856 65280
-0.30466101 0.0251555 -1.43856 65280
-0.30186501 0.0251555 -1.43856 65280
-0.29907 0.0251555 -1.43856 65280
-0.29627499 0.0251555 -1.43856 65280
-0.29348001 0.0251555 -1.43856 65280
-0.290685 0.0251555 -1.43856 65280
-0.28788999 0.0251555 -1.43856 65280
-0.28509501 0.0251555 -1.43856 65280
-0.2823 0.0251555 -1.43856 65280
-0.27950501 0.0251555 -1.43856 65280
-0.27671 0.0251555 -1.43856 65280
-0.27391499 0.0251555 -1.43856 65280
-0.27112001 0.0251555 -1.43856 65280
-0.268325 0.0251555 -1.43856 65280
-0.26552999 0.0251555 -1.43856 65280
-0.26273501 0.0251555 -1.43856 65280
-0.25994 0.0251555 -1.43856 65280
-0.25714499 0.0251555 -1.43856 65280
-0.25435001 0.0251555 -1.43856 65280
-0.251555 0.0251555 -1.43856 65280
-0.24876 0.0251555 -1.43856 65280
-0.24596401 0.0251555 -1.43856 65280
-0.24316899 0.0251555 -1.43856 65280
-0.240374 0.0251555 -1.43856 65280
-0.237579 0.0251555 -1.43856 65280
-0.23478401 0.0251555 -1.43856 65280
-0.231989 0.0251555 -1.43856 65280
-0.229194 0.0251555 -1.43856 65280
-0.226399 0.0251555 -1.43856 65280
-0.22360399 0.0251555 -1.43856 65280
-0.220809 0.0251555 -1.43856 65280
-0.218014 0.0251555 -1.43856 65280
-0.21521901 0.0251555 -1.43856 65280
-0.212424 0.0251555 -1.43856 65280
-0.209629 0.0251555 -1.43856 65280
-0.206834 0.0251555 -1.43856 65280
-0.20403901 0.0251555 -1.43856 65280
-0.201244 0.0251555 -1.43856 65280
-0.198449 0.0251555 -1.43856 65280
-0.195654 0.0251555 -1.43856 65280
-0.19285899 0.0251555 -1.43856 65280
-0.190063 0.0251555 -1.43856 65280
-0.187268 0.0251555 -1.43856 65280
-0.18447299 0.0251555 -1.43856 65280
-0.181678 0.0251555 -1.43856 65280
-0.178883 0.0251555 -1.43856 65280
-0.17608801 0.0251555 -1.43856 65280
-0.17329299 0.0251555 -1.43856 65280
-0.170498 0.0251555 -1.43856 65280
-0.167703 0.0251555 -1.43856 65280
-0.16490801 0.0251555 -1.43856 65280
-0.162113 0.0251555 -1.43856 65280
-0.159318 0.0251555 -1.43856 65280
-0.156523 0.0251555 -1.43856 65280
-0.15372799 0.0251555 -1.43856 65280
-0.150933 0.0251555 -1.43856 65280
-0.148138 0.0251555 -1.43856 65280
-0.14534301 0.0251555 -1.43856 65280
-0.14254799 0.0251555 -1.43856 65280
-0.139753 0.0251555 -1.43856 65280
-0.136957 0.0251555 -1.43856 65280
-0.13416199 0.0251555 -1.43856 65280
-0.131367 0.0251555 -1.43856 65280
-0.128572 0.0251555 -1.43856 65280
-0.12577701 0.0251555 -1.43856 65280
-0.122982 0.0251555 -1.43856 65280
-0.120187 0.0251555 -1.43856 65280
-0.117392 0.0251555 -1.43856 65280
-0.114597 0.0251555 -1.43856 65280
-0.111802 0.0251555 -1.43856 65280
-0.109007 0.0251555 -1.43856 65280
-0.106212 0.0251555 -1.43856 65280
-0.103417 0.0251555 -1.43856 65280
-0.100622 0.0251555 -1.43856 65280
-0.097826801 0.0251555 -1.43856 65280
-0.095031701 0.0251555 -1.43856 65280
-0.092236698 0.0251555 -1.43856 65280
-0.089441597 0.0251555 -1.43856 65280
-0.086646602 0.0251555 -1.43856 65280
-0.083851501 0.0251555 -1.43856 65280
-0.081056498 0.0251555 -1.43856 65280
-0.078261398 0.0251555 -1.43856 65280
-0.075466402 0.0251555 -1.43856 65280
-0.072671302 0.0251555 -1.43856 65280
-0.069876298 0.0251555 -1.43856 65280
-0.067081198 0.0251555 -1.43856 65280
-0.064286202 0.0251555 -1.43856 65280
-0.061491098 0.0251555 -1.43856 65280
-0.058696099 0.0251555 -1.43856 65280
-0.055900998 0.0251555 -1.43856 65280
