# .PCD v0.7 - Point Cloud Data file format
VERSION 0.7
FIELDS x y z rgb
SIZE 4 4 4 4
TYPE F F F U
COUNT 1 1 1 1
WIDTH 1320
HEIGHT 1
VIEWPOINT 0 0 0 1 0 0 0
POINTS 1320
DATA ascii
-0.39521199 -0.0056458898 -1.45292 65280
-0.392389 -0.0056458898 -1.45292 65280
-0.389566 -0.0056458898 -1.45292 65280
-0.38674301 -0.0056458898 -1.45292 65280
-0.38392001 -0.0056458898 -1.45292 65280
-0.38109699 -0.0056458898 -1.45292 65280
-0.37827501 -0.0056458898 -1.45292 65280
-0.37545201 -0.0056458898 -1.45292 65280
-0.37262899 -0.0056458898 -1.45292 65280
-0.36980599 -0.0056458898 -1.45292 65280
-0.366983 -0.0056458898 -1.45292 65280
-0.36416 -0.0056458898 -1.45292 65280
-0.36133701 -0.0056458898 -1.45292 65280
-0.35851401 -0.0056458898 -1.45292 65280
-0.35569099 -0.0056458898 -1.45292 65280
-0.35286799 -0.0056458898 -1.45292 65280
-0.350045 -0.0056458898 -1.45292 65280
-0.347222 -0.0056458898 -1.45292 65280
-0.34439901 -0.0056458898 -1.45292 65280
-0.34157601 -0.0056458898 -1.45292 65280
-0.33875301 -0.0056458898 -1.45292 65280
-0.31459799 -0.0052873599 -1.3606499 65280
-0.311405 -0.00527805 -1.35826 65280
-0.308337 -0.00527072 -1.35637 65280
-0.30524701 -0.0052628899 -1.35436 65280
-0.30230299 -0.0052574398 -1.35295 65280
-0.29954699 -0.00525522 -1.35238 65280
-0.29690701 -0.00525499 -1.35232 65280
-0.29436401 -0.0052565001 -1.35271 65280
-0.29181099 -0.0052578598 -1.35306 65280
-0.289096 -0.0052562999 -1.3526599 65280
-0.28658 -0.0052583399 -1.3531899 65280
-0.28416899 -0.00526238 -1.35423 65280
-0.28203601 -0.0052717002 -1.35662 65280
-0.279829 -0.0052797901 -1.3587101 65280
-0.27773499 -0.00529018 -1.36138 65280
-0.27567899 -0.00530153 -1.3643 65280
-0.274048 -0.0053213201 -1.36939 65280
-0.27693799 -0.0054301601 -1.3974 65280
-0.27474299 -0.0054404698 -1.40005 65280
-0.27242899 -0.00544859 -1.40214 65280
-0.27009001 -0.0054563601 -1.40415 65280
-0.267719 -0.0054636602 -1.40602 65280
-0.265302 -0.0054701502 -1.40769 65280
-0.262979 -0.00547873 -1.4099 65280
-0.260737 -0.0054891999 -1.4126 65280
-0.25853899 -0.00550084 -1.41559 65280
-0.256414 -0.0055142799 -1.41905 65280
-0.25446501 -0.0055318498 -1.42357 65280
-0.256888 -0.0056458898 -1.45292 65280
-0.25406501 -0.0056458898 -1.45292 65280
-0.25124201 -0.0056458898 -1.45292 65280
-0.248419 -0.0056458898 -1.45292 65280
-0.24559601 -0.0056458898 -1.45292 65280
-0.242773 -0.0056458898 -1.45292 65280
-0.23995 -0.0056458898 -1.45292 65280
-0.23712701 -0.0056458898 -1.45292 65280
-0.234304 -0.0056458898 -1.45292 65280
-0.231481 -0.0056458898 -1.45292 65280
-0.22865801 -0.0056458898 -1.45292 65280
-0.22583599 -0.0056458898 -1.45292 65280
-0.223013 -0.0056458898 -1.45292 65280
-0.22019 -0.0056458898 -1.45292 65280
-0.21736699 -0.0056458898 -1.45292 65280
-0.214544 -0.0056458898 -1.45292 65280
-0.211721 -0.0056458898 -1.45292 65280
-0.20889799 -0.0056458898 -1.45292 65280
-0.206075 -0.0056458898 -1.45292 65280
-0.203252 -0.0056458898 -1.45292 65280
-0.20042901 -0.0056458898 -1.45292 65280
-0.197606 -0.0056458898 -1.45292 65280
-0.194783 -0.0056458898 -1.45292 65280
-0.19196001 -0.0056458898 -1.45292 65280
-0.189137 -0.0056458898 -1.45292 65280
-0.186314 -0.0056458898 -1.45292 65280
-0.18349101 -0.0056458898 -1.45292 65280
-0.180668 -0.0056458898 -1.45292 65280
-0.177845 -0.0056458898 -1.45292 65280
-0.175023 -0.0056458898 -1.45292 65280
-0.17219999 -0.0056458898 -1.45292 65280
-0.169377 -0.0056458898 -1.45292 65280
-0.166554 -0.0056458898 -1.45292 65280
-0.16373099 -0.0056458898 -1.45292 65280
-0.160908 -0.0056458898 -1.45292 65280
-0.158085 -0.0056458898 -1.45292 65280
-0.15526199 -0.0056458898 -1.45292 65280
-0.152439 -0.0056458898 -1.45292 65280
-0.149616 -0.0056458898 -1.45292 65280
-0.14679299 -0.0056458898 -1.45292 65280
-0.14397 -0.0056458898 -1.45292 65280
-0.141147 -0.0056458898 -1.45292 65280
-0.13832401 -0.0056458898 -1.45292 65280
-0.135501 -0.0056458898 -1.45292 65280
-0.132678 -0.0056458898 -1.45292 65280
-0.12985501 -0.0056458898 -1.45292 65280
-0.127032 -0.0056458898 -1.45292 65280
-0.12421 -0.0056458898 -1.45292 65280
-0.121387 -0.0056458898 -1.45292 65280
-0.118564 -0.0056458898 -1.45292 65280
-0.115741 -0.0056458898 -1.45292 65280
-0.112918 -0.0056458898 -1.45292 65280
-0.110095 -0.0056458898 -1.45292 65280
-0.107272 -0.0056458898 -1.45292 65280
-0.104449 -0.0056458898 -1.45292 65280
-0.101626 -0.0056458898 -1.45292 65280
-0.098802999 -0.0056458898 -1.45292 65280
-0.0959801 -0.0056458898 -1.45292 65280
-0.093157202 -0.0056458898 -1.45292 65280
-0.090334199 -0.0056458898 -1.45292 65280
-0.087511301 -0.0056458898 -1.45292 65280
-0.084688298 -0.0056458898 -1.45292 65280
-0.0818654 -0.0056458898 -1.45292 65280
-0.079042397 -0.0056458898 -1.45292 65280
-0.076219499 -0.0056458898 -1.45292 65280
-0.073396496 -0.0056458898 -1.45292 65280
-0.070573598 -0.0056458898 -1.45292 65280
-0.0677507 -0.0056458898 -1.45292 65280
-0.064927697 -0.0056458898 -1.45292 65280
-0.062104799 -0.0056458898 -1.45292 65280
-0.0592818 -0.0056458898 -1.45292 65280
-0.056458902 -0.0056458898 -1.45292 65280
-0.053635899 -0.0056458898 -1.45292 65280
-0.050813001 -0.0056458898 -1.45292 65280
-0.047990099 -0.0056458898 -1.45292 65280
-0.0451671 -0.0056458898 -1.45292 65280
-0.042344201 -0.0056458898 -1.45292 65280
-0.039521199 -0.0056458898 -1.45292 65280
-0.0366983 -0.0056458898 -1.45292 65280
-0.033875301 -0.0056458898 -1.45292 65280
-0.031052399 -0.0056458898 -1.45292 65280
-0.028229401 -0.0056458898 -1.45292 65280
-0.0254065 -0.0056458898 -1.45292 65280
-0.0225836 -0.0056458898 -1.45292 65280
-0.019760599 -0.0056458898 -1.45292 65280
-0.016937699 -0.0056458898 -1.45292 65280
-0.0141147 -0.0056458898 -1.45292 65280
-0.0112918 -0.0056458898 -1.45292 65280
-0.00846883 -0.0056458898 -1.45292 65280
-0.0056458898 -0.0056458898 -1.45292 65280
-0.00282294 -0.0056458898 -1.45292 65280
0 -0.0056458898 -1.45292 65280
0.00282294 -0.0056458898 -1.45292 65280
0.0056458898 -0.0056458898 -1.45292 65280
0.00846883 -0.0056458898 -1.45292 65280
0.0112918 -0.0056458898 -1.45292 65280
0.0141147 -0.0056458898 -1.45292 65280
0.016937699 -0.0056458898 -1.45292 65280
0.019760599 -0.0056458898 -1.45292 65280
0.0225836 -0.0056458898 -1.45292 65280
0.0254065 -0.0056458898 -1.45292 65280
0.028229401 -0.0056458898 -1.45292 65280
0.031052399 -0.0056458898 -1.45292 65280
0.033875301 -0.0056458898 -1.45292 65280
0.0366983 -0.0056458898 -1.45292 65280
0.039521199 -0.0056458898 -1.45292 65280
0.042344201 -0.0056458898 -1.45292 65280
0.0451671 -0.0056458898 -1.45292 65280
0.047990099 -0.0056458898 -1.45292 65280
0.050813001 -0.0056458898 -1.45292 65280
0.053635899 -0.0056458898 -1.45292 65280
0.056458902 -0.0056458898 -1.45292 65280
0.0592818 -0.0056458898 -1.45292 65280
0.062104799 -0.0056458898 -1.45292 65280
0.064927697 -0.0056458898 -1.45292 65280
0.0677507 -0.0056458898 -1.45292 65280
0.070573598 -0.0056458898 -1.45292 65280
0.073396496 -0.0056458898 -1.45292 65280
0.076219499 -0.0056458898 -1.45292 65280
0.079042397 -0.0056458898 -1.45292 65280
0.0818654 -0.0056458898 -1.45292 65280
0.084688298 -0.0056458898 -1.45292 65280
0.087511301 -0.0056458898 -1.45292 65280
0.090334199 -0.0056458898 -1.45292 65280
0.093157202 -0.0056458898 -1.45292 65280
0.0959801 -0.0056458898 -1.45292 65280
0.098802999 -0.0056458898 -1.45292 65280
0.101626 -0.0056458898 -1.45292 65280
0.104449 -0.0056458898 -1.45292 65280
0.107272 -0.0056458898 -1.45292 65280
0.110095 -0.0056458898 -1.45292 65280
0.112918 -0.0056458898 -1.45292 65280
0.115741 -0.0056458898 -1.45292 65280
0.118564 -0.0056458898 -1.45292 65280
0.121387 -0.0056458898 -1.45292 65280
0.12421 -0.0056458898 -1.45292 65280
0.127032 -0.0056458898 -1.45292 65280
0.12985501 -0.0056458898 -1.45292 65280
0.132678 -0.0056458898 -1.45292 65280
0.135501 -0.0056458898 -1.45292 65280
0.13832401 -0.0056458898 -1.45292 65280
0.141147 -0.0056458898 -1.45292 65280
0.14397 -0.0056458898 -1.45292 65280
0.14679299 -0.0056458898 -1.45292 65280
0.149616 -0.0056458898 -1.45292 65280
0.152439 -0.0056458898 -1.45292 65280
0.15526199 -0.0056458898 -1.45292 65280
0.158085 -0.0056458898 -1.45292 65280
0.160908 -0.0056458898 -1.45292 65280
0.16373099 -0.0056458898 -1.45292 65280
0.166554 -0.0056458898 -1.45292 65280
0.169377 -0.0056458898 -1.45292 65280
0.17219999 -0.0056458898 -1.45292 65280
0.175023 -0.0056458898 -1.45292 65280
0.177845 -0.0056458898 -1.45292 65280
0.180668 -0.0056458898 -1.45292 65280
0.18349101 -0.0056458898 -1.45292 65280
0.186314 -0.0056458898 -1.45292 65280
0.189137 -0.0056458898 -1.45292 65280
0.19196001 -0.0056458898 -1.45292 65280
0.194783 -0.0056458898 -1.45292 65280
0.197606 -0.0056458898 -1.45292 65280
0.20042901 -0.0056458898 -1.45292 65280
0.203252 -0.0056458898 -1.45292 65280
0.206075 -0.0056458898 -1.45292 65280
0.20889799 -0.0056458898 -1.45292 65280
0.211721 -0.0056458898 -1.45292 65280
0.214544 -0.0056458898 -1.45292 65280
0.21736699 -0.0056458898 -1.45292 65280
0.22019 -0.0056458898 -1.45292 65280
0.223013 -0.0056458898 -1.45292 65280
0.22583599 -0.0056458898 -1.45292 65280
0.22865801 -0.0056458898 -1.45292 65280
0.231481 -0.0056458898 -1.45292 65280
0.234304 -0.0056458898 -1.45292 65280
0.23712701 -0.0056458898 -1.45292 65280
0.23995 -0.0056458898 -1.45292 65280
0.242773 -0.0056458898 -1.45292 65280
0.24559601 -0.0056458898 -1.45292 65280
0.248419 -0.0056458898 -1.45292 65280
0.25124201 -0.0056458898 -1.45292 65280
0.25406501 -0.0056458898 -1.45292 65280
0.256888 -0.0056458898 -1.45292 65280
0.259711 -0.0056458898 -1.45292 65280
0.26253399 -0.0056458898 -1.45292 65280
0.26535699 -0.0056458898 -1.45292 65280
0.26818001 -0.0056458898 -1.45292 65280
0.27100301 -0.0056458898 -1.45292 65280
0.273826 -0.0056458898 -1.45292 65280
0.276649 -0.0056458898 -1.45292 65280
0.27947101 -0.0056458898 -1.45292 65280
0.28229401 -0.0056458898 -1.45292 65280
0.285117 -0.0056458898 -1.45292 65280
0.28794 -0.0056458898 -1.45292 65280
0.29076299 -0.0056458898 -1.45292 65280
0.29358599 -0.0056458898 -1.45292 65280
0.29640901 -0.0056458898 -1.45292 65280
0.29923201 -0.0056458898 -1.45292 65280
0.302055 -0.0056458898 -1.45292 65280
0.304878 -0.0056458898 -1.45292 65280
0.30770099 -0.0056458898 -1.45292 65280
0.31052399 -0.0056458898 -1.45292 65280
0.31334701 -0.0056458898 -1.45292 65280
0.31617001 -0.0056458898 -1.45292 65280
0.318993 -0.0056458898 -1.45292 65280
0.321816 -0.0056458898 -1.45292 65280
0.32463899 -0.0056458898 -1.45292 65280
0.32746199 -0.0056458898 -1.45292 65280
0.330284 -0.0056458898 -1.45292 65280
0.33310699 -0.0056458898 -1.45292 65280
0.33592999 -0.0056458898 -1.45292 65280
0.33875301 -0.0056458898 -1.45292 65280
0.34157601 -0.0056458898 -1.45292 65280
0.34439901 -0.0056458898 -1.45292 65280
0.347222 -0.0056458898 -1.45292 65280
0.350045 -0.0056458898 -1.45292 65280
0.35286799 -0.0056458898 -1.45292 65280
0.35569099 -0.0056458898 -1.45292 65280
0.35851401 -0.0056458898 -1.45292 65280
0.36133701 -0.0056458898 -1.45292 65280
0.36416 -0.0056458898 -1.45292 65280
0.366983 -0.0056458898 -1.45292 65280
0.36980599 -0.0056458898 -1.45292 65280
0.37262899 -0.0056458898 -1.45292 65280
0.37545201 -0.0056458898 -1.45292 65280
0.37827501 -0.0056458898 -1.45292 65280
0.38109699 -0.0056458898 -1.45292 65280
0.38392001 -0.0056458898 -1.45292 65280
0.38674301 -0.0056458898 -1.45292 65280
0.389566 -0.0056458898 -1.45292 65280
0.392389 -0.0056458898 -1.45292 65280
0.39521199 -0.0056458898 -1.45292 65280
0.39803499 -0.0056458898 -1.45292 65280
-0.40049499 -0.00282039 -1.4516 65280
-0.39767399 -0.00282039 -1.4516 65280
-0.39485401 -0.00282039 -1.4516 65280
-0.39203399 -0.00282039 -1.4516 65280
-0.389213 -0.00282039 -1.4516 65280
-0.38639301 -0.00282039 -1.4516 65280
-0.38357201 -0.00282039 -1.4516 65280
-0.380752 -0.00282039 -1.4516 65280
-0.37793201 -0.00282039 -1.4516 65280
-0.37511101 -0.00282039 -1.4516 65280
-0.372291 -0.00282039 -1.4516 65280
-0.36947101 -0.00282039 -1.4516 65280
-0.36664999 -0.00282039 -1.4516 65280
-0.36383 -0.00282039 -1.4516 65280
-0.361009 -0.00282039 -1.4516 65280
-0.35818899 -0.00282039 -1.4516 65280
-0.355369 -0.00282039 -1.4516 65280
-0.352548 -0.00282039 -1.4516 65280
-0.34972799 -0.00282039 -1.4516 65280
-0.34690699 -0.00282039 -1.4516 65280
-0.344087 -0.00282039 -1.4516 65280
-0.34126699 -0.00282039 -1.4516 65280
-0.33844599 -0.00282039 -1.4516 65280
-0.31453401 -0.00264314 -1.3603801 65280
-0.31118599 -0.00263717 -1.3573 65280
-0.30807701 -0.0026331299 -1.35523 65280
-0.304993 -0.0026292501 -1.35323 65280
-0.30214101 -0.0026273101 -1.35223 65280
-0.299436 -0.00262663 -1.35188 65280
-0.296826 -0.00262678 -1.35195 65280
-0.294328 -0.0026279299 -1.35255 65280
-0.29191899 -0.0026298999 -1.35356 65280
-0.289507 -0.0026318801 -1.35458 65280
-0.28705499 -0.0026335299 -1.35543 65280
-0.28465 -0.0026356501 -1.3565201 65280
-0.282233 -0.0026376899 -1.3575701 65280
-0.280002 -0.00264153 -1.35955 65280
-0.27832201 -0.00265068 -1.36426 65280
-0.276324 -0.0026569599 -1.3674901 65280
-0.27862999 -0.0027051501 -1.39229 65280
-0.276788 -0.00271361 -1.3966399 65280
-0.274546 -0.0027182801 -1.39905 65280
-0.272219 -0.00272219 -1.40106 65280
-0.269842 -0.0027256799 -1.40286 65280
-0.26741099 -0.0027286899 -1.4044 65280
-0.26504499 -0.0027324299 -1.40633 65280
-0.262757 -0.0027370499 -1.40871 65280
-0.260535 -0.00274247 -1.4115 65280
-0.25836101 -0.0027485201 -1.41461 65280
-0.25628 -0.0027556999 -1.41831 65280
-0.25444701 -0.00276573 -1.42347 65280
-0.25665501 -0.00282039 -1.4516 65280
-0.25383499 -0.00282039 -1.4516 65280
-0.25101399 -0.00282039 -1.4516 65280
-0.24819399 -0.00282039 -1.4516 65280
-0.24537399 -0.00282039 -1.4516 65280
-0.242553 -0.00282039 -1.4516 65280
-0.239733 -0.00282039 -1.4516 65280
-0.236912 -0.00282039 -1.4516 65280
-0.234092 -0.00282039 -1.4516 65280
-0.231272 -0.00282039 -1.4516 65280
-0.228451 -0.00282039 -1.4516 65280
-0.225631 -0.00282039 -1.4516 65280
-0.22281 -0.00282039 -1.4516 65280
-0.21999 -0.00282039 -1.4516 65280
-0.21717 -0.00282039 -1.4516 65280
-0.214349 -0.00282039 -1.4516 65280
-0.211529 -0.00282039 -1.4516 65280
-0.208709 -0.00282039 -1.4516 65280
-0.205888 -0.00282039 -1.4516 65280
-0.203068 -0.00282039 -1.4516 65280
-0.200247 -0.00282039 -1.4516 65280
-0.197427 -0.00282039 -1.4516 65280
-0.194607 -0.00282039 -1.4516 65280
-0.19178601 -0.00282039 -1.4516 65280
-0.18896601 -0.00282039 -1.4516 65280
-0.18614499 -0.00282039 -1.4516 65280
-0.18332499 -0.00282039 -1.4516 65280
-0.18050499 -0.00282039 -1.4516 65280
-0.17768399 -0.00282039 -1.4516 65280
-0.17486399 -0.00282039 -1.4516 65280
-0.17204399 -0.00282039 -1.4516 65280
-0.169223 -0.00282039 -1.4516 65280
-0.166403 -0.00282039 -1.4516 65280
-0.163582 -0.00282039 -1.4516 65280
-0.160762 -0.00282039 -1.4516 65280
-0.157942 -0.00282039 -1.4516 65280
-0.155121 -0.00282039 -1.4516 65280
-0.152301 -0.00282039 -1.4516 65280
-0.14948 -0.00282039 -1.4516 65280
-0.14666 -0.00282039 -1.4516 65280
-0.14384 -0.00282039 -1.4516 65280
-0.141019 -0.00282039 -1.4516 65280
-0.138199 -0.00282039 -1.4516 65280
-0.135379 -0.00282039 -1.4516 65280
-0.132558 -0.00282039 -1.4516 65280
-0.129738 -0.00282039 -1.4516 65280
-0.126917 -0.00282039 -1.4516 65280
-0.124097 -0.00282039 -1.4516 65280
-0.121277 -0.00282039 -1.4516 65280
-0.118456 -0.00282039 -1.4516 65280
-0.115636 -0.00282039 -1.4516 65280
-0.112815 -0.00282039 -1.4516 65280
-0.109995 -0.00282039 -1.4516 65280
-0.107175 -0.00282039 -1.4516 65280
-0.104354 -0.00282039 -1.4516 65280
-0.101534 -0.00282039 -1.4516 65280
-0.098713502 -0.00282039 -1.4516 65280
-0.0958931 -0.00282039 -1.4516 65280
-0.093072698 -0.00282039 -1.4516 65280
-0.090252303 -0.00282039 -1.4516 65280
-0.087431997 -0.00282039 -1.4516 65280
-0.084611602 -0.00282039 -1.4516 65280
-0.0817912 -0.00282039 -1.4516 65280
-0.078970797 -0.00282039 -1.4516 65280
-0.076150402 -0.00282039 -1.4516 65280
-0.07333 -0.00282039 -1.4516 65280
-0.070509598 -0.00282039 -1.4516 65280
-0.0676893 -0.00282039 -1.4516 65280
-0.064868897 -0.00282039 -1.4516 65280
-0.062048499 -0.00282039 -1.4516 65280
-0.0592281 -0.00282039 -1.4516 65280
-0.056407701 -0.00282039 -1.4516 65280
-0.053587299 -0.00282039 -1.4516 65280
-0.0507669 -0.00282039 -1.4516 65280
-0.047946598 -0.00282039 -1.4516 65280
-0.0451262 -0.00282039 -1.4516 65280
-0.042305801 -0.00282039 -1.4516 65280
-0.039485399 -0.00282039 -1.4516 65280
-0.036665 -0.00282039 -1.4516 65280
-0.033844601 -0.00282039 -1.4516 65280
-0.031024201 -0.00282039 -1.4516 65280
-0.028203901 -0.00282039 -1.4516 65280
-0.0253835 -0.00282039 -1.4516 65280
-0.0225631 -0.00282039 -1.4516 65280
-0.019742699 -0.00282039 -1.4516 65280
-0.016922301 -0.00282039 -1.4516 65280
-0.0141019 -0.00282039 -1.4516 65280
-0.0112815 -0.00282039 -1.4516 65280
-0.0084611597 -0.00282039 -1.4516 65280
-0.0056407698 -0.00282039 -1.4516 65280
-0.00282039 -0.00282039 -1.4516 65280
0 -0.00282039 -1.4516 65280
0.00282039 -0.00282039 -1.4516 65280
0.0056407698 -0.00282039 -1.4516 65280
0.0084611597 -0.00282039 -1.4516 65280
0.0112815 -0.00282039 -1.4516 65280
0.0141019 -0.00282039 -1.4516 65280
0.016922301 -0.00282039 -1.4516 65280
0.019742699 -0.00282039 -1.4516 65280
0.0225631 -0.00282039 -1.4516 65280
0.0253835 -0.00282039 -1.4516 65280
0.028203901 -0.00282039 -1.4516 65280
0.031024201 -0.00282039 -1.4516 65280
0.033844601 -0.00282039 -1.4516 65280
0.036665 -0.00282039 -1.4516 65280
0.039485399 -0.00282039 -1.4516 65280
0.042305801 -0.00282039 -1.4516 65280
0.0451262 -0.00282039 -1.4516 65280
0.047946598 -0.00282039 -1.4516 65280
0.0507669 -0.00282039 -1.4516 65280
0.053587299 -0.00282039 -1.4516 65280
0.056407701 -0.00282039 -1.4516 65280
0.0592281 -0.00282039 -1.4516 65280
0.062048499 -0.00282039 -1.4516 65280
0.064868897 -0.00282039 -1.4516 65280
0.0676893 -0.00282039 -1.4516 65280
0.070509598 -0.00282039 -1.4516 65280
0.07333 -0.00282039 -1.4516 65280
0.076150402 -0.00282039 -1.4516 65280
0.078970797 -0.00282039 -1.4516 65280
0.0817912 -0.00282039 -1.4516 65280
0.084611602 -0.00282039 -1.4516 65280
0.087431997 -0.00282039 -1.4516 65280
0.090252303 -0.00282039 -1.4516 65280
0.093072698 -0.00282039 -1.4516 65280
0.0958931 -0.00282039 -1.4516 65280
0.098713502 -0.00282039 -1.4516 65280
0.101534 -0.00282039 -1.4516 65280
0.104354 -0.00282039 -1.4516 65280
0.107175 -0.00282039 -1.4516 65280
0.109995 -0.00282039 -1.4516 65280
0.112815 -0.00282039 -1.4516 65280
0.115636 -0.00282039 -1.4516 65280
0.118456 -0.00282039 -1.4516 65280
0.121277 -0.00282039 -1.4516 65280
0.124097 -0.00282039 -1.4516 65280
0.126917 -0.00282039 -1.4516 65280
0.129738 -0.00282039 -1.4516 65280
0.132558 -0.00282039 -1.4516 65280
0.135379 -0.00282039 -1.4516 65280
0.138199 -0.00282039 -1.4516 65280
0.141019 -0.00282039 -1.4516 65280
0.14384 -0.00282039 -1.4516 65280
0.14666 -0.00282039 -1.4516 65280
0.14948 -0.00282039 -1.4516 65280
0.152301 -0.00282039 -1.4516 65280
0.155121 -0.00282039 -1.4516 65280
0.157942 -0.00282039 -1.4516 65280
0.160762 -0.00282039 -1.4516 65280
0.163582 -0.00282039 -1.4516 65280
0.166403 -0.00282039 -1.4516 65280
0.169223 -0.00282039 -1.4516 65280
0.17204399 -0.00282039 -1.4516 65280
0.17486399 -0.00282039 -1.4516 65280
0.17768399 -0.00282039 -1.4516 65280
0.18050499 -0.00282039 -1.4516 65280
0.18332499 -0.00282039 -1.4516 65280
0.18614499 -0.00282039 -1.4516 65280
0.18896601 -0.00282039 -1.4516 65280
0.19178601 -0.00282039 -1.4516 65280
0.194607 -0.00282039 -1.4516 65280
0.197427 -0.00282039 -1.4516 65280
0.200247 -0.00282039 -1.4516 65280
0.203068 -0.00282039 -1.4516 65280
0.205888 -0.00282039 -1.4516 65280
0.208709 -0.00282039 -1.4516 65280
0.211529 -0.00282039 -1.4516 65280
0.214349 -0.00282039 -1.4516 65280
0.21717 -0.00282039 -1.4516 65280
0.21999 -0.00282039 -1.4516 65280
0.22281 -0.00282039 -1.4516 65280
0.225631 -0.00282039 -1.4516 65280
0.228451 -0.00282039 -1.4516 65280
0.231272 -0.00282039 -1.4516 65280
0.234092 -0.00282039 -1.4516 65280
0.236912 -0.00282039 -1.4516 65280
0.239733 -0.00282039 -1.4516 65280
0.242553 -0.00282039 -1.4516 65280
0.24537399 -0.00282039 -1.4516 65280
0.24819399 -0.00282039 -1.4516 65280
0.25101399 -0.00282039 -1.4516 65280
0.25383499 -0.00282039 -1.4516 65280
0.25665501 -0.00282039 -1.4516 65280
0.25947499 -0.00282039 -1.4516 65280
0.26229599 -0.00282039 -1.4516 65280
0.26511601 -0.00282039 -1.4516 65280
0.267937 -0.00282039 -1.4516 65280
0.27075699 -0.00282039 -1.4516 65280
0.273577 -0.00282039 -1.4516 65280
0.276398 -0.00282039 -1.4516 65280
0.27921799 -0.00282039 -1.4516 65280
0.28203899 -0.00282039 -1.4516 65280
0.284859 -0.00282039 -1.4516 65280
0.28767899 -0.00282039 -1.4516 65280
0.29049999 -0.00282039 -1.4516 65280
0.29332 -0.00282039 -1.4516 65280
0.296141 -0.00282039 -1.4516 65280
0.29896101 -0.00282039 -1.4516 65280
0.301781 -0.00282039 -1.4516 65280
0.304602 -0.00282039 -1.4516 65280
0.30742201 -0.00282039 -1.4516 65280
0.310242 -0.00282039 -1.4516 65280
0.313063 -0.00282039 -1.4516 65280
0.31588301 -0.00282039 -1.4516 65280
0.31870401 -0.00282039 -1.4516 65280
0.32152399 -0.00282039 -1.4516 65280
0.32434401 -0.00282039 -1.4516 65280
0.32716501 -0.00282039 -1.4516 65280
0.32998499 -0.00282039 -1.4516 65280
0.33280599 -0.00282039 -1.4516 65280
0.33562601 -0.00282039 -1.4516 65280
0.33844599 -0.00282039 -1.4516 65280
0.34126699 -0.00282039 -1.4516 65280
0.344087 -0.00282039 -1.4516 65280
0.34690699 -0.00282039 -1.4516 65280
0.34972799 -0.00282039 -1.4516 65280
0.352548 -0.00282039 -1.4516 65280
0.355369 -0.00282039 -1.4516 65280
0.35818899 -0.00282039 -1.4516 65280
0.361009 -0.00282039 -1.4516 65280
0.36383 -0.00282039 -1.4516 65280
0.36664999 -0.00282039 -1.4516 65280
0.36947101 -0.00282039 -1.4516 65280
0.372291 -0.00282039 -1.4516 65280
0.37511101 -0.00282039 -1.4516 65280
0.37793201 -0.00282039 -1.4516 65280
0.380752 -0.00282039 -1.4516 65280
0.38357201 -0.00282039 -1.4516 65280
0.38639301 -0.00282039 -1.4516 65280
0.389213 -0.00282039 -1.4516 65280
0.39203399 -0.00282039 -1.4516 65280
0.39485401 -0.00282039 -1.4516 65280
0.39767399 -0.00282039 -1.4516 65280
-0.400132 0 -1.45029 65280
-0.39731401 0 -1.45029 65280
-0.39449701 0 -1.45029 65280
-0.39167899 0 -1.45029 65280
-0.388861 0 -1.45029 65280
-0.38604301 0 -1.45029 65280
-0.38322499 0 -1.45029 65280
-0.38040701 0 -1.45029 65280
-0.37759 0 -1.45029 65280
-0.37477201 0 -1.45029 65280
-0.37195399 0 -1.45029 65280
-0.36913601 0 -1.45029 65280
-0.36631799 0 -1.45029 65280
-0.3635 0 -1.45029 65280
-0.36068299 0 -1.45029 65280
-0.35786501 0 -1.45029 65280
-0.35504699 0 -1.45029 65280
-0.352229 0 -1.45029 65280
-0.34941101 0 -1.45029 65280
-0.34659299 0 -1.45029 65280
-0.34377599 0 -1.45029 65280
-0.340958 0 -1.45029 65280
-0.33814001 0 -1.45029 65280
-0.314439 0 -1.35997 65280
-0.31083301 0 -1.35577 65280
-0.307686 0 -1.35351 65280
-0.304717 0 -1.352 65280
-0.30195501 0 -1.3514 65280
-0.29929799 0 -1.3512599 65280
-0.296727 0 -1.3515 65280
-0.29425499 0 -1.35221 65280
-0.29188001 0 -1.35338 65280
-0.28950101 0 -1.35455 65280
-0.28708199 0 -1.3555599 65280
-0.28464299 0 -1.35648 65280
-0.282271 0 -1.35776 65280
-0.28091699 0 -1.3639899 65280
-0.27894801 0 -1.36733 65280
-0.27999401 0 -1.38565 65280
-0.27872699 0 -1.3927701 65280
-0.276665 0 -1.3960201 65280
-0.27440301 0 -1.39832 65280
-0.27202499 0 -1.4000601 65280
-0.26961499 0 -1.40167 65280
-0.26718 0 -1.40319 65280
-0.26485401 0 -1.40531 65280
-0.26260799 0 -1.40791 65280
-0.26039001 0 -1.41072 65280
-0.25824001 0 -1.41395 65280
-0.25620401 0 -1.41789 65280
-0.25459599 0 -1.4243 65280
-0.256423 0 -1.45029 65280
-0.25360501 0 -1.45029 65280
-0.25078699 0 -1.45029 65280
-0.247969 0 -1.45029 65280
-0.245151 0 -1.45029 65280
-0.24233399 0 -1.45029 65280
-0.239516 0 -1.45029 65280
-0.236698 0 -1.45029 65280
-0.23388 0 -1.45029 65280
-0.231062 0 -1.45029 65280
-0.22824401 0 -1.45029 65280
-0.225427 0 -1.45029 65280
-0.222609 0 -1.45029 65280
-0.219791 0 -1.45029 65280
-0.21697301 0 -1.45029 65280
-0.214155 0 -1.45029 65280
-0.211337 0 -1.45029 65280
-0.20852 0 -1.45029 65280
-0.20570201 0 -1.45029 65280
-0.202884 0 -1.45029 65280
-0.200066 0 -1.45029 65280
-0.197248 0 -1.45029 65280
-0.19442999 0 -1.45029 65280
-0.191613 0 -1.45029 65280
-0.188795 0 -1.45029 65280
-0.185977 0 -1.45029 65280
-0.18315899 0 -1.45029 65280
-0.18034101 0 -1.45029 65280
-0.177523 0 -1.45029 65280
-0.174706 0 -1.45029 65280
-0.17188799 0 -1.45029 65280
-0.16907001 0 -1.45029 65280
-0.166252 0 -1.45029 65280
-0.163434 0 -1.45029 65280
-0.160616 0 -1.45029 65280
-0.15779901 0 -1.45029 65280
-0.154981 0 -1.45029 65280
-0.152163 0 -1.45029 65280
-0.149345 0 -1.45029 65280
-0.14652701 0 -1.45029 65280
-0.143709 0 -1.45029 65280
-0.140892 0 -1.45029 65280
-0.138074 0 -1.45029 65280
-0.13525601 0 -1.45029 65280
-0.132438 0 -1.45029 65280
-0.12962 0 -1.45029 65280
-0.126802 0 -1.45029 65280
-0.123985 0 -1.45029 65280
-0.121167 0 -1.45029 65280
-0.118349 0 -1.45029 65280
-0.115531 0 -1.45029 65280
-0.112713 0 -1.45029 65280
-0.109895 0 -1.45029 65280
-0.107078 0 -1.45029 65280
-0.10426 0 -1.45029 65280
-0.101442 0 -1.45029 65280
-0.098624103 0 -1.45029 65280
-0.095806301 0 -1.45029 65280
-0.092988499 0 -1.45029 65280
-0.0901706 0 -1.45029 65280
-0.087352797 0 -1.45029 65280
-0.084535003 0 -1.45029 65280
-0.081717104 0 -1.45029 65280
-0.078899302 0 -1.45029 65280
-0.076081499 0 -1.45029 65280
-0.0732636 0 -1.45029 65280
-0.070445798 0 -1.45029 65280
-0.067628004 0 -1.45029 65280
-0.064810097 0 -1.45029 65280
-0.061992299 0 -1.45029 65280
-0.0591745 0 -1.45029 65280
-0.056356601 0 -1.45029 65280
-0.053538799 0 -1.45029 65280
-0.050721001 0 -1.45029 65280
-0.047903098 0 -1.45029 65280
-0.0450853 0 -1.45029 65280
-0.042267501 0 -1.45029 65280
-0.039449699 0 -1.45029 65280
-0.0366318 0 -1.45029 65280
-0.033814002 0 -1.45029 65280
-0.0309962 0 -1.45029 65280
-0.028178301 0 -1.45029 65280
-0.0253605 0 -1.45029 65280
-0.0225427 0 -1.45029 65280
-0.019724799 0 -1.45029 65280
-0.016907001 0 -1.45029 65280
-0.0140892 0 -1.45029 65280
-0.0112713 0 -1.45029 65280
-0.0084535005 0 -1.45029 65280
-0.0056356601 0 -1.45029 65280
-0.0028178301 0 -1.45029 65280
0 0 -1.45029 65280
0.0028178301 0 -1.45029 65280
0.0056356601 0 -1.45029 65280
0.0084535005 0 -1.45029 65280
0.0112713 0 -1.45029 65280
0.0140892 0 -1.45029 65280
0.016907001 0 -1.45029 65280
0.019724799 0 -1.45029 65280
0.0225427 0 -1.45029 65280
0.0253605 0 -1.45029 65280
0.028178301 0 -1.45029 65280
0.0309962 0 -1.45029 65280
0.033814002 0 -1.45029 65280
0.0366318 0 -1.45029 65280
0.039449699 0 -1.45029 65280
0.042267501 0 -1.45029 65280
0.0450853 0 -1.45029 65280
0.047903098 0 -1.45029 65280
0.050721001 0 -1.45029 65280
0.053538799 0 -1.45029 65280
0.056356601 0 -1.45029 65280
0.0591745 0 -1.45029 65280
0.061992299 0 -1.45029 65280
0.064810097 0 -1.45029 65280
0.067628004 0 -1.45029 65280
0.070445798 0 -1.45029 65280
0.0732636 0 -1.45029 65280
0.076081499 0 -1.45029 65280
0.078899302 0 -1.45029 65280
0.081717104 0 -1.45029 65280
0.084535003 0 -1.45029 65280
0.087352797 0 -1.45029 65280
0.0901706 0 -1.45029 65280
0.092988499 0 -1.45029 65280
0.095806301 0 -1.45029 65280
0.098624103 0 -1.45029 65280
0.101442 0 -1.45029 65280
0.10426 0 -1.45029 65280
0.107078 0 -1.45029 65280
0.109895 0 -1.45029 65280
0.112713 0 -1.45029 65280
0.115531 0 -1.45029 65280
0.118349 0 -1.45029 65280
0.121167 0 -1.45029 65280
0.123985 0 -1.45029 65280
0.126802 0 -1.45029 65280
0.12962 0 -1.45029 65280
0.132438 0 -1.45029 65280
0.13525601 0 -1.45029 65280
0.138074 0 -1.45029 65280
0.140892 0 -1.45029 65280
0.143709 0 -1.45029 65280
0.14652701 0 -1.45029 65280
0.149345 0 -1.45029 65280
0.152163 0 -1.45029 65280
0.154981 0 -1.45029 65280
0.15779901 0 -1.45029 65280
0.160616 0 -1.45029 65280
0.163434 0 -1.45029 65280
0.166252 0 -1.45029 65280
0.16907001 0 -1.45029 65280
0.17188799 0 -1.45029 65280
0.174706 0 -1.45029 65280
0.177523 0 -1.45029 65280
0.18034101 0 -1.45029 65280
0.18315899 0 -1.45029 65280
0.185977 0 -1.45029 65280
0.188795 0 -1.45029 65280
0.191613 0 -1.45029 65280
0.19442999 0 -1.45029 65280
0.197248 0 -1.45029 65280
0.200066 0 -1.45029 65280
0.202884 0 -1.45029 65280
0.20570201 0 -1.45029 65280
0.20852 0 -1.45029 65280
0.211337 0 -1.45029 65280
0.214155 0 -1.45029 65280
0.21697301 0 -1.45029 65280
0.219791 0 -1.45029 65280
0.222609 0 -1.45029 65280
0.225427 0 -1.45029 65280
0.22824401 0 -1.45029 65280
0.231062 0 -1.45029 65280
0.23388 0 -1.45029 65280
0.236698 0 -1.45029 65280
0.239516 0 -1.45029 65280
0.24233399 0 -1.45029 65280
0.245151 0 -1.45029 65280
0.247969 0 -1.45029 65280
0.25078699 0 -1.45029 65280
0.25360501 0 -1.45029 65280
0.256423 0 -1.45029 65280
0.25924101 0 -1.45029 65280
0.26205799 0 -1.45029 65280
0.26487601 0 -1.45029 65280
0.267694 0 -1.45029 65280
0.27051201 0 -1.45029 65280
0.27333 0 -1.45029 65280
0.27614799 0 -1.45029 65280
0.278965 0 -1.45029 65280
0.28178301 0 -1.45029 65280
0.284601 0 -1.45029 65280
0.28741899 0 -1.45029 65280
0.29023701 0 -1.45029 65280
0.293055 0 -1.45029 65280
0.295872 0 -1.45029 65280
0.29868999 0 -1.45029 65280
0.30150801 0 -1.45029 65280
0.304326 0 -1.45029 65280
0.30714399 0 -1.45029 65280
0.309962 0 -1.45029 65280
0.31277901 0 -1.45029 65280
0.315597 0 -1.45029 65280
0.31841499 0 -1.45029 65280
0.321233 0 -1.45029 65280
0.32405099 0 -1.45029 65280
0.32686901 0 -1.45029 65280
0.32968599 0 -1.45029 65280
0.332504 0 -1.45029 65280
0.33532199 0 -1.45029 65280
0.33814001 0 -1.45029 65280
0.340958 0 -1.45029 65280
0.34377599 0 -1.45029 65280
0.34659299 0 -1.45029 65280
0.34941101 0 -1.45029 65280
0.352229 0 -1.45029 65280
0.35504699 0 -1.45029 65280
0.35786501 0 -1.45029 65280
0.36068299 0 -1.45029 65280
0.3635 0 -1.45029 65280
0.36631799 0 -1.45029 65280
0.36913601 0 -1.45029 65280
0.37195399 0 -1.45029 65280
0.37477201 0 -1.45029 65280
0.37759 0 -1.45029 65280
0.38040701 0 -1.45029 65280
0.38322499 0 -1.45029 65280
0.38604301 0 -1.45029 65280
0.388861 0 -1.45029 65280
0.39167899 0 -1.45029 65280
0.39449701 0 -1.45029 65280
0.39731401 0 -1.45029 65280
-0.39976999 0.0028152801 -1.44897 65280
-0.39695501 0.0028152801 -1.44897 65280
-0.39413899 0.0028152801 -1.44897 65280
-0.39132401 0.0028152801 -1.44897 65280
-0.38850901 0.0028152801 -1.44897 65280
-0.38569301 0.0028152801 -1.44897 65280
-0.38287801 0.0028152801 -1.44897 65280
-0.380063 0.0028152801 -1.44897 65280
-0.37724799 0.0028152801 -1.44897 65280
-0.374432 0.0028152801 -1.44897 65280
-0.37161699 0.0028152801 -1.44897 65280
-0.36880201 0.0028152801 -1.44897 65280
-0.36598599 0.0028152801 -1.44897 65280
-0.36317101 0.0028152801 -1.44897 65280
-0.360356 0.0028152801 -1.44897 65280
-0.35754099 0.0028152801 -1.44897 65280
-0.354725 0.0028152801 -1.44897 65280
-0.35191 0.0028152801 -1.44897 65280
-0.34909499 0.0028152801 -1.44897 65280
-0.34628001 0.0028152801 -1.44897 65280
-0.34346399 0.0028152801 -1.44897 65280
-0.34064901 0.0028152801 -1.44897 65280
-0.337834 0.0028152801 -1.44897 65280
-0.32512999 0.0027321801 -1.4062001 65280
-0.31027099 0.00262941 -1.35331 65280
-0.30717301 0.00262541 -1.3512501 65280
-0.30436999 0.00262388 -1.3504601 65280
-0.30169901 0.00262347 -1.35025 65280
-0.299095 0.00262364 -1.35034 65280
-0.296574 0.0026245499 -1.3508101 65280
-0.294146 0.0026263001 -1.35171 65280
-0.29180601 0.0026288801 -1.35304 65280
-0.28945401 0.0026314 -1.3543299 65280
-0.28705999 0.00263358 -1.35545 65280
-0.284711 0.0026362101 -1.35681 65280
-0.28250799 0.0026402599 -1.3589 65280
-0.28175899 0.0026581001 -1.36807 65280
-0.28243801 0.0026898901 -1.3844399 65280
-0.28072599 0.0026992899 -1.38928 65280
-0.27878201 0.0027066199 -1.39305 65280
-0.27662 0.0027119699 -1.3958 65280
-0.27427399 0.0027155799 -1.39766 65280
-0.27186 0.0027186 -1.39921 65280
-0.269418 0.00272139 -1.40065 65280
-0.26701999 0.0027246899 -1.4023499 65280
-0.264727 0.00272914 -1.40464 65280
-0.26249599 0.00273434 -1.40731 65280
-0.26030901 0.00274009 -1.41027 65280
-0.258187 0.00274667 -1.41366 65280
-0.25622201 0.0027550799 -1.41799 65280
-0.25556099 0.00277783 -1.4297 65280
-0.25619099 0.0028152801 -1.44897 65280
-0.25337499 0.0028152801 -1.44897 65280
-0.25055999 0.0028152801 -1.44897 65280
-0.24774501 0.0028152801 -1.44897 65280
-0.244929 0.0028152801 -1.44897 65280
-0.24211399 0.0028152801 -1.44897 65280
-0.239299 0.0028152801 -1.44897 65280
-0.23648401 0.0028152801 -1.44897 65280
-0.233668 0.0028152801 -1.44897 65280
-0.23085301 0.0028152801 -1.44897 65280
-0.228038 0.0028152801 -1.44897 65280
-0.22522201 0.0028152801 -1.44897 65280
-0.222407 0.0028152801 -1.44897 65280
-0.21959201 0.0028152801 -1.44897 65280
-0.216777 0.0028152801 -1.44897 65280
-0.21396101 0.0028152801 -1.44897 65280
-0.211146 0.0028152801 -1.44897 65280
-0.208331 0.0028152801 -1.44897 65280
-0.205515 0.0028152801 -1.44897 65280
-0.2027 0.0028152801 -1.44897 65280
-0.199885 0.0028152801 -1.44897 65280
-0.19707 0.0028152801 -1.44897 65280
-0.194254 0.0028152801 -1.44897 65280
-0.191439 0.0028152801 -1.44897 65280
-0.18862399 0.0028152801 -1.44897 65280
-0.185809 0.0028152801 -1.44897 65280
-0.18299299 0.0028152801 -1.44897 65280
-0.180178 0.0028152801 -1.44897 65280
-0.17736299 0.0028152801 -1.44897 65280
-0.174547 0.0028152801 -1.44897 65280
-0.17173199 0.0028152801 -1.44897 65280
-0.168917 0.0028152801 -1.44897 65280
-0.16610201 0.0028152801 -1.44897 65280
-0.163286 0.0028152801 -1.44897 65280
-0.16047101 0.0028152801 -1.44897 65280
-0.157656 0.0028152801 -1.44897 65280
-0.15484001 0.0028152801 -1.44897 65280
-0.152025 0.0028152801 -1.44897 65280
-0.14921001 0.0028152801 -1.44897 65280
-0.146395 0.0028152801 -1.44897 65280
-0.14357901 0.0028152801 -1.44897 65280
-0.140764 0.0028152801 -1.44897 65280
-0.137949 0.0028152801 -1.44897 65280
-0.135133 0.0028152801 -1.44897 65280
-0.132318 0.0028152801 -1.44897 65280
-0.129503 0.0028152801 -1.44897 65280
-0.126688 0.0028152801 -1.44897 65280
-0.123872 0.0028152801 -1.44897 65280
-0.121057 0.0028152801 -1.44897 65280
-0.118242 0.0028152801 -1.44897 65280
-0.115427 0.0028152801 -1.44897 65280
-0.112611 0.0028152801 -1.44897 65280
-0.109796 0.0028152801 -1.44897 65280
-0.106981 0.0028152801 -1.44897 65280
-0.104165 0.0028152801 -1.44897 65280
-0.10135 0.0028152801 -1.44897 65280
-0.0985348 0.0028152801 -1.44897 65280
-0.095719501 0.0028152801 -1.44897 65280
-0.092904299 0.0028152801 -1.44897 65280
-0.090089001 0.0028152801 -1.44897 65280
-0.087273702 0.0028152801 -1.44897 65280
-0.084458403 0.0028152801 -1.44897 65280
-0.081643097 0.0028152801 -1.44897 65280
-0.078827903 0.0028152801 -1.44897 65280
-0.076012596 0.0028152801 -1.44897 65280
-0.073197298 0.0028152801 -1.44897 65280
-0.070381999 0.0028152801 -1.44897 65280
-0.0675667 0.0028152801 -1.44897 65280
-0.064751498 0.0028152801 -1.44897 65280
-0.0619362 0.0028152801 -1.44897 65280
-0.059120901 0.0028152801 -1.44897 65280
-0.056305598 0.0028152801 -1.44897 65280
-0.0534903 0.0028152801 -1.44897 65280
-0.050675102 0.0028152801 -1.44897 65280
-0.047859799 0.0028152801 -1.44897 65280
-0.0450445 0.0028152801 -1.44897 65280
-0.042229202 0.0028152801 -1.44897 65280
-0.039413899 0.0028152801 -1.44897 65280
-0.0365986 0.0028152801 -1.44897 65280
-0.033783399 0.0028152801 -1.44897 65280
-0.0309681 0.0028152801 -1.44897 65280
-0.028152799 0.0028152801 -1.44897 65280
-0.0253375 0.0028152801 -1.44897 65280
-0.0225222 0.0028152801 -1.44897 65280
-0.019707 0.0028152801 -1.44897 65280
-0.016891699 0.0028152801 -1.44897 65280
-0.0140764 0.0028152801 -1.44897 65280
-0.0112611 0.0028152801 -1.44897 65280
-0.0084458403 0.0028152801 -1.44897 65280
-0.0056305602 0.0028152801 -1.44897 65280
-0.0028152801 0.0028152801 -1.44897 65280
0 0.0028152801 -1.44897 65280
0.0028152801 0.0028152801 -1.44897 65280
0.0056305602 0.0028152801 -1.44897 65280
0.0084458403 0.0028152801 -1.44897 65280
0.0112611 0.0028152801 -1.44897 65280
0.0140764 0.0028152801 -1.44897 65280
0.016891699 0.0028152801 -1.44897 65280
0.019707 0.0028152801 -1.44897 65280
0.0225222 0.0028152801 -1.44897 65280
0.0253375 0.0028152801 -1.44897 65280
0.028152799 0.0028152801 -1.44897 65280
0.0309681 0.0028152801 -1.44897 65280
0.033783399 0.0028152801 -1.44897 65280
0.0365986 0.0028152801 -1.44897 65280
0.039413899 0.0028152801 -1.44897 65280
0.042229202 0.0028152801 -1.44897 65280
0.0450445 0.0028152801 -1.44897 65280
0.047859799 0.0028152801 -1.44897 65280
0.050675102 0.0028152801 -1.44897 65280
0.0534903 0.0028152801 -1.44897 65280
0.056305598 0.0028152801 -1.44897 65280
0.059120901 0.0028152801 -1.44897 65280
0.0619362 0.0028152801 -1.44897 65280
0.064751498 0.0028152801 -1.44897 65280
0.0675667 0.0028152801 -1.44897 65280
0.070381999 0.0028152801 -1.44897 65280
0.073197298 0.0028152801 -1.44897 65280
0.076012596 0.0028152801 -1.44897 65280
0.078827903 0.0028152801 -1.44897 65280
0.081643097 0.0028152801 -1.44897 65280
0.084458403 0.0028152801 -1.44897 65280
0.087273702 0.0028152801 -1.44897 65280
0.090089001 0.0028152801 -1.44897 65280
0.092904299 0.0028152801 -1.44897 65280
0.095719501 0.0028152801 -1.44897 65280
0.0985348 0.0028152801 -1.44897 65280
0.10135 0.0028152801 -1.44897 65280
0.104165 0.0028152801 -1.44897 65280
0.106981 0.0028152801 -1.44897 65280
0.109796 0.0028152801 -1.44897 65280
0.112611 0.0028152801 -1.44897 65280
0.115427 0.0028152801 -1.44897 65280
0.118242 0.0028152801 -1.44897 65280
0.121057 0.0028152801 -1.44897 65280
0.123872 0.0028152801 -1.44897 65280
0.126688 0.0028152801 -1.44897 65280
0.129503 0.0028152801 -1.44897 65280
0.132318 0.0028152801 -1.44897 65280
0.135133 0.0028152801 -1.44897 65280
0.137949 0.0028152801 -1.44897 65280
0.140764 0.0028152801 -1.44897 65280
0.14357901 0.0028152801 -1.44897 65280
0.146395 0.0028152801 -1.44897 65280
0.14921001 0.0028152801 -1.44897 65280
0.152025 0.0028152801 -1.44897 65280
0.15484001 0.0028152801 -1.44897 65280
0.157656 0.0028152801 -1.44897 65280
0.16047101 0.0028152801 -1.44897 65280
0.163286 0.0028152801 -1.44897 65280
0.16610201 0.0028152801 -1.44897 65280
0.168917 0.0028152801 -1.44897 65280
0.17173199 0.0028152801 -1.44897 65280
0.174547 0.0028152801 -1.44897 65280
0.17736299 0.0028152801 -1.44897 65280
0.180178 0.0028152801 -1.44897 65280
0.18299299 0.0028152801 -1.44897 65280
0.185809 0.0028152801 -1.44897 65280
0.18862399 0.0028152801 -1.44897 65280
0.191439 0.0028152801 -1.44897 65280
0.194254 0.0028152801 -1.44897 65280
0.19707 0.0028152801 -1.44897 65280
0.199885 0.0028152801 -1.44897 65280
0.2027 0.0028152801 -1.44897 65280
0.205515 0.0028152801 -1.44897 65280
0.208331 0.0028152801 -1.44897 65280
0.211146 0.0028152801 -1.44897 65280
0.21396101 0.0028152801 -1.44897 65280
0.216777 0.0028152801 -1.44897 65280
0.21959201 0.0028152801 -1.44897 65280
0.222407 0.0028152801 -1.44897 65280
0.22522201 0.0028152801 -1.44897 65280
0.228038 0.0028152801 -1.44897 65280
0.23085301 0.0028152801 -1.44897 65280
0.233668 0.0028152801 -1.44897 65280
0.23648401 0.0028152801 -1.44897 65280
0.239299 0.0028152801 -1.44897 65280
0.24211399 0.0028152801 -1.44897 65280
0.244929 0.0028152801 -1.44897 65280
0.24774501 0.0028152801 -1.44897 65280
0.25055999 0.0028152801 -1.44897 65280
0.25337499 0.0028152801 -1.44897 65280
0.25619099 0.0028152801 -1.44897 65280
0.25900599 0.0028152801 -1.44897 65280
0.261821 0.0028152801 -1.44897 65280
0.26463601 0.0028152801 -1.44897 65280
0.267452 0.0028152801 -1.44897 65280
0.27026701 0.0028152801 -1.44897 65280
0.27308199 0.0028152801 -1.44897 65280
0.27589801 0.0028152801 -1.44897 65280
0.27871299 0.0028152801 -1.44897 65280
0.281528 0.0028152801 -1.44897 65280
0.284343 0.0028152801 -1.44897 65280
0.287159 0.0028152801 -1.44897 65280
0.289974 0.0028152801 -1.44897 65280
0.29278901 0.0028152801 -1.44897 65280
0.29560399 0.0028152801 -1.44897 65280
0.29842001 0.0028152801 -1.44897 65280
0.30123499 0.0028152801 -1.44897 65280
0.30405 0.0028152801 -1.44897 65280
0.30686599 0.0028152801 -1.44897 65280
0.309681 0.0028152801 -1.44897 65280
0.31249601 0.0028152801 -1.44897 65280
0.31531101 0.0028152801 -1.44897 65280
0.31812701 0.0028152801 -1.44897 65280
0.32094201 0.0028152801 -1.44897 65280
0.32375699 0.0028152801 -1.44897 65280
0.32657301 0.0028152801 -1.44897 65280
0.32938799 0.0028152801 -1.44897 65280
0.332203 0.0028152801 -1.44897 65280
0.33501801 0.0028152801 -1.44897 65280
0.337834 0.0028152801 -1.44897 65280
0.34064901 0.0028152801 -1.44897 65280
0.34346399 0.0028152801 -1.44897 65280
0.34628001 0.0028152801 -1.44897 65280
0.34909499 0.0028152801 -1.44897 65280
0.35191 0.0028152801 -1.44897 65280
0.354725 0.0028152801 -1.44897 65280
0.35754099 0.0028152801 -1.44897 65280
0.360356 0.0028152801 -1.44897 65280
0.36317101 0.0028152801 -1.44897 65280
0.36598599 0.0028152801 -1.44897 65280
0.36880201 0.0028152801 -1.44897 65280
0.37161699 0.0028152801 -1.44897 65280
0.374432 0.0028152801 -1.44897 65280
0.37724799 0.0028152801 -1.44897 65280
0.380063 0.0028152801 -1.44897 65280
0.38287801 0.0028152801 -1.44897 65280
0.38569301 0.0028152801 -1.44897 65280
0.38850901 0.0028152801 -1.44897 65280
0.39132401 0.0028152801 -1.44897 65280
0.39413899 0.0028152801 -1.44897 65280
0.39695501 0.0028152801 -1.44897 65280
-0.399409 0.0056254701 -1.44766 65280
-0.39659601 0.0056254701 -1.44766 65280
-0.393783 0.0056254701 -1.44766 65280
-0.39096999 0.0056254701 -1.44766 65280
-0.38815799 0.0056254701 -1.44766 65280
-0.38534501 0.0056254701 -1.44766 65280
-0.382532 0.0056254701 -1.44766 65280
-0.37971899 0.0056254701 -1.44766 65280
-0.37690699 0.0056254701 -1.44766 65280
-0.37409401 0.0056254701 -1.44766 65280
-0.371281 0.0056254701 -1.44766 65280
-0.36846799 0.0056254701 -1.44766 65280
-0.36565599 0.0056254701 -1.44766 65280
-0.36284301 0.0056254701 -1.44766 65280
-0.36003 0.0056254701 -1.44766 65280
-0.357218 0.0056254701 -1.44766 65280
-0.35440499 0.0056254701 -1.44766 65280
-0.351592 0.0056254701 -1.44766 65280
-0.34877899 0.0056254701 -1.44766 65280
-0.34596699 0.0056254701 -1.44766 65280
-0.34315401 0.0056254701 -1.44766 65280
-0.340341 0.0056254701 -1.44766 65280
-0.33752799 0.0056254701 -1.44766 65280
-0.324821 0.0054591801 -1.40487 65280
-0.30961499 0.0052477098 -1.35045 65280
-0.30651 0.00523949 -1.34833 65280
-0.30382001 0.0052382802 -1.34802 65280
-0.301249 0.0052391202 -1.34824 65280
-0.29874301 0.00524111 -1.34875 65280
-0.29630601 0.0052443598 -1.3495899 65280
-0.29394901 0.00524909 -1.3508 65280
-0.291659 0.0052551199 -1.35236 65280
-0.28936899 0.0052612498 -1.35393 65280
-0.28708899 0.0052676802 -1.35559 65280
-0.284886 0.0052756602 -1.35764 65280
-0.28749999 0.0053738402 -1.38291 65280
-0.285218 0.0053814701 -1.3848701 65280
-0.283057 0.0053915498 -1.38747 65280
-0.28100601 0.0054039601 -1.39066 65280
-0.278864 0.0054148301 -1.39346 65280
-0.27656299 0.0054228101 -1.39551 65280
-0.27417099 0.0054291398 -1.39714 65280
-0.271736 0.0054347101 -1.3985699 65280
-0.269274 0.0054398798 -1.3999 65280
-0.266922 0.0054473998 -1.40184 65280
-0.26465899 0.00545689 -1.4042799 65280
-0.26243699 0.00546744 -1.4069999 65280
-0.260268 0.0054793302 -1.41005 65280
-0.258192 0.00549345 -1.41369 65280
-0.25634399 0.00551278 -1.41866 65280
-0.25877199 0.0056254701 -1.44766 65280
-0.255959 0.0056254701 -1.44766 65280
-0.25314599 0.0056254701 -1.44766 65280
-0.25033399 0.0056254701 -1.44766 65280
-0.247521 0.0056254701 -1.44766 65280
-0.244708 0.0056254701 -1.44766 65280
-0.24189501 0.0056254701 -1.44766 65280
-0.23908301 0.0056254701 -1.44766 65280
-0.23627 0.0056254701 -1.44766 65280
-0.233457 0.0056254701 -1.44766 65280
-0.230644 0.0056254701 -1.44766 65280
-0.227832 0.0056254701 -1.44766 65280
-0.22501899 0.0056254701 -1.44766 65280
-0.222206 0.0056254701 -1.44766 65280
-0.219393 0.0056254701 -1.44766 65280
-0.216581 0.0056254701 -1.44766 65280
-0.21376801 0.0056254701 -1.44766 65280
-0.21095499 0.0056254701 -1.44766 65280
-0.208142 0.0056254701 -1.44766 65280
-0.20533 0.0056254701 -1.44766 65280
-0.202517 0.0056254701 -1.44766 65280
-0.19970401 0.0056254701 -1.44766 65280
-0.19689199 0.0056254701 -1.44766 65280
-0.194079 0.0056254701 -1.44766 65280
-0.191266 0.0056254701 -1.44766 65280
-0.188453 0.0056254701 -1.44766 65280
-0.18564101 0.0056254701 -1.44766 65280
-0.18282799 0.0056254701 -1.44766 65280
-0.180015 0.0056254701 -1.44766 65280
-0.177202 0.0056254701 -1.44766 65280
-0.17439 0.0056254701 -1.44766 65280
-0.17157701 0.0056254701 -1.44766 65280
-0.168764 0.0056254701 -1.44766 65280
-0.165951 0.0056254701 -1.44766 65280
-0.163139 0.0056254701 -1.44766 65280
-0.160326 0.0056254701 -1.44766 65280
-0.15751299 0.0056254701 -1.44766 65280
-0.15470099 0.0056254701 -1.44766 65280
-0.151888 0.0056254701 -1.44766 65280
-0.149075 0.0056254701 -1.44766 65280
-0.146262 0.0056254701 -1.44766 65280
-0.14345001 0.0056254701 -1.44766 65280
-0.140637 0.0056254701 -1.44766 65280
-0.137824 0.0056254701 -1.44766 65280
-0.135011 0.0056254701 -1.44766 65280
-0.132199 0.0056254701 -1.44766 65280
-0.12938599 0.0056254701 -1.44766 65280
-0.126573 0.0056254701 -1.44766 65280
-0.12376 0.0056254701 -1.44766 65280
-0.120948 0.0056254701 -1.44766 65280
-0.118135 0.0056254701 -1.44766 65280
-0.115322 0.0056254701 -1.44766 65280
-0.112509 0.0056254701 -1.44766 65280
-0.109697 0.0056254701 -1.44766 65280
-0.106884 0.0056254701 -1.44766 65280
-0.104071 0.0056254701 -1.44766 65280
-0.101259 0.0056254701 -1.44766 65280
-0.098445803 0.0056254701 -1.44766 65280
-0.095633 0.0056254701 -1.44766 65280
-0.092820302 0.0056254701 -1.44766 65280
-0.090007603 0.0056254701 -1.44766 65280
-0.0871948 0.0056254701 -1.44766 65280
-0.084382102 0.0056254701 -1.44766 65280
-0.081569403 0.0056254701 -1.44766 65280
-0.078756601 0.0056254701 -1.44766 65280
-0.075943902 0.0056254701 -1.44766 65280
-0.073131099 0.0056254701 -1.44766 65280
-0.070318401 0.0056254701 -1.44766 65280
-0.067505702 0.0056254701 -1.44766 65280
-0.0646929 0.0056254701 -1.44766 65280
-0.061880201 0.0056254701 -1.44766 65280
-0.059067499 0.0056254701 -1.44766 65280
-0.0562547 0.0056254701 -1.44766 65280
-0.053442001 0.0056254701 -1.44766 65280
-0.050629299 0.0056254701 -1.44766 65280
-0.0478165 0.0056254701 -1.44766 65280
-0.045003802 0.0056254701 -1.44766 65280
-0.042190999 0.0056254701 -1.44766 65280
-0.0393783 0.0056254701 -1.44766 65280
-0.036565602 0.0056254701 -1.44766 65280
-0.033752799 0.0056254701 -1.44766 65280
-0.030940101 0.0056254701 -1.44766 65280
-0.0281274 0.0056254701 -1.44766 65280
-0.025314599 0.0056254701 -1.44766 65280
-0.022501901 0.0056254701 -1.44766 65280
-0.0196892 0.0056254701 -1.44766 65280
-0.0168764 0.0056254701 -1.44766 65280
-0.0140637 0.0056254701 -1.44766 65280
-0.0112509 0.0056254701 -1.44766 65280
-0.00843821 0.0056254701 -1.44766 65280
-0.0056254701 0.0056254701 -1.44766 65280
-0.0028127399 0.0056254701 -1.44766 65280
0 0.0056254701 -1.44766 65280
0.0028127399 0.0056254701 -1.44766 65280
0.0056254701 0.0056254701 -1.44766 65280
0.00843821 0.0056254701 -1.44766 65280
0.0112509 0.0056254701 -1.44766 65280
0.0140637 0.0056254701 -1.44766 65280
0.0168764 0.0056254701 -1.44766 65280
0.0196892 0.0056254701 -1.44766 65280
0.022501901 0.0056254701 -1.44766 65280
0.025314599 0.0056254701 -1.44766 65280
0.0281274 0.0056254701 -1.44766 65280
0.030940101 0.0056254701 -1.44766 65280
0.033752799 0.0056254701 -1.44766 65280
0.036565602 0.0056254701 -1.44766 65280
0.0393783 0.0056254701 -1.44766 65280
0.042190999 0.0056254701 -1.44766 65280
0.045003802 0.0056254701 -1.44766 65280
0.0478165 0.0056254701 -1.44766 65280
0.050629299 0.0056254701 -1.44766 65280
0.053442001 0.0056254701 -1.44766 65280
0.0562547 0.0056254701 -1.44766 65280
0.059067499 0.0056254701 -1.44766 65280
0.061880201 0.0056254701 -1.44766 65280
0.0646929 0.0056254701 -1.44766 65280
0.067505702 0.0056254701 -1.44766 65280
0.070318401 0.0056254701 -1.44766 65280
0.073131099 0.0056254701 -1.44766 65280
0.075943902 0.0056254701 -1.44766 65280
0.078756601 0.0056254701 -1.44766 65280
0.081569403 0.0056254701 -1.44766 65280
0.084382102 0.0056254701 -1.44766 65280
0.0871948 0.0056254701 -1.44766 65280
0.090007603 0.0056254701 -1.44766 65280
0.092820302 0.0056254701 -1.44766 65280
0.095633 0.0056254701 -1.44766 65280
0.098445803 0.0056254701 -1.44766 65280
0.101259 0.0056254701 -1.44766 65280
0.104071 0.0056254701 -1.44766 65280
0.106884 0.0056254701 -1.44766 65280
0.109697 0.0056254701 -1.44766 65280
0.112509 0.0056254701 -1.44766 65280
0.115322 0.0056254701 -1.44766 65280
0.118135 0.0056254701 -1.44766 65280
0.120948 0.0056254701 -1.44766 65280
