# .PCD v0.7 - Point Cloud Data file format
VERSION 0.7
FIELDS x y z rgb
SIZE 4 4 4 4
TYPE F F F U
COUNT 1 1 1 1
WIDTH 1149
HEIGHT 1
VIEWPOINT 0 0 0 1 0 0 0
POINTS 1149
DATA ascii
-0.14701754 0.097044177 -1.3585085 16711680
-0.14579588 0.09266708 -1.3581375 16711680
-0.1380448 0.051009059 -1.3770221 16711680
-0.13792546 0.048230585 -1.3806432 16711680
-0.13950537 0.045906637 -1.3833319 16711680
-0.14277966 0.097035058 -1.3596277 16711680
-0.14096063 0.093216702 -1.3592848 16711680
-0.13932618 0.089915477 -1.3585274 16711680
-0.1328935 0.054934792 -1.3743063 16711680
-0.13343439 0.052959155 -1.3775762 16711680
-0.13394867 0.050297804 -1.3809253 16711680
-0.13612242 0.093598269 -1.3601527 16711680
-0.13514847 0.090105668 -1.359086 16711680
-0.12887713 0.056479454 -1.3743277 16711680
-0.12895295 0.054757006 -1.3778235 16711680
-0.13123341 0.094081558 -1.3606174 16711680
-0.13038798 0.090690769 -1.3594044 16711680
-0.12421346 0.057814308 -1.3742714 16711680
-0.12415016 0.056407332 -1.3775823 16711680
-0.12608135 0.094608828 -1.3606896 16711680
-0.12548392 0.091464795 -1.359288 16711680
-0.11938289 0.058692768 -1.3741528 16711680
-0.11919793 0.057614315 -1.3774571 16711680
-0.12130313 0.09508048 -1.3607674 16711680
-0.12051564 0.09245418 -1.3592356 16711680
-0.11441015 0.05952359 -1.3742198 16711680
-0.11419195 0.058892183 -1.3772919 16711680
-0.11560947 0.093039654 -1.3593962 16711680
-0.10956468 0.060791858 -1.3740292 16711680
-0.11049024 0.092684358 -1.3596176 16711680
-0.10793497 0.090476356 -1.3581476 16711680
-0.1029225 0.063756168 -1.3702722 16711680
-0.10493771 0.062670596 -1.3733503 16711680
-0.10648111 0.092562623 -1.3605342 16711680
-0.10434306 0.091108307 -1.3598639 16711680
-0.099616155 0.06568215 -1.3713846 16711680
-0.10134499 0.064603165 -1.3731997 16711680
-0.10002708 0.090002507 -1.3611771 16711680
-0.097301885 0.087708354 -1.3613192 16711680
-0.094181687 0.070941299 -1.3688958 16711680
-0.096018299 0.068643302 -1.37084 16711680
-0.095723286 0.086135469 -1.3628011 16711680
-0.093979195 0.082159102 -1.3644792 16711680
-0.093141228 0.077664196 -1.3665226 16711680
-0.093363635 0.073466405 -1.3685336 16711680
-0.18506917 0.069762908 -1.3667661 16711680
-0.18462242 0.066178843 -1.3678006 16711680
-0.18395957 0.062605053 -1.3694292 16711680
-0.18322797 0.059777256 -1.3712198 16711680
-0.18195428 0.079559587 -1.3622261 16711680
-0.18250147 0.075561076 -1.362686 16711680
-0.18281171 0.070716336 -1.3636369 16711680
-0.18282035 0.066036142 -1.3652406 16711680
-0.18195054 0.061379869 -1.3673526 16711680
-0.18035783 0.057262558 -1.3698797 16711680
-0.17845085 0.053787559 -1.3725713 16711680
-0.1767132 0.051203411 -1.3750834 16711680
-0.17814153 0.084497735 -1.360052 16711680
-0.17898947 0.080453239 -1.3600811 16711680
-0.17967992 0.076008201 -1.3601091 16711680
-0.1804093 0.071785256 -1.3607327 16711680
-0.17731388 0.055274598 -1.3682113 16711680
-0.17522967 0.05242819 -1.3707967 16711680
-0.17335278 0.04990105 -1.374048 16711680
-0.17160071 0.047884263 -1.3765895 16711680
-0.17481945 0.085677169 -1.3585458 16711680
-0.17509885 0.081359133 -1.3579631 16711680
-0.17652637 0.077597439 -1.357878 16711680
-0.17163347 0.050825175 -1.3700775 16711680
-0.16902867 0.048951313 -1.3727211 16711680
-0.1676207 0.046880238 -1.3761353 16711680
-0.17017743 0.090466231 -1.3573076 16711680
-0.17051709 0.086659983 -1.3570858 16711680
-0.17034145 0.082627721 -1.3563566 16711680
-0.1639595 0.048478793 -1.3718463 16711680
-0.16303436 0.046455048 -1.3753686 16711680
-0.16156982 0.044429209 -1.3781761 16711680
-0.1658612 0.091289289 -1.3564924 16711680
-0.16564758 0.087132424 -1.3560393 16711680
-0.16520053 0.083904967 -1.3553574 16711680
-0.15853921 0.048507318 -1.3714306 16711680
-0.15814686 0.046901491 -1.3742808 16711680
-0.15731277 0.044646375 -1.3776181 16711680
-0.16134562 0.092182934 -1.356143 16711680
-0.16065308 0.087869614 -1.3556156 16711680
-0.16024381 0.084724404 -1.3549559 16711680
-0.15356624 0.049220081 -1.371057 16711680
-0.15316787 0.047642436 -1.3738552 16711680
-0.15267397 0.045193829 -1.3774127 16711680
-0.15675357 0.092624478 -1.3562367 16711680
-0.15577541 0.088970788 -1.3558534 16711680
-0.15473896 0.085314468 -1.355114 16711680
-0.14828393 0.050607111 -1.3708608 16711680
-0.14825915 0.048617538 -1.3741388 16711680
-0.1481685 0.046357341 -1.3772022 16711680
-0.15361202 0.092627756 -1.3566201 16711680
-0.15095201 0.089686394 -1.3565034 16711680
-0.14981481 0.085573971 -1.3556392 16711680
-0.14362942 0.052313752 -1.3707231 16711680
-0.14361972 0.050076447 -1.3744518 16711680
-0.14514618 0.047585048 -1.3770716 16711680
-0.14626755 0.089782454 -1.3572726 16711680
-0.14497793 0.086011 -1.356473 16711680
-0.14300092 0.082773209 -1.3559257 16711680
-0.1380987 0.056275051 -1.3679398 16711680
-0.13899714 0.05413818 -1.3709277 16711680
-0.13937129 0.051994365 -1.3743137 16711680
-0.1427522 0.08979509 -1.3579094 16711680
-0.14027604 0.086609073 -1.3574369 16711680
-0.13897252 0.08281409 -1.3567201 16711680
-0.1343364 0.058123395 -1.3678701 16711680
-0.13452554 0.055840835 -1.3714436 16711680
-0.13595437 0.053550929 -1.3743327 16711680
-0.13521369 0.087004296 -1.3582202 16711680
-0.13430864 0.082843751 -1.3574568 16711680
-0.13273349 0.079749405 -1.3572659 16711680
-0.12946902 0.06218135 -1.3652591 16711680
-0.12998278 0.059970271 -1.3678762 16711680
-0.12985587 0.057678115 -1.3715115 16711680
-0.13000256 0.087373033 -1.3584502 16711680
-0.12934449 0.083490759 -1.3577592 16711680
-0.12879717 0.07981851 -1.3574493 16711680
-0.12579563 0.063484192 -1.3648471 16711680
-0.12526464 0.061270803 -1.3678498 16711680
-0.12475272 0.059231929 -1.3712109 16711680
-0.12502861 0.088155076 -1.3581171 16711680
-0.12450927 0.084347144 -1.3573049 16711680
-0.12436466 0.080659106 -1.3570334 16711680
-0.1212832 0.064005293 -1.364584 16711680
-0.12032403 0.061925676 -1.3674396 16711680
-0.11979919 0.060000859 -1.3708838 16711680
-0.12014297 0.089001365 -1.3575655 16711680
-0.11976033 0.085430942 -1.3564214 16711680
-0.12138082 0.081645355 -1.3564218 16711680
-0.11810898 0.063852981 -1.3644924 16711680
-0.11538927 0.062013946 -1.3670405 16711680
-0.11484567 0.060545258 -1.3704796 16711680
-0.11529952 0.089485198 -1.35709 16711680
-0.11490497 0.086602785 -1.3556322 16711680
-0.11034207 0.062179647 -1.3667136 16711680
-0.11007653 0.061360624 -1.3698376 16711680
-0.11117689 0.090036213 -1.3573284 16711680
-0.10972551 0.087873377 -1.3557799 16711680
-0.10516936 0.063043445 -1.3670611 16711680
-0.10603533 0.062435478 -1.3698499 16711680
-0.10475923 0.087895244 -1.356443 16711680
-0.10059866 0.064971387 -1.3667488 16711680
-0.10050656 0.087014198 -1.3570716 16711680
-0.097796664 0.085357688 -1.3571185 16711680
-0.094859362 0.069083415 -1.3644214 16711680
-0.096835867 0.067304954 -1.3659885 16711680
-0.095623195 0.083619691 -1.3584737 16711680
-0.093911774 0.079961233 -1.3600413 16711680
-0.093131572 0.075770073 -1.3619394 16711680
-0.093434736 0.071880378 -1.3637943 16711680
-0.180563 0.068846203 -1.3613353 16711680
-0.18032043 0.064804576 -1.3624316 16711680
-0.17953673 0.06078136 -1.3642143 16711680
-0.17857531 0.057771266 -1.3662784 16711680
-0.17750351 0.073709503 -1.3579026 16711680
-0.17829743 0.069526151 -1.3585492 16711680
-0.17837434 0.064661175 -1.3598139 16711680
-0.17747928 0.059646167 -1.3621264 16711680
-0.17570184 0.055660333 -1.3648834 16711680
-0.17355488 0.05287163 -1.3673227 16711680
-0.17348313 0.078557722 -1.3563102 16711680
-0.17452276 0.075230427 -1.3556411 16711680
-0.17576368 0.071033828 -1.3554194 16711680
-0.17242941 0.053259369 -1.3634398 16711680
-0.17003195 0.051229164 -1.3664742 16711680
-0.16815968 0.050020535 -1.3691969 16711680
-0.16949387 0.079422206 -1.354594 16711680
-0.17109296 0.076565981 -1.3535674 16711680
-0.16607368 0.049917758 -1.3656374 16711680
-0.16380729 0.049392033 -1.3682436 16711680
-0.16478167 0.081114002 -1.353899 16711680
-0.15885754 0.049279355 -1.3683432 16711680
-0.15980983 0.081816189 -1.353551 16711680
-0.15387656 0.050094835 -1.3679373 16711680
-0.15498696 0.081894696 -1.353689 16711680
-0.15285641 0.079127848 -1.3523256 16711680
-0.14799704 0.052909039 -1.3642997 16711680
-0.14935888 0.051586125 -1.3674517 16711680
-0.15011013 0.082325689 -1.3545361 16711680
-0.14900625 0.079323158 -1.353415 16711680
-0.1443985 0.054794699 -1.3644913 16711680
-0.1448037 0.053350024 -1.3677167 16711680
-0.14624611 0.082649149 -1.3552721 16711680
-0.14417548 0.079448201 -1.3546982 16711680
-0.14222808 0.07559108 -1.35421 16711680
-0.13934334 0.0596844 -1.3613235 16711680
-0.13999669 0.057082586 -1.3648475 16711680
-0.14107391 0.054917507 -1.3678504 16711680
-0.13960864 0.079744533 -1.3559541 16711680
-0.13834439 0.075531676 -1.3556238 16711680
-0.13642903 0.071056083 -1.356336 16711680
-0.1354458 0.065731086 -1.3587493 16711680
-0.13580957 0.061904248 -1.3618058 16711680
-0.13581558 0.059141681 -1.36531 16711680
-0.13543247 0.07989952 -1.3568783 16711680
-0.13370143 0.076797605 -1.3570045 16711680
-0.13276179 0.071903333 -1.3576686 16711680
-0.13183653 0.067334257 -1.3597651 16711680
-0.13115156 0.063508935 -1.3630867 16711680
-0.13190049 0.061015844 -1.3654577 16711680
-0.12848577 0.077208489 -1.3575846 16711680
-0.12796028 0.072861664 -1.3584325 16711680
-0.12718365 0.068714246 -1.3603145 16711680
-0.1262618 0.065281294 -1.3629919 16711680
-0.12335759 0.078282379 -1.3570577 16711680
-0.12258407 0.073785245 -1.357965 16711680
-0.12177801 0.06943509 -1.3599377 16711680
-0.12102683 0.065777026 -1.3627274 16711680
-0.11809985 0.082605995 -1.3555076 16711680
-0.11857027 0.079207219 -1.3557546 16711680
-0.11785586 0.074377038 -1.3566738 16711680
-0.11696879 0.069544524 -1.3588696 16711680
-0.1160268 0.065664351 -1.3619097 16711680
-0.11480102 0.063524082 -1.3642697 16711680
-0.1142662 0.083576299 -1.354404 16711680
-0.11382709 0.079377644 -1.3539021 16711680
-0.11372228 0.07431002 -1.3550391 16711680
-0.11285917 0.069587789 -1.3572011 16711680
-0.1112745 0.065662332 -1.3601258 16711680
-0.11049699 0.063328862 -1.3635854 16711680
-0.10934871 0.083906226 -1.3530529 16711680
-0.1100592 0.080736347 -1.3520925 16711680
-0.10706159 0.064637519 -1.3593988 16711680
-0.10558504 0.063597575 -1.3622912 16711680
-0.1046975 0.084326424 -1.3530297 16711680
-0.103648 0.082561575 -1.3514811 16711680
-0.1003484 0.065016419 -1.3594664 16711680
-0.10103968 0.064743713 -1.3619068 16711680
-0.10123477 0.084552169 -1.3539431 16711680
-0.098705903 0.082593992 -1.3531051 16711680
-0.095919378 0.06765499 -1.3598868 16711680
-0.097938046 0.066247307 -1.3622258 16711680
-0.095784247 0.081184074 -1.3544868 16711680
-0.094353065 0.078127258 -1.3551304 16711680
-0.093432024 0.073178455 -1.3573718 16711680
-0.09375523 0.070465155 -1.3593321 16711680
-0.17597947 0.067506589 -1.3555933 16711680
-0.17588723 0.063238315 -1.356536 16711680
-0.17505069 0.058837175 -1.3584943 16711680
-0.1737463 0.05549648 -1.3610491 16711680
-0.17300025 0.07229469 -1.3524187 16711680
-0.17448798 0.068302803 -1.3531508 16711680
-0.17458211 0.063336298 -1.3538154 16711680
-0.17344034 0.057191469 -1.3566031 16711680
-0.17175867 0.053670738 -1.3597679 16711680
-0.16907319 0.051149838 -1.3620306 16711680
-0.16793305 0.07649938 -1.3506604 16711680
-0.17012362 0.074674182 -1.3506999 16711680
-0.16538222 0.049278554 -1.3622117 16711680
-0.16300395 0.048824165 -1.3632057 16711680
-0.16471282 0.077458896 -1.3497639 16711680
-0.15936062 0.048482206 -1.3628156 16711680
-0.15957393 0.078133754 -1.3495814 16711680
-0.15421624 0.049513184 -1.362535 16711680
-0.15617508 0.078178644 -1.3502834 16711680
-0.15389512 0.077138349 -1.3498501 16711680
-0.149221 0.052026011 -1.3612318 16711680
-0.1511651 0.050968092 -1.3625525 16711680
-0.14933895 0.075848296 -1.3509607 16711680
-0.14689371 0.073386893 -1.3505352 16711680
-0.14391305 0.05684723 -1.3579799 16711680
-0.14544207 0.055007212 -1.3604146 16711680
-0.14552656 0.075985692 -1.3529671 16711680
-0.14365886 0.07275936 -1.3524568 16711680
-0.14124416 0.068498306 -1.3530127 16711680
-0.14029245 0.063467361 -1.3553196 16711680
-0.14122304 0.059695955 -1.3583777 16711680
-0.14238437 0.057303332 -1.3612998 16711680
-0.1399816 0.072591685 -1.3545722 16711680
-0.13864806 0.069283836 -1.3552035 16711680
-0.13785808 0.065293171 -1.3570732 16711680
-0.1381042 0.06246002 -1.3591571 16711680
-0.11131914 0.077287853 -1.35267 16711680
-0.11123963 0.07372734 -1.3538127 16711680
-0.11051902 0.069826044 -1.3555853 16711680
-0.10935803 0.066805825 -1.3574136 16711680
-0.10828754 0.078272685 -1.3502821 16711680
-0.10866533 0.073575713 -1.3513734 16711680
-0.1077723 0.068908334 -1.3534606 16711680
-0.10594656 0.065408602 -1.3561015 16711680
-0.1040687 0.079750799 -1.3490521 16711680
-0.10124516 0.06482593 -1.3557884 16711680
-0.098974079 0.079397269 -1.3495266 16711680
-0.096360907 0.07671684 -1.3488321 16711680
-0.09488523 0.068960808 -1.3521698 16711680
-0.096590757 0.066958681 -1.3551313 16711680
-0.0959507 0.078857094 -1.3512384 16711680
-0.094914243 0.075737946 -1.351144 16711680
-0.094134368 0.071555912 -1.3530403 16711680
-0.094203353 0.069383353 -1.355521 16711680
-0.17421508 0.060401969 -1.3544834 16711680
-0.17401712 0.059347343 -1.3550481 16711680
-0.17225882 0.069866851 -1.3474491 16711680
-0.17367372 0.065989092 -1.3494297 16711680
-0.17399865 0.061590165 -1.3514011 16711680
-0.17308034 0.056649804 -1.3536502 16711680
-0.17119205 0.052621629 -1.3554829 16711680
-0.1684088 0.049200401 -1.3568001 16711680
-0.1682959 0.074264683 -1.3450643 16711680
-0.17019388 0.072701998 -1.3467407 16711680
-0.16554713 0.047611628 -1.3581359 16711680
-0.16293514 0.045861438 -1.3578206 16711680
-0.1647009 0.076082408 -1.344712 16711680
-0.15903544 0.045674022 -1.3585055 16711680
-0.1594934 0.076688394 -1.344553 16711680
-0.15391712 0.046742607 -1.3581272 16711680
-0.15569247 0.076004647 -1.3440807 16711680
-0.15340997 0.075320363 -1.3457061 16711680
-0.14882161 0.050259806 -1.357163 16711680
-0.15044881 0.048057735 -1.3568562 16711680
-0.14945325 0.073503397 -1.3455976 16711680
-0.14694598 0.071964614 -1.3475951 16711680
-0.14390293 0.055636309 -1.3550004 16711680
-0.14556757 0.052470338 -1.35516 16711680
-0.14605336 0.071842641 -1.3443457 16711680
-0.14411074 0.069865786 -1.3471394 16711680
-0.14162201 0.066655137 -1.3492455 16711680
-0.14072259 0.061754473 -1.3515763 16711680
-0.14185129 0.057399981 -1.3528376 16711680
-0.14262769 0.053552695 -1.3525776 16711680
-0.13968563 0.064709291 -1.347572 16711680
-0.13923004 0.06222536 -1.3487 16711680
-0.10625207 0.075645998 -1.3475437 16711680
-0.10618813 0.072226107 -1.3480771 16711680
-0.10541352 0.06808611 -1.3499422 16711680
-0.10439734 0.06560199 -1.3521132 16711680
-0.10358003 0.076097511 -1.3463016 16711680
-0.10374565 0.072359025 -1.3454038 16711680
-0.10280806 0.066863909 -1.3479207 16711680
-0.1015489 0.065198347 -1.351216 16711680
-0.099777393 0.076371334 -1.3464286 16711680
-0.097737841 0.073430307 -1.3461908 16711680
-0.096818388 0.068502419 -1.348418 16711680
-0.097837418 0.066283084 -1.3511035 16711680
-0.095398419 0.07361009 -1.3488164 16711680
-0.094916463 0.071035475 -1.3499829 16711680
-0.17610043 0.065732092 -1.341947 16711680
-0.17626549 0.062752001 -1.3441517 16711680
-0.17594796 0.058669686 -1.3466816 16711680
-0.17514527 0.054392923 -1.348627 16711680
-0.17389387 0.050012983 -1.349943 16711680
-0.17272706 0.046622466 -1.3504797 16711680
-0.17268372 0.071042202 -1.3399309 16711680
-0.17376411 0.068668835 -1.3426247 16711680
-0.17465539 0.064783536 -1.3456343 16711680
-0.17442948 0.060414053 -1.3486835 16711680
-0.17345208 0.05521195 -1.3510494 16711680
-0.1719192 0.050351977 -1.3522716 16711680
-0.16953054 0.045962058 -1.352922 16711680
-0.16741922 0.042853016 -1.3527125 16711680
-0.16951893 0.073498465 -1.3404059 16711680
-0.17114708 0.07167159 -1.3435457 16711680
-0.16622758 0.045583375 -1.3554187 16711680
-0.16368529 0.042633519 -1.3544014 16711680
-0.16443382 0.076095536 -1.3368722 16711680
-0.16499192 0.075849213 -1.3397096 16711680
-0.1586801 0.042095326 -1.3550483 16711680
-0.1573555 0.040074751 -1.3532777 16711680
-0.16073097 0.076685861 -1.3366371 16711680
-0.1599112 0.076603055 -1.3394917 16711680
-0.15364203 0.042976372 -1.3547413 16711680
-0.15395857 0.040605187 -1.3530034 16711680
-0.15472229 0.076063305 -1.3394928 16711680
-0.15219153 0.074990004 -1.3424765 16711680
-0.1472661 0.048419133 -1.3544958 16711680
-0.14894946 0.044791557 -1.3536209 16711680
-0.15026221 0.075174004 -1.3387425 16711680
-0.14849898 0.073828995 -1.3415045 16711680
-0.14400005 0.049590319 -1.3525229 16711680
-0.14487918 0.046197645 -1.3518895 16711680
-0.14676569 0.074338458 -1.3377651 16711680
-0.14450324 0.072433025 -1.3404993 16711680
-0.14248671 0.069983661 -1.3435363 16711680
-0.14035185 0.066605248 -1.3463775 16711680
-0.13914776 0.060012989 -1.3493949 16711680
-0.1397209 0.055263467 -1.350219 16711680
-0.14049083 0.050896212 -1.3502669 16711680
-0.14170001 0.047036394 -1.3501486 16711680
-0.1408897 0.070938297 -1.3395718 16711680
-0.13923863 0.068473041 -1.3419138 16711680
-0.13759662 0.064933524 -1.3444793 16711680
-0.13676792 0.060496669 -1.3464956 16711680
-0.13695052 0.056016289 -1.3476411 16711680
-0.13739127 0.052211586 -1.3480576 16711680
-0.1345924 0.062086932 -1.3431728 16711680
-0.10194597 0.07057789 -1.3447169 16711680
-0.10128456 0.067794785 -1.3459557 16711680
-0.09960714 0.070746593 -1.3447207 16711680
-0.099187016 0.068515152 -1.3457341 16711680
-0.18429074 0.054045551 -1.3410859 16711680
-0.18374358 0.051066592 -1.3424582 16711680
-0.18122448 0.062692165 -1.3376777 16711680
-0.18198578 0.059687607 -1.3396906 16711680
-0.18158332 0.05572062 -1.3421863 16711680
-0.18076913 0.051164418 -1.3442245 16711680
-0.17952421 0.046840325 -1.3455508 16711680
-0.17767537 0.043764636 -1.3462735 16711680
-0.17690824 0.067906924 -1.3357571 16711680
-0.17822441 0.065482974 -1.3383077 16711680
-0.17878339 0.061704531 -1.3414391 16711680
-0.17845619 0.057484869 -1.3440179 16711680
-0.1775645 0.052434362 -1.3462613 16711680
-0.1762083 0.047861125 -1.3477147 16711680
-0.17410287 0.043371193 -1.3483003 16711680
-0.17178157 0.040466674 -1.3482147 16711680
-0.17418619 0.070474423 -1.336153 16711680
-0.17567581 0.068193637 -1.3390492 16711680
-0.17092603 0.04323104 -1.3505841 16711680
-0.16851741 0.04002846 -1.3499938 16711680
-0.16915213 0.074287273 -1.3336564 16711680
-0.17054844 0.073365152 -1.335887 16711680
-0.16412699 0.039130624 -1.3514296 16711680
-0.16227487 0.037361406 -1.350414 16711680
-0.16525874 0.07581532 -1.3338566 16711680
-0.16661267 0.075397879 -1.336728 16711680
-0.15998968 0.039661508 -1.3529097 16711680
-0.15816094 0.037707653 -1.3511024 16711680
-0.16035256 0.07672596 -1.3335289 16711680
-0.15809609 0.076803707 -1.3362293 16711680
-0.15135381 0.041036688 -1.3524489 16711680
-0.15318808 0.038409859 -1.3509022 16711680
-0.15561359 0.076860823 -1.3329742 16711680
-0.15436698 0.076593719 -1.3354473 16711680
-0.14795552 0.041660756 -1.3513045 16711680
-0.14861944 0.039297558 -1.3499521 16711680
-0.15190418 0.076578274 -1.3320193 16711680
-0.14976351 0.07589674 -1.3345901 16711680
-0.14361517 0.042790342 -1.349519 16711680
-0.14502369 0.039935965 -1.3486055 16711680
-0.1452911 0.07454966 -1.3341799 16711680
-0.14321397 0.073082812 -1.3368497 16711680
-0.1385943 0.048232339 -1.3481408 16711680
-0.13968942 0.044753347 -1.3476634 16711680
-0.14180262 0.073174231 -1.3329697 16711680
-0.13970926 0.071264386 -1.3358244 16711680
-0.13724989 0.068483815 -1.3383509 16711680
-0.13533595 0.064511865 -1.3415883 16711680
-0.1343523 0.059306365 -1.3439327 16711680
-0.13452558 0.053970851 -1.3449391 16711680
-0.13570344 0.049659859 -1.3456657 16711680
-0.13671856 0.045740049 -1.3454353 16711680
-0.13494122 0.06668359 -1.3371248 16711680
-0.13357356 0.063281558 -1.3395442 16711680
-0.13280472 0.059113301 -1.3414576 16711680
-0.13274993 0.054827221 -1.3425331 16711680
-0.19087113 0.055597182 -1.3361564 16711680
-0.19163546 0.051991347 -1.3382583 16711680
-0.19080691 0.047670454 -1.3402442 16711680
-0.18871802 0.044096462 -1.3413824 16711680
-0.18680081 0.060159136 -1.3340259 16711680
-0.18754753 0.057839639 -1.3366264 16711680
-0.18693575 0.053621992 -1.3397826 16711680
-0.18610485 0.049119227 -1.3418199 16711680
-0.18503585 0.044003639 -1.3428617 16711680
-0.18321645 0.040968683 -1.3427328 16711680
-0.18300575 0.062198743 -1.3341905 16711680
-0.18417914 0.059705786 -1.3376529 16711680
-0.18445474 0.056038253 -1.3400759 16711680
-0.18307631 0.048536286 -1.3434534 16711680
-0.18136241 0.044681542 -1.3444748 16711680
-0.17911009 0.040981263 -1.3438056 16711680
-0.17771584 0.066714808 -1.3323996 16711680
-0.17994127 0.064815514 -1.3336805 16711680
-0.17524612 0.039840005 -1.3449228 16711680
-0.17246205 0.03846962 -1.3451566 16711680
-0.17464301 0.069357455 -1.3313811 16711680
-0.16866146 0.037118703 -1.3461332 16711680
-0.17006855 0.073093414 -1.329725 16711680
-0.17231683 0.071566217 -1.3305389 16711680
-0.16562738 0.035781346 -1.3467374 16711680
-0.16296189 0.034927472 -1.3470286 16711680
-0.1654323 0.075139947 -1.3288614 16711680
-0.15786876 0.034415998 -1.3472866 16711680
-0.1605694 0.076093949 -1.32837 16711680
-0.15290253 0.034952804 -1.3470192 16711680
-0.15560611 0.076419607 -1.3284172 16711680
-0.14807713 0.036278836 -1.3465856 16711680
-0.15072706 0.07603889 -1.3284143 16711680
-0.14840998 0.075900726 -1.3305852 16711680
-0.14180647 0.040330123 -1.3467058 16711680
-0.14357962 0.037971016 -1.3456093 16711680
-0.14710185 0.075137392 -1.327492 16711680
-0.14471528 0.074478 -1.3295099 16711680
-0.13859801 0.041554525 -1.3444723 16711680
-0.14046381 0.038898136 -1.3439391 16711680
-0.14096174 0.072660565 -1.3295604 16711680
-0.13838476 0.07085792 -1.3314056 16711680
-0.13630119 0.068858363 -1.3345119 16711680
-0.13300566 0.051185813 -1.3425356 16711680
-0.13398032 0.047011532 -1.3422296 16711680
-0.13557994 0.043875441 -1.3426661 16711680
-0.13581184 0.068750933 -1.3311653 16711680
-0.13381094 0.066236436 -1.3331859 16711680
-0.13144122 0.061847959 -1.3351008 16711680
-0.130602 0.057356656 -1.3371288 16711680
-0.13125737 0.05268383 -1.3394026 16711680
-0.13211223 0.048963957 -1.3401515 16711680
-0.19074242 0.056933738 -1.3291633 16711680
-0.19078444 0.054902099 -1.3334985 16711680
-0.19085336 0.051013999 -1.3360695 16711680
-0.19005778 0.046882749 -1.3379329 16711680
-0.18849078 0.042625956 -1.3390555 16711680
-0.18726762 0.03821009 -1.3376538 16711680
-0.18789187 0.059687681 -1.3301281 16711680
-0.18746577 0.05570031 -1.3323131 16711680
-0.18639696 0.05128089 -1.3339835 16711680
-0.18550706 0.046493266 -1.3361561 16711680
-0.18495578 0.042244978 -1.3384168 16711680
-0.18386701 0.038075488 -1.3399291 16711680
-0.18285733 0.063631229 -1.3282024 16711680
-0.18410793 0.061900381 -1.3303097 16711680
-0.18457761 0.057430368 -1.332988 16711680
-0.18180975 0.042556919 -1.3397541 16711680
-0.17965817 0.037988286 -1.3411553 16711680
-0.17761751 0.035814032 -1.3409359 16711680
-0.17929544 0.065325983 -1.3277999 16711680
-0.1801832 0.063659072 -1.3310125 16711680
-0.17551322 0.038594462 -1.342375 16711680
-0.17364405 0.03543504 -1.3412755 16711680
-0.17458785 0.067524962 -1.3269517 16711680
-0.16842268 0.035000764 -1.3417912 16711680
-0.16978501 0.07108786 -1.3253064 16711680
-0.17173626 0.068995595 -1.3253936 16711680
-0.16529179 0.033808772 -1.3412257 16711680
-0.16268422 0.033007078 -1.34255 16711680
-0.16538413 0.073089823 -1.3243474 16711680
-0.15779202 0.032409236 -1.3427998 16711680
-0.16061835 0.074101746 -1.3237766 16711680
-0.15290731 0.032815587 -1.3425231 16711680
-0.15584342 0.074687079 -1.3237923 16711680
-0.14822681 0.033896212 -1.34229 16711680
-0.15040365 0.074443288 -1.3237602 16711680
-0.14320987 0.035631418 -1.3413438 16711680
-0.14690463 0.073854998 -1.3240591 16711680
-0.14433637 0.073160961 -1.3245071 16711680
-0.1379208 0.038822062 -1.3400923 16711680
-0.14008406 0.037280962 -1.3406308 16711680
-0.14056222 0.071354643 -1.3251729 16711680
-0.13762061 0.06952174 -1.3262469 16711680
-0.13297147 0.044304151 -1.3377672 16711680
-0.13499935 0.041542843 -1.3386995 16711680
-0.13537352 0.06755545 -1.3267789 16711680
-0.13244605 0.064250551 -1.3285819 16711680
-0.13040215 0.060580954 -1.3306795 16711680
-0.12940079 0.055219129 -1.3331058 16711680
-0.12994482 0.050770834 -1.3346403 16711680
-0.13146734 0.046595827 -1.3362864 16711680
-0.12972069 0.05883757 -1.3301667 16711680
-0.12921257 0.056126952 -1.331396 16711680
-0.19089654 0.056063473 -1.3275391 16711680
-0.19156566 0.052925967 -1.3276341 16711680
-0.19097011 0.047995668 -1.3288385 16711680
-0.19004905 0.043364719 -1.3309929 16711680
-0.18901303 0.039240718 -1.333765 16711680
-0.18743715 0.037501395 -1.3359556 16711680
-0.18815182 0.057285029 -1.3266722 16711680
-0.18810737 0.053861719 -1.3265353 16711680
-0.1879508 0.049316369 -1.3309212 16711680
-0.18713939 0.044932436 -1.3329152 16711680
-0.1852392 0.039027877 -1.3332567 16711680
-0.18434319 0.036946408 -1.3358831 16711680
-0.18178414 0.062482338 -1.3260036 16711680
-0.18331081 0.058887396 -1.3257453 16711680
-0.18285501 0.054689139 -1.3250655 16711680
-0.17998734 0.038921285 -1.3322492 16711680
-0.17916681 0.036701679 -1.3358549 16711680
-0.17706133 0.03526365 -1.3384547 16711680
-0.17872584 0.063419729 -1.3246001 16711680
-0.1786287 0.059310611 -1.3241568 16711680
-0.17914873 0.055731863 -1.3242568 16711680
-0.17595892 0.038817838 -1.3319339 16711680
-0.17450006 0.036692671 -1.3344789 16711680
-0.17325611 0.034497067 -1.3376602 16711680
-0.17416817 0.064447999 -1.3227702 16711680
-0.17544323 0.060887717 -1.3225074 16711680
-0.17071371 0.035522737 -1.3340167 16711680
-0.16852555 0.033906125 -1.3366331 16711680
-0.16881391 0.068849206 -1.321489 16711680
-0.17047043 0.066623732 -1.3210776 16711680
-0.16411747 0.032457888 -1.3365837 16711680
-0.16191652 0.031883828 -1.3382577 16711680
-0.16525403 0.06997405 -1.3202612 16711680
-0.16733344 0.067162067 -1.3188171 16711680
-0.16050258 0.031378239 -1.3350474 16711680
-0.15809968 0.03137137 -1.3377875 16711680
-0.16046321 0.071173698 -1.3197217 16711680
-0.15303357 0.031683907 -1.3376129 16711680
-0.15532036 0.071877927 -1.3194838 16711680
-0.14807172 0.032615934 -1.3373718 16711680
-0.15050288 0.071828626 -1.3194628 16711680
-0.14808667 0.070238426 -1.3178424 16711680
-0.14125328 0.034738302 -1.3344238 16711680
-0.14346889 0.034085654 -1.3365933 16711680
-0.14714347 0.07195387 -1.3204243 16711680
-0.14468217 0.070637092 -1.3198527 16711680
-0.13840403 0.03683649 -1.3351979 16711680
-0.14038861 0.035724476 -1.3368797 16711680
-0.14056176 0.069119886 -1.3208956 16711680
-0.13781236 0.06724593 -1.3212309 16711680
-0.13311115 0.041972611 -1.3326081 16711680
-0.13513756 0.039733779 -1.3342566 16711680
-0.13528492 0.065450937 -1.3225155 16711680
-0.13232034 0.062128492 -1.3237507 16711680
-0.13036048 0.059035469 -1.3250021 16711680
-0.12904574 0.051976819 -1.3283527 16711680
-0.12981635 0.048596978 -1.3300169 16711680
-0.13146237 0.044763133 -1.3320074 16711680
-0.12965199 0.057449527 -1.3262082 16711680
-0.12902445 0.054095 -1.3277432 16711680
-0.19150054 0.050465677 -1.324863 16711680
-0.19166178 0.046050463 -1.325599 16711680
-0.19094969 0.041999385 -1.3274236 16711680
-0.18932879 0.038795799 -1.3301479 16711680
-0.18759432 0.051271372 -1.3248549 16711680
-0.18685952 0.047231063 -1.3254884 16711680
-0.18598835 0.042617854 -1.3275834 16711680
-0.18537539 0.039473481 -1.3302083 16711680
-0.18232398 0.05196749 -1.3247499 16711680
-0.18163335 0.04800541 -1.3252026 16711680
-0.1808091 0.043528792 -1.327232 16711680
-0.18013504 0.040574022 -1.329892 16711680
-0.17624322 0.057158791 -1.3219249 16711680
-0.17712821 0.053271849 -1.3230776 16711680
-0.17669271 0.048321009 -1.3236607 16711680
-0.1758182 0.043675601 -1.3257651 16711680
-0.17461973 0.040095933 -1.3290429 16711680
-0.17247841 0.037142817 -1.3307979 16711680
-0.17251261 0.061813354 -1.3196875 16711680
-0.1740866 0.058507621 -1.3194759 16711680
-0.1747587 0.053036388 -1.3205544 16711680
-0.17439321 0.048928868 -1.321661 16711680
-0.17332578 0.042951323 -1.3243247 16711680
-0.17213641 0.039118294 -1.3268248 16711680
-0.16971341 0.035142533 -1.3300724 16711680
-0.16729023 0.033777658 -1.33253 16711680
-0.16940555 0.063441709 -1.3176423 16711680
-0.17089775 0.060033053 -1.3170694 16711680
-0.16597168 0.033414125 -1.3292118 16711680
-0.16360414 0.032216478 -1.331773 16711680
-0.16428515 0.067540348 -1.3170621 16711680
-0.16546987 0.065482654 -1.3159213 16711680
-0.15900224 0.03087841 -1.3315457 16711680
-0.15745561 0.030825537 -1.3338379 16711680
-0.16009696 0.068113625 -1.3159611 16711680
-0.16034926 0.066306859 -1.3142211 16711680
-0.15371321 0.030672945 -1.3303684 16711680
-0.15321134 0.030912407 -1.332865 16711680
-0.15537685 0.068910524 -1.3158582 16711680
-0.15465699 0.067246534 -1.3140802 16711680
-0.14777152 0.031789131 -1.3303469 16711680
-0.14842634 0.031780601 -1.3327459 16711680
-0.15120602 0.069528207 -1.3164877 16711680
-0.14962444 0.067923896 -1.3151064 16711680
-0.1432375 0.033542953 -1.3307614 16711680
-0.14441524 0.033102892 -1.3329904 16711680
-0.14466237 0.067303926 -1.3160887 16711680
-0.14209799 0.064467311 -1.3148212 16711680
-0.13718221 0.037683651 -1.3268574 16711680
-0.13889533 0.036113806 -1.3302765 16711680
-0.14122285 0.066590518 -1.3172321 16711680
-0.1385904 0.064108498 -1.3171107 16711680
-0.13629454 0.060640257 -1.3165534 16711680
-0.13299395 0.043086514 -1.3245864 16711680
-0.13415113 0.040749565 -1.3277583 16711680
-0.1359784 0.038447272 -1.3298919 16711680
-0.13578045 0.063021146 -1.318913 16711680
-0.13346414 0.060006119 -1.3194312 16711680
-0.13095564 0.055747285 -1.3209611 16711680
-0.13004211 0.050870754 -1.32322 16711680
-0.13093629 0.046397991 -1.325595 16711680
-0.13211216 0.043561772 -1.327672 16711680
-0.12968889 0.055408552 -1.3236594 16711680
-0.12935668 0.053720083 -1.3242438 16711680
-0.17410269 0.046411362 -1.3225442 16711680
-0.17380559 0.044745531 -1.3233204 16711680
-0.17205076 0.056204967 -1.316699 16711680
-0.17244026 0.051798679 -1.3176309 16711680
-0.17242897 0.047134891 -1.3192931 16711680
-0.17159981 0.042534545 -1.3214179 16711680
-0.16994382 0.038443483 -1.3236616 16711680
-0.16816634 0.035167444 -1.3262756 16711680
-0.16809268 0.060833152 -1.3151693 16711680
-0.1690508 0.057153046 -1.3146358 16711680
-0.16993478 0.052720234 -1.3148534 16711680
-0.16693826 0.036593072 -1.3221681 16711680
-0.16469455 0.033962075 -1.3251117 16711680
-0.16275077 0.032400914 -1.3279648 16711680
-0.16422802 0.061905127 -1.3132874 16711680
-0.16502163 0.058418136 -1.3124623 16711680
-0.1602754 0.032824054 -1.3240608 16711680
-0.15860099 0.031507231 -1.3271327 16711680
-0.15976827 0.063286014 -1.3121427 16711680
-0.15380886 0.031186894 -1.326668 16711680
-0.15466589 0.064212285 -1.3117981 16711680
-0.14867222 0.031886511 -1.3264478 16711680
-0.14975774 0.064102896 -1.3119987 16711680
-0.14784247 0.061547514 -1.3108826 16711680
-0.14254375 0.035230629 -1.3225918 16711680
-0.14405914 0.033583857 -1.3258446 16711680
-0.14534299 0.064197846 -1.3131843 16711680
-0.14354575 0.061416369 -1.3123647 16711680
-0.14108656 0.057859249 -1.3121433 16711680
-0.13912158 0.037353177 -1.3231771 16711680
-0.1400387 0.035734478 -1.3260167 16711680
-0.13972752 0.060991872 -1.3141651 16711680
-0.13743967 0.057213508 -1.314262 16711680
-0.13556734 0.052796621 -1.3150123 16711680
-0.13448064 0.04697622 -1.3176575 16711680
-0.13483977 0.043075226 -1.3207023 16711680
-0.13593319 0.03998699 -1.3236361 16711680
-0.13479835 0.057334613 -1.3164208 16711680
-0.13320661 0.053338155 -1.317322 16711680
-0.13241474 0.048992589 -1.3192858 16711680
-0.13259393 0.045389928 -1.321865 16711680
-0.17023796 0.049483009 -1.3154832 16711680
-0.17004919 0.046020873 -1.3164566 16711680
-0.1692708 0.041740432 -1.3184474 16711680
-0.16823202 0.038898654 -1.3202544 16711680
-0.16696732 0.054550573 -1.3127663 16711680
-0.16754274 0.050445147 -1.3129374 16711680
-0.16814648 0.045836773 -1.3140035 16711680
-0.16718937 0.040664211 -1.3163774 16711680
-0.16508958 0.037279725 -1.3189088 16711680
-0.16327804 0.034816131 -1.3217106 16711680
-0.16187882 0.059345681 -1.3112483 16711680
-0.16333629 0.055780787 -1.3112156 16711680
-0.16351824 0.051771719 -1.3105499 16711680
-0.1605677 0.035931204 -1.3177506 16711680
-0.15928495 0.034025151 -1.3210812 16711680
-0.15678908 0.032294817 -1.3235096 16711680
-0.1586028 0.060156979 -1.3104483 16711680
-0.15883501 0.056367688 -1.3097301 16711680
-0.15828952 0.053025097 -1.308951 16711680
-0.15543906 0.035603158 -1.3168193 16711680
-0.15456916 0.033905581 -1.3199406 16711680
-0.1533915 0.032197334 -1.3231446 16711680
-0.15436265 0.060828343 -1.3099941 16711680
-0.15379827 0.057091095 -1.3090236 16711680
-0.15281056 0.053604178 -1.3086571 16711680
-0.14960706 0.036669053 -1.3163384 16711680
-0.14953391 0.03449887 -1.3192713 16711680
-0.14914916 0.032730475 -1.322734 16711680
-0.15043038 0.06123111 -1.3102491 16711680
-0.1489505 0.0581965 -1.3096942 16711680
-0.14771198 0.053483762 -1.309446 16711680
-0.14526005 0.049905073 -1.3103054 16711680
-0.14408907 0.042119212 -1.3137959 16711680
-0.14494909 0.038841724 -1.3160955 16711680
-0.144777 0.035754744 -1.3198656 16711680
-0.14535818 0.033854701 -1.3226345 16711680
-0.14449251 0.058131754 -1.310835 16711680
-0.14315744 0.054372996 -1.310894 16711680
-0.14203143 0.049341395 -1.311727 16711680
-0.14108333 0.044771355 -1.3138504 16711680
-0.14056675 0.040762812 -1.3170795 16711680
-0.14075652 0.037833877 -1.3201462 16711680
-0.1392899 0.054853491 -1.3126529 16711680
-0.13767913 0.050864115 -1.3137661 16711680
-0.13690947 0.046632905 -1.31566 16711680
-0.13705893 0.04286566 -1.3180875 16711680
-0.16571005 0.047599275 -1.3102827 16711680
-0.16612302 0.044353433 -1.3110052 16711680
-0.16531472 0.040026907 -1.3129667 16711680
-0.16385674 0.037631303 -1.3148223 16711680
-0.16255015 0.048879366 -1.3090519 16711680
-0.16217086 0.044494573 -1.3090332 16711680
-0.16128589 0.039662708 -1.3112314 16711680
-0.16029206 0.036893643 -1.3145095 16711680
-0.1577794 0.050220635 -1.308458 16711680
-0.15705718 0.045398492 -1.3085105 16711680
-0.1560965 0.040292144 -1.3108271 16711680
-0.15530558 0.03708544 -1.3144155 16711680
-0.15300132 0.050905652 -1.3086269 16711680
-0.15212014 0.046283163 -1.3091878 16711680
-0.15115896 0.041758586 -1.3112714 16711680
-0.15061706 0.038176466 -1.3144327 16711680
-0.14885928 0.051083133 -1.3092368 16711680
-0.14728616 0.047631502 -1.3101743 16711680
-0.14651211 0.043119848 -1.3121871 16711680
-0.1468664 0.039759543 -1.3143425 16711680
-0.14441258 0.047873251 -1.3110337 16711680
-0.14377931 0.044434205 -1.3125882 16711680
-0.39905199 -0.10486 -1.4991601 65280
-0.39614001 -0.10486 -1.4991601 65280
-0.39322701 -0.10486 -1.4991601 65280
-0.39031401 -0.10486 -1.4991601 65280
-0.38740101 -0.10486 -1.4991601 65280
-0.38448799 -0.10486 -1.4991601 65280
-0.381576 -0.10486 -1.4991601 65280
-0.378663 -0.10486 -1.4991601 65280
-0.37575001 -0.10486 -1.4991601 65280
-0.37283701 -0.10486 -1.4991601 65280
-0.36992401 -0.10486 -1.4991601 65280
-0.36701199 -0.10486 -1.4991601 65280
-0.364099 -0.10486 -1.4991601 65280
-0.361186 -0.10486 -1.4991601 65280
-0.358273 -0.10486 -1.4991601 65280
-0.35536101 -0.10486 -1.4991601 65280
-0.35244799 -0.10486 -1.4991601 65280
-0.34953499 -0.10486 -1.4991601 65280
-0.34662199 -0.10486 -1.4991601 65280
-0.34370899 -0.10486 -1.4991601 65280
-0.34079701 -0.10486 -1.4991601 65280
-0.33788401 -0.10486 -1.4991601 65280
-0.33497101 -0.10486 -1.4991601 65280
-0.33205801 -0.10486 -1.4991601 65280
-0.32914501 -0.10486 -1.4991601 65280
-0.326233 -0.10486 -1.4991601 65280
-0.32332 -0.10486 -1.4991601 65280
-0.320407 -0.10486 -1.4991601 65280
-0.317494 -0.10486 -1.4991601 65280
-0.31458101 -0.10486 -1.4991601 65280
-0.31166899 -0.10486 -1.4991601 65280
-0.30875599 -0.10486 -1.4991601 65280
-0.305843 -0.10486 -1.4991601 65280
-0.30293 -0.10486 -1.4991601 65280
-0.300017 -0.10486 -1.4991601 65280
-0.29710501 -0.10486 -1.4991601 65280
-0.29419199 -0.10486 -1.4991601 65280
-0.29127899 -0.10486 -1.4991601 65280
-0.28836599 -0.10486 -1.4991601 65280
-0.28545299 -0.10486 -1.4991601 65280
-0.28254101 -0.10486 -1.4991601 65280
-0.27962801 -0.10486 -1.4991601 65280
-0.27671501 -0.10486 -1.4991601 65280
-0.27380201 -0.10486 -1.4991601 65280
-0.27089 -0.10486 -1.4991601 65280
-0.267977 -0.10486 -1.4991601 65280
-0.265064 -0.10486 -1.4991601 65280
-0.262151 -0.10486 -1.4991601 65280
-0.259238 -0.10486 -1.4991601 65280
-0.25632599 -0.10486 -1.4991601 65280
-0.25341299 -0.10486 -1.4991601 65280
-0.25049999 -0.10486 -1.4991601 65280
-0.247587 -0.10486 -1.4991601 65280
-0.244674 -0.10486 -1.4991601 65280
-0.241762 -0.10486 -1.4991601 65280
-0.238849 -0.10486 -1.4991601 65280
-0.235936 -0.10486 -1.4991601 65280
-0.233023 -0.10486 -1.4991601 65280
-0.23011 -0.10486 -1.4991601 65280
-0.227198 -0.10486 -1.4991601 65280
-0.22428501 -0.10486 -1.4991601 65280
-0.22137199 -0.10486 -1.4991601 65280
-0.218459 -0.10486 -1.4991601 65280
-0.215547 -0.10486 -1.4991601 65280
-0.212634 -0.10486 -1.4991601 65280
-0.209721 -0.10486 -1.4991601 65280
-0.206808 -0.10486 -1.4991601 65280
-0.203895 -0.10486 -1.4991601 65280
-0.200983 -0.10486 -1.4991601 65280
-0.19807 -0.10486 -1.4991601 65280
-0.19515701 -0.10486 -1.4991601 65280
-0.19224399 -0.10486 -1.4991601 65280
-0.189331 -0.10486 -1.4991601 65280
-0.186419 -0.10486 -1.4991601 65280
-0.183506 -0.10486 -1.4991601 65280
-0.180593 -0.10486 -1.4991601 65280
-0.17768 -0.10486 -1.4991601 65280
-0.174767 -0.10486 -1.4991601 65280
-0.171855 -0.10486 -1.4991601 65280
-0.168942 -0.10486 -1.4991601 65280
-0.16602901 -0.10486 -1.4991601 65280
-0.16311599 -0.10486 -1.4991601 65280
-0.16020399 -0.10486 -1.4991601 65280
-0.157291 -0.10486 -1.4991601 65280
-0.154378 -0.10486 -1.4991601 65280
-0.151465 -0.10486 -1.4991601 65280
-0.148552 -0.10486 -1.4991601 65280
-0.14564 -0.10486 -1.4991601 65280
-0.142727 -0.10486 -1.4991601 65280
-0.139814 -0.10486 -1.4991601 65280
-0.13690101 -0.10486 -1.4991601 65280
-0.13398799 -0.10486 -1.4991601 65280
-0.13107599 -0.10486 -1.4991601 65280
-0.12816299 -0.10486 -1.4991601 65280
-0.12525 -0.10486 -1.4991601 65280
-0.122337 -0.10486 -1.4991601 65280
-0.119424 -0.10486 -1.4991601 65280
-0.116512 -0.10486 -1.4991601 65280
-0.113599 -0.10486 -1.4991601 65280
-0.110686 -0.10486 -1.4991601 65280
-0.107773 -0.10486 -1.4991601 65280
-0.10486 -0.10486 -1.4991601 65280
-0.101948 -0.10486 -1.4991601 65280
-0.099034898 -0.10486 -1.4991601 65280
-0.096122101 -0.10486 -1.4991601 65280
-0.093209296 -0.10486 -1.4991601 65280
-0.090296499 -0.10486 -1.4991601 65280
-0.087383702 -0.10486 -1.4991601 65280
-0.084470898 -0.10486 -1.4991601 65280
-0.081558101 -0.10486 -1.4991601 65280
-0.078645401 -0.10486 -1.4991601 65280
-0.075732604 -0.10486 -1.4991601 65280
-0.072819799 -0.10486 -1.4991601 65280
-0.069907002 -0.10486 -1.4991601 65280
-0.066994198 -0.10486 -1.4991601 65280
-0.064081401 -0.10486 -1.4991601 65280
-0.0611686 -0.10486 -1.4991601 65280
-0.058255799 -0.10486 -1.4991601 65280
-0.055342998 -0.10486 -1.4991601 65280
-0.052430201 -0.10486 -1.4991601 65280
-0.049517401 -0.10486 -1.4991601 65280
-0.0466047 -0.10486 -1.4991601 65280
-0.0436919 -0.10486 -1.4991601 65280
-0.040779099 -0.10486 -1.4991601 65280
-0.037866302 -0.10486 -1.4991601 65280
-0.034953501 -0.10486 -1.4991601 65280
-0.0320407 -0.10486 -1.4991601 65280
-0.0291279 -0.10486 -1.4991601 65280
-0.026215101 -0.10486 -1.4991601 65280
-0.0233023 -0.10486 -1.4991601 65280
-0.020389499 -0.10486 -1.4991601 65280
-0.0174767 -0.10486 -1.4991601 65280
-0.014564 -0.10486 -1.4991601 65280
-0.0116512 -0.10486 -1.4991601 65280
-0.0087383697 -0.10486 -1.4991601 65280
-0.0058255801 -0.10486 -1.4991601 65280
-0.00291279 -0.10486 -1.4991601 65280
0 -0.10486 -1.4991601 65280
0.00291279 -0.10486 -1.4991601 65280
0.0058255801 -0.10486 -1.4991601 65280
0.0087383697 -0.10486 -1.4991601 65280
0.0116512 -0.10486 -1.4991601 65280
0.014564 -0.10486 -1.4991601 65280
0.0174767 -0.10486 -1.4991601 65280
0.020389499 -0.10486 -1.4991601 65280
0.0233023 -0.10486 -1.4991601 65280
0.026215101 -0.10486 -1.4991601 65280
0.0291279 -0.10486 -1.4991601 65280
0.0320407 -0.10486 -1.4991601 65280
0.034953501 -0.10486 -1.4991601 65280
0.037866302 -0.10486 -1.4991601 65280
0.040779099 -0.10486 -1.4991601 65280
0.0436919 -0.10486 -1.4991601 65280
0.0466047 -0.10486 -1.4991601 65280
0.049517401 -0.10486 -1.4991601 65280
0.052430201 -0.10486 -1.4991601 65280
0.055342998 -0.10486 -1.4991601 65280
0.058255799 -0.10486 -1.4991601 65280
0.0611686 -0.10486 -1.4991601 65280
0.064081401 -0.10486 -1.4991601 65280
0.066994198 -0.10486 -1.4991601 65280
0.069907002 -0.10486 -1.4991601 65280
0.072819799 -0.10486 -1.4991601 65280
0.075732604 -0.10486 -1.4991601 65280
0.078645401 -0.10486 -1.4991601 65280
0.081558101 -0.10486 -1.4991601 65280
0.084470898 -0.10486 -1.4991601 65280
0.087383702 -0.10486 -1.4991601 65280
0.090296499 -0.10486 -1.4991601 65280
0.093209296 -0.10486 -1.4991601 65280
0.096122101 -0.10486 -1.4991601 65280
0.099034898 -0.10486 -1.4991601 65280
0.101948 -0.10486 -1.4991601 65280
0.10486 -0.10486 -1.4991601 65280
0.107773 -0.10486 -1.4991601 65280
0.110686 -0.10486 -1.4991601 65280
0.113599 -0.10486 -1.4991601 65280
0.116512 -0.10486 -1.4991601 65280
0.119424 -0.10486 -1.4991601 65280
0.122337 -0.10486 -1.4991601 65280
0.12525 -0.10486 -1.4991601 65280
0.12816299 -0.10486 -1.4991601 65280
0.13107599 -0.10486 -1.4991601 65280
0.13398799 -0.10486 -1.4991601 65280
0.13690101 -0.10486 -1.4991601 65280
0.139814 -0.10486 -1.4991601 65280
0.142727 -0.10486 -1.4991601 65280
0.14564 -0.10486 -1.4991601 65280
0.148552 -0.10486 -1.4991601 65280
0.151465 -0.10486 -1.4991601 65280
0.154378 -0.10486 -1.4991601 65280
0.157291 -0.10486 -1.4991601 65280
0.16020399 -0.10486 -1.4991601 65280
0.16311599 -0.10486 -1.4991601 65280
0.16602901 -0.10486 -1.4991601 65280
0.168942 -0.10486 -1.4991601 65280
0.171855 -0.10486 -1.4991601 65280
0.174767 -0.10486 -1.4991601 65280
0.17768 -0.10486 -1.4991601 65280
0.180593 -0.10486 -1.4991601 65280
0.183506 -0.10486 -1.4991601 65280
0.186419 -0.10486 -1.4991601 65280
0.189331 -0.10486 -1.4991601 65280
0.19224399 -0.10486 -1.4991601 65280
0.19515701 -0.10486 -1.4991601 65280
0.19807 -0.10486 -1.4991601 65280
0.200983 -0.10486 -1.4991601 65280
0.203895 -0.10486 -1.4991601 65280
0.206808 -0.10486 -1.4991601 65280
0.209721 -0.10486 -1.4991601 65280
0.212634 -0.10486 -1.4991601 65280
0.215547 -0.10486 -1.4991601 65280
0.218459 -0.10486 -1.4991601 65280
0.22137199 -0.10486 -1.4991601 65280
0.22428501 -0.10486 -1.4991601 65280
0.227198 -0.10486 -1.4991601 65280
0.23011 -0.10486 -1.4991601 65280
0.233023 -0.10486 -1.4991601 65280
0.235936 -0.10486 -1.4991601 65280
0.238849 -0.10486 -1.4991601 65280
0.241762 -0.10486 -1.4991601 65280
0.244674 -0.10486 -1.4991601 65280
0.247587 -0.10486 -1.4991601 65280
0.25049999 -0.10486 -1.4991601 65280
0.25341299 -0.10486 -1.4991601 65280
0.25632599 -0.10486 -1.4991601 65280
0.259238 -0.10486 -1.4991601 65280
0.262151 -0.10486 -1.4991601 65280
0.265064 -0.10486 -1.4991601 65280
0.267977 -0.10486 -1.4991601 65280
0.27089 -0.10486 -1.4991601 65280
0.27380201 -0.10486 -1.4991601 65280
0.27671501 -0.10486 -1.4991601 65280
0.27962801 -0.10486 -1.4991601 65280
0.28254101 -0.10486 -1.4991601 65280
0.28545299 -0.10486 -1.4991601 65280
0.28836599 -0.10486 -1.4991601 65280
0.29127899 -0.10486 -1.4991601 65280
0.29419199 -0.10486 -1.4991601 65280
0.29710501 -0.10486 -1.4991601 65280
0.300017 -0.10486 -1.4991601 65280
0.30293 -0.10486 -1.4991601 65280
0.305843 -0.10486 -1.4991601 65280
0.30875599 -0.10486 -1.4991601 65280
0.31166899 -0.10486 -1.4991601 65280
0.31458101 -0.10486 -1.4991601 65280
0.317494 -0.10486 -1.4991601 65280
0.320407 -0.10486 -1.4991601 65280
0.32332 -0.10486 -1.4991601 65280
0.326233 -0.10486 -1.4991601 65280
0.32914501 -0.10486 -1.4991601 65280
0.33205801 -0.10486 -1.4991601 65280
0.33497101 -0.10486 -1.4991601 65280
0.33788401 -0.10486 -1.4991601 65280
0.34079701 -0.10486 -1.4991601 65280
0.34370899 -0.10486 -1.4991601 65280
0.34662199 -0.10486 -1.4991601 65280
0.34953499 -0.10486 -1.4991601 65280
0.35244799 -0.10486 -1.4991601 65280
0.35536101 -0.10486 -1.4991601 65280
0.358273 -0.10486 -1.4991601 65280
0.361186 -0.10486 -1.4991601 65280
0.364099 -0.10486 -1.4991601 65280
0.36701199 -0.10486 -1.4991601 65280
0.36992401 -0.10486 -1.4991601 65280
0.37283701 -0.10486 -1.4991601 65280
0.37575001 -0.10486 -1.4991601 65280
0.378663 -0.10486 -1.4991601 65280
0.381576 -0.10486 -1.4991601 65280
0.38448799 -0.10486 -1.4991601 65280
0.38740101 -0.10486 -1.4991601 65280
0.39031401 -0.10486 -1.4991601 65280
0.39322701 -0.10486 -1.4991601 65280
0.39614001 -0.10486 -1.4991601 65280
-0.39867899 -0.101852 -1.4977601 65280
-0.395769 -0.101852 -1.4977601 65280
-0.39285901 -0.101852 -1.4977601 65280
-0.38994899 -0.101852 -1.4977601 65280
-0.38703901 -0.101852 -1.4977601 65280
-0.38412899 -0.101852 -1.4977601 65280
-0.381219 -0.101852 -1.4977601 65280
-0.37830901 -0.101852 -1.4977601 65280
-0.37539899 -0.101852 -1.4977601 65280
-0.37248901 -0.101852 -1.4977601 65280
-0.36957899 -0.101852 -1.4977601 65280
-0.36666799 -0.101852 -1.4977601 65280
-0.363758 -0.101852 -1.4977601 65280
-0.36084801 -0.101852 -1.4977601 65280
-0.35793799 -0.101852 -1.4977601 65280
-0.355028 -0.101852 -1.4977601 65280
-0.35211799 -0.101852 -1.4977601 65280
-0.349208 -0.101852 -1.4977601 65280
-0.34629801 -0.101852 -1.4977601 65280
-0.34338799 -0.101852 -1.4977601 65280
-0.340478 -0.101852 -1.4977601 65280
-0.33756801 -0.101852 -1.4977601 65280
-0.334658 -0.101852 -1.4977601 65280
-0.33174801 -0.101852 -1.4977601 65280
-0.32883799 -0.101852 -1.4977601 65280
-0.325928 -0.101852 -1.4977601 65280
-0.323017 -0.101852 -1.4977601 65280
-0.32010701 -0.101852 -1.4977601 65280
-0.317197 -0.101852 -1.4977601 65280
-0.31428701 -0.101852 -1.4977601 65280
-0.31137699 -0.101852 -1.4977601 65280
-0.308467 -0.101852 -1.4977601 65280
-0.30555701 -0.101852 -1.4977601 65280
-0.30264699 -0.101852 -1.4977601 65280
-0.29973701 -0.101852 -1.4977601 65280
-0.29682699 -0.101852 -1.4977601 65280
-0.293917 -0.101852 -1.4977601 65280
-0.29100701 -0.101852 -1.4977601 65280
-0.28809699 -0.101852 -1.4977601 65280
-0.28518701 -0.101852 -1.4977601 65280
-0.28227699 -0.101852 -1.4977601 65280
-0.27936599 -0.101852 -1.4977601 65280
-0.276456 -0.101852 -1.4977601 65280
-0.27354601 -0.101852 -1.4977601 65280
-0.27063599 -0.101852 -1.4977601 65280
-0.267726 -0.101852 -1.4977601 65280
-0.26481599 -0.101852 -1.4977601 65280
-0.261906 -0.101852 -1.4977601 65280
-0.25899601 -0.101852 -1.4977601 65280
-0.25608599 -0.101852 -1.4977601 65280
-0.253176 -0.101852 -1.4977601 65280
-0.25026599 -0.101852 -1.4977601 65280
-0.247356 -0.101852 -1.4977601 65280
-0.24444599 -0.101852 -1.4977601 65280
-0.24153601 -0.101852 -1.4977601 65280
-0.238626 -0.101852 -1.4977601 65280
-0.235715 -0.101852 -1.4977601 65280
-0.232805 -0.101852 -1.4977601 65280
-0.229895 -0.101852 -1.4977601 65280
-0.22698499 -0.101852 -1.4977601 65280
-0.224075 -0.101852 -1.4977601 65280
-0.221165 -0.101852 -1.4977601 65280
-0.218255 -0.101852 -1.4977601 65280
-0.215345 -0.101852 -1.4977601 65280
-0.21243501 -0.101852 -1.4977601 65280
-0.209525 -0.101852 -1.4977601 65280
-0.206615 -0.101852 -1.4977601 65280
-0.203705 -0.101852 -1.4977601 65280
-0.20079499 -0.101852 -1.4977601 65280
-0.19788501 -0.101852 -1.4977601 65280
-0.194975 -0.101852 -1.4977601 65280
-0.192064 -0.101852 -1.4977601 65280
-0.189154 -0.101852 -1.4977601 65280
-0.186244 -0.101852 -1.4977601 65280
-0.18333399 -0.101852 -1.4977601 65280
-0.180424 -0.101852 -1.4977601 65280
-0.177514 -0.101852 -1.4977601 65280
-0.174604 -0.101852 -1.4977601 65280
-0.171694 -0.101852 -1.4977601 65280
-0.16878401 -0.101852 -1.4977601 65280
-0.165874 -0.101852 -1.4977601 65280
-0.162964 -0.101852 -1.4977601 65280
-0.160054 -0.101852 -1.4977601 65280
-0.157144 -0.101852 -1.4977601 65280
-0.15423401 -0.101852 -1.4977601 65280
-0.15132301 -0.101852 -1.4977601 65280
-0.148413 -0.101852 -1.4977601 65280
-0.145503 -0.101852 -1.4977601 65280
