# .PCD v0.7 - Point Cloud Data file format
VERSION 0.7
FIELDS x y z rgb
SIZE 4 4 4 4
TYPE F F F U
COUNT 1 1 1 1
WIDTH 1210
HEIGHT 1
VIEWPOINT 0 0 0 1 0 0 0
POINTS 1210
DATA ascii
0.082142301 -0.010667253 -1.3462758 16711680
0.085598975 -0.014663562 -1.3857681 16711680
0.088155381 -0.014404465 -1.3869151 16711680
0.089207754 -0.0090099089 -1.3430654 16711680
0.093095124 -0.013573825 -1.3879988 16711680
0.094066009 -0.008079771 -1.3424922 16711680
0.098011464 -0.012656562 -1.3879066 16711680
0.098917283 -0.0070105493 -1.3427409 16711680
0.10281982 -0.011490483 -1.3870418 16711680
0.10369907 -0.0063665695 -1.3435577 16711680
0.10553416 -0.0042244606 -1.345022 16711680
0.10892136 -0.0081888586 -1.3842828 16711680
0.10741428 -0.0106433 -1.3855537 16711680
0.10743919 -0.0069794282 -1.344221 16711680
0.10937524 -0.0052251928 -1.3460584 16711680
0.11250713 -0.0088590533 -1.3824192 16711680
0.11079757 -0.01101429 -1.3842229 16711680
0.11304988 -0.0054816678 -1.348014 16711680
0.11521193 -0.0044354163 -1.3507572 16711680
0.11663859 -0.0025244132 -1.3542644 16711680
0.11833295 -0.0044794083 -1.3737792 16711680
0.11745727 -0.0070830286 -1.3770839 16711680
0.11581603 -0.0086328276 -1.3798202 16711680
0.11778956 -0.0052903965 -1.3526914 16711680
0.11935515 -0.0045692101 -1.3560733 16711680
0.12131119 -0.0048507117 -1.3610364 16711680
0.12174571 -0.0053566396 -1.3659904 16711680
0.12066757 -0.0060108826 -1.3710738 16711680
0.11969572 -0.0074755177 -1.3745434 16711680
0.064430326 -0.022646859 -1.3561862 16711680
0.063528404 -0.020094566 -1.360135 16711680
0.062961817 -0.019989371 -1.3647606 16711680
0.06338504 -0.020452291 -1.3693188 16711680
0.064713061 -0.021465711 -1.3736827 16711680
0.066211171 -0.024729759 -1.3768547 16711680
0.067017585 -0.019909695 -1.35462 16711680
0.067013785 -0.020092987 -1.3591828 16711680
0.067744583 -0.020820081 -1.3639156 16711680
0.068200991 -0.021351047 -1.3692015 16711680
0.068305716 -0.021585613 -1.3740382 16711680
0.06908673 -0.022310853 -1.3784789 16711680
0.072318956 -0.01858696 -1.3507799 16711680
0.070678584 -0.017947406 -1.3532088 16711680
0.069700345 -0.018125806 -1.3583453 16711680
0.071118116 -0.0197611 -1.3747754 16711680
0.072964258 -0.020603426 -1.3796071 16711680
0.075016558 -0.021568231 -1.3815556 16711680
0.075881734 -0.017421208 -1.3494889 16711680
0.074374899 -0.015762452 -1.352466 16711680
0.076777518 -0.018550299 -1.3801343 16711680
0.078842543 -0.02079422 -1.3824548 16711680
0.080654144 -0.016166065 -1.3476554 16711680
0.08385592 -0.019685887 -1.3836175 16711680
0.085673891 -0.014848012 -1.3442601 16711680
0.083753847 -0.016205579 -1.3458916 16711680
0.087041453 -0.020238005 -1.3846613 16711680
0.089333691 -0.019098938 -1.3862872 16711680
0.090168893 -0.013841383 -1.3425068 16711680
0.094078638 -0.018355049 -1.3874199 16711680
0.094947703 -0.012964197 -1.3418337 16711680
0.098917522 -0.017527752 -1.387426 16711680
0.099619664 -0.011818364 -1.3418257 16711680
0.10354477 -0.016347464 -1.3868587 16711680
0.10495603 -0.011030186 -1.3425676 16711680
0.10864183 -0.01536274 -1.3854017 16711680
0.10832629 -0.010481585 -1.3435764 16711680
0.11075529 -0.010024849 -1.3446577 16711680
0.11406052 -0.013825882 -1.3825749 16711680
0.11183994 -0.014555544 -1.3839461 16711680
0.11432669 -0.0097581968 -1.3469211 16711680
0.11700074 -0.009308625 -1.349332 16711680
0.11935195 -0.012048151 -1.3772094 16711680
0.11719019 -0.013062552 -1.3798367 16711680
0.1191037 -0.0095017068 -1.3515087 16711680
0.12162395 -0.0092142411 -1.355547 16711680
0.12322114 -0.0090243593 -1.3599577 16711680
0.12373828 -0.0096239522 -1.3658745 16711680
0.12291652 -0.010759093 -1.3703991 16711680
0.12111266 -0.011827845 -1.3746487 16711680
0.12399897 -0.010244731 -1.3612509 16711680
0.12426169 -0.010545228 -1.3642436 16711680
0.064608783 -0.024484336 -1.3560809 16711680
0.063947566 -0.026158825 -1.3587376 16711680
0.064310409 -0.027623892 -1.3636194 16711680
0.0648003 -0.028082855 -1.3687656 16711680
0.065276831 -0.027741544 -1.3738073 16711680
0.066388674 -0.026547246 -1.3765721 16711680
0.067466214 -0.024095088 -1.3548727 16711680
0.067551747 -0.025988825 -1.3577267 16711680
0.066844895 -0.02467221 -1.3638654 16711680
0.067258507 -0.02515512 -1.3687075 16711680
0.06907656 -0.02762334 -1.3741105 16711680
0.069436446 -0.026361562 -1.3773214 16711680
0.073816121 -0.020837083 -1.3507421 16711680
0.072387636 -0.02319397 -1.3535213 16711680
0.072988302 -0.025874518 -1.3567997 16711680
0.074423872 -0.027610637 -1.3742167 16711680
0.074514024 -0.025616251 -1.3780395 16711680
0.076061331 -0.023831256 -1.3808104 16711680
0.077089533 -0.020989902 -1.3495333 16711680
0.077291086 -0.023488581 -1.3528205 16711680
0.076776788 -0.02536343 -1.3558713 16711680
0.078433886 -0.027230203 -1.3745511 16711680
0.079361647 -0.025961675 -1.3778145 16711680
0.079951584 -0.024235815 -1.3814423 16711680
0.081916906 -0.021191649 -1.3481803 16711680
0.080735676 -0.023490749 -1.3509531 16711680
0.083168477 -0.026302539 -1.3789587 16711680
0.084794208 -0.024582542 -1.3818989 16711680
0.087400272 -0.01903642 -1.3443123 16711680
0.085869469 -0.020828731 -1.345832 16711680
0.089128494 -0.024616286 -1.3835548 16711680
0.090951316 -0.023136817 -1.3851244 16711680
0.091129042 -0.018857796 -1.3430845 16711680
0.089393549 -0.021891929 -1.3445326 16711680
0.092982382 -0.025836721 -1.3840544 16711680
0.094786815 -0.023135826 -1.3857069 16711680
0.095925294 -0.017852109 -1.3422698 16711680
0.099783361 -0.022240907 -1.3858635 16711680
0.10100804 -0.016792327 -1.3420677 16711680
0.10468847 -0.021096155 -1.3854473 16711680
0.10573176 -0.01600112 -1.3425864 16711680
0.10843043 -0.017765906 -1.3433572 16711680
0.11195012 -0.021268904 -1.3828171 16711680
0.10934736 -0.020181678 -1.3842608 16711680
0.10882931 -0.014550768 -1.343312 16711680
0.1113607 -0.015289288 -1.3443912 16711680
0.11457713 -0.019033439 -1.3817126 16711680
0.11230045 -0.018553317 -1.3833215 16711680
0.11519444 -0.014496759 -1.3466363 16711680
0.1178285 -0.014718764 -1.3486844 16711680
0.12025966 -0.017597906 -1.3765414 16711680
0.11795348 -0.017741121 -1.3790901 16711680
0.12005444 -0.014145348 -1.3511289 16711680
0.12272499 -0.014334846 -1.3548951 16711680
0.12440708 -0.014565099 -1.3583722 16711680
0.12505308 -0.015224371 -1.3662412 16711680
0.1239788 -0.015732683 -1.3698981 16711680
0.12198344 -0.016357042 -1.3740207 16711680
0.12486599 -0.014263108 -1.3604141 16711680
0.12518719 -0.01462391 -1.3641247 16711680
0.06457755 -0.02974616 -1.3594232 16711680
0.064290792 -0.031464577 -1.3635492 16711680
0.064639643 -0.031932391 -1.3680108 16711680
0.065694779 -0.031049095 -1.3723023 16711680
0.06840235 -0.028655663 -1.3591272 16711680
0.069012292 -0.030108571 -1.3629718 16711680
0.069465175 -0.030616611 -1.3680673 16711680
0.069552615 -0.029960066 -1.3721553 16711680
0.07358335 -0.027466856 -1.359013 16711680
0.074185975 -0.029037803 -1.3626937 16711680
0.074605472 -0.02953738 -1.3676344 16711680
0.074744895 -0.028741866 -1.3715849 16711680
0.080084652 -0.026062444 -1.353754 16711680
0.079003066 -0.027282476 -1.3575698 16711680
0.079333775 -0.02930472 -1.3621348 16711680
0.079788178 -0.029821143 -1.3672628 16711680
0.080320075 -0.028745092 -1.3721159 16711680
0.08207836 -0.028450347 -1.3757499 16711680
0.084168144 -0.02485469 -1.349016 16711680
0.082682721 -0.027029894 -1.3515675 16711680
0.081831284 -0.029102005 -1.3567181 16711680
0.081984855 -0.030258991 -1.3608248 16711680
0.082521737 -0.03097035 -1.367395 16711680
0.083201781 -0.030677654 -1.3720648 16711680
0.084941015 -0.029621594 -1.377364 16711680
0.086827748 -0.027862094 -1.3800319 16711680
0.087615088 -0.025174253 -1.3468941 16711680
0.0862827 -0.027690761 -1.3493568 16711680
0.088786393 -0.030594423 -1.378776 16711680
0.090597123 -0.028670691 -1.3813487 16711680
0.092730068 -0.02263207 -1.3436195 16711680
0.091807023 -0.024864212 -1.3446703 16711680
0.095156506 -0.028762013 -1.3828391 16711680
0.096212164 -0.026607536 -1.3842146 16711680
0.097051248 -0.022526681 -1.3429905 16711680
0.097160697 -0.024966635 -1.3436147 16711680
0.10057471 -0.028936185 -1.3829465 16711680
0.10056466 -0.026639402 -1.3840717 16711680
0.10169239 -0.021378942 -1.3427358 16711680
0.10276121 -0.023607686 -1.3433172 16711680
0.10639484 -0.027342133 -1.3825848 16711680
0.1052723 -0.025456674 -1.3837545 16711680
0.10564936 -0.01980833 -1.3429534 16711680
0.10748252 -0.02152539 -1.3437742 16711680
0.11074588 -0.025294989 -1.3817601 16711680
0.109147 -0.023867399 -1.3831578 16711680
0.11214912 -0.02016928 -1.3453081 16711680
0.11492744 -0.022264399 -1.3473376 16711680
0.11744307 -0.025344521 -1.3768419 16711680
0.11508587 -0.023605667 -1.3797586 16711680
0.11529224 -0.018990986 -1.3468503 16711680
0.11790593 -0.019932203 -1.3491712 16711680
0.1202815 -0.021810584 -1.3520759 16711680
0.12197845 -0.023694888 -1.3714948 16711680
0.12021866 -0.022466518 -1.3749954 16711680
0.11801055 -0.022203304 -1.3778666 16711680
0.12030178 -0.018508125 -1.3513058 16711680
0.12247977 -0.01924815 -1.354377 16711680
0.12464844 -0.019759439 -1.3590466 16711680
0.12511104 -0.020260692 -1.3644549 16711680
0.12377781 -0.020767361 -1.3693954 16711680
0.12222143 -0.020717248 -1.3727591 16711680
0.12534967 -0.017463513 -1.3608457 16711680
0.1255651 -0.017799478 -1.3626186 16711680
0.082103029 -0.030785441 -1.3634536 16711680
0.082245499 -0.030955538 -1.365302 16711680
0.085243724 -0.030198239 -1.3523152 16711680
0.084694013 -0.031787954 -1.3565109 16711680
0.084391534 -0.032832667 -1.3613409 16711680
0.084797241 -0.033316396 -1.3664364 16711680
0.085986912 -0.033291727 -1.3712422 16711680
0.087217875 -0.032511257 -1.3755547 16711680
0.089408219 -0.0283738 -1.347985 16711680
0.088592276 -0.030906625 -1.3507534 16711680
0.087701522 -0.033192299 -1.3545558 16711680
0.089238584 -0.034984343 -1.3723594 16711680
0.090857401 -0.033510983 -1.376338 16711680
0.092196055 -0.031606846 -1.3793273 16711680
0.093566984 -0.028716363 -1.346498 16711680
0.09296982 -0.031363241 -1.348969 16711680
0.095402092 -0.03421732 -1.3772174 16711680
0.096431896 -0.032049365 -1.3800832 16711680
0.098159514 -0.028178789 -1.3451853 16711680
0.10122091 -0.03177458 -1.3806033 16711680
0.10322307 -0.027099133 -1.3447351 16711680
0.10629404 -0.03070347 -1.3804135 16711680
0.1079914 -0.026138499 -1.3454278 16711680
0.11010236 -0.028072953 -1.3472292 16711680
0.1130567 -0.031116165 -1.3762068 16711680
0.11092685 -0.029521957 -1.3791238 16711680
0.112078 -0.024334133 -1.3464007 16711680
0.1140148 -0.026159376 -1.3485349 16711680
0.11648338 -0.02777534 -1.3517041 16711680
0.1162827 -0.028926365 -1.3750426 16711680
0.1148217 -0.027559087 -1.3777846 16711680
0.11739595 -0.024216115 -1.3502054 16711680
0.11963379 -0.025711454 -1.353709 16711680
0.12133626 -0.027066454 -1.3580496 16711680
0.12189507 -0.027707897 -1.3644782 16711680
0.12094921 -0.027264036 -1.3693283 16711680
0.11930287 -0.026615784 -1.3733541 16711680
0.12178783 -0.023387909 -1.3549786 16711680
0.12318338 -0.024446025 -1.3590096 16711680
0.12358375 -0.02493763 -1.3638016 16711680
0.12290628 -0.024695642 -1.3681769 16711680
0.087291971 -0.034408957 -1.3576086 16711680
0.087296396 -0.035370819 -1.361079 16711680
0.087677881 -0.035808213 -1.3658278 16711680
0.088345163 -0.03560283 -1.3692821 16711680
0.091019288 -0.033465616 -1.3522261 16711680
0.090438716 -0.035565697 -1.3557569 16711680
0.089653075 -0.037185907 -1.360172 16711680
0.090136565 -0.037738137 -1.3658961 16711680
0.091700286 -0.037027374 -1.3702916 16711680
0.092923507 -0.035660058 -1.3740109 16711680
0.096288092 -0.031348407 -1.3478742 16711680
0.094882049 -0.033489332 -1.3507502 16711680
0.09485437 -0.036169842 -1.35381 16711680
0.096368015 -0.037915356 -1.3713059 16711680
0.096964806 -0.035906956 -1.3747672 16711680
0.098930135 -0.03435 -1.3777392 16711680
0.099654332 -0.031025499 -1.347104 16711680
0.099586993 -0.033643775 -1.3499442 16711680
0.1002918 -0.035944909 -1.3524512 16711680
0.10158026 -0.037975915 -1.3716277 16711680
0.10181369 -0.03610491 -1.3747622 16711680
0.10233209 -0.034117147 -1.3779792 16711680
0.1038963 -0.030319773 -1.3467278 16711680
0.10465968 -0.032983541 -1.3494751 16711680
0.10571557 -0.034938946 -1.3523612 16711680
0.1073853 -0.036810741 -1.3710625 16711680
0.106878 -0.035481811 -1.3744229 16711680
0.10656802 -0.033446848 -1.3777435 16711680
0.10769555 -0.029215373 -1.3469129 16711680
0.10926944 -0.031006686 -1.3493664 16711680
0.11055253 -0.033459835 -1.3533838 16711680
0.11279736 -0.03418579 -1.3571241 16711680
0.11327753 -0.035132751 -1.3656706 16711680
0.11198781 -0.035072468 -1.3695564 16711680
0.11141343 -0.033505909 -1.3741375 16711680
0.11029691 -0.032286286 -1.3771173 16711680
0.11340807 -0.029315606 -1.350457 16711680
0.11472008 -0.03099741 -1.353828 16711680
0.11567745 -0.0327335 -1.3586597 16711680
0.11619982 -0.033182025 -1.3637407 16711680
0.11607534 -0.032488689 -1.3688655 16711680
0.11528687 -0.031489722 -1.3729148 16711680
0.11815397 -0.028607704 -1.3547103 16711680
0.11952563 -0.029481851 -1.3588458 16711680
0.11991781 -0.029976018 -1.3635021 16711680
0.11930057 -0.029941462 -1.3679433 16711680
0.092778519 -0.038950868 -1.3570098 16711680
0.092242867 -0.04011362 -1.3601062 16711680
0.092659727 -0.040594332 -1.3648825 16711680
0.093726024 -0.040042855 -1.3680235 16711680
0.096115403 -0.038763061 -1.3556074 16711680
0.096509352 -0.041002139 -1.3593757 16711680
0.096955985 -0.041535728 -1.364712 16711680
0.097283907 -0.040071659 -1.3688531 16711680
0.10090233 -0.037732363 -1.354642 16711680
0.10161977 -0.040080868 -1.3588545 16711680
0.10211798 -0.040645756 -1.3644933 16711680
0.10218682 -0.039186381 -1.3691459 16711680
0.10554622 -0.036406055 -1.3546278 16711680
0.1063166 -0.03819824 -1.3589466 16711680
0.10685956 -0.038653865 -1.3639697 16711680
0.10677164 -0.037790142 -1.3686987 16711680
0.10948078 -0.035086609 -1.3552079 16711680
0.11084848 -0.035833098 -1.358791 16711680
0.11122228 -0.036373623 -1.363748 16711680
0.11045723 -0.036389299 -1.3676819 16711680
0.11349012 -0.034491487 -1.3593158 16711680
0.11381336 -0.034879103 -1.3631089 16711680
-0.39905199 -0.10486 -1.4991601 65280
-0.39614001 -0.10486 -1.4991601 65280
-0.39322701 -0.10486 -1.4991601 65280
-0.39031401 -0.10486 -1.4991601 65280
-0.38740101 -0.10486 -1.4991601 65280
-0.38448799 -0.10486 -1.4991601 65280
-0.381576 -0.10486 -1.4991601 65280
-0.378663 -0.10486 -1.4991601 65280
-0.37575001 -0.10486 -1.4991601 65280
-0.37283701 -0.10486 -1.4991601 65280
-0.36992401 -0.10486 -1.4991601 65280
-0.36701199 -0.10486 -1.4991601 65280
-0.364099 -0.10486 -1.4991601 65280
-0.361186 -0.10486 -1.4991601 65280
-0.358273 -0.10486 -1.4991601 65280
-0.35536101 -0.10486 -1.4991601 65280
-0.35244799 -0.10486 -1.4991601 65280
-0.34953499 -0.10486 -1.4991601 65280
-0.34662199 -0.10486 -1.4991601 65280
-0.34370899 -0.10486 -1.4991601 65280
-0.34079701 -0.10486 -1.4991601 65280
-0.33788401 -0.10486 -1.4991601 65280
-0.33497101 -0.10486 -1.4991601 65280
-0.33205801 -0.10486 -1.4991601 65280
-0.32914501 -0.10486 -1.4991601 65280
-0.326233 -0.10486 -1.4991601 65280
-0.32332 -0.10486 -1.4991601 65280
-0.320407 -0.10486 -1.4991601 65280
-0.317494 -0.10486 -1.4991601 65280
-0.31458101 -0.10486 -1.4991601 65280
-0.31166899 -0.10486 -1.4991601 65280
-0.30875599 -0.10486 -1.4991601 65280
-0.305843 -0.10486 -1.4991601 65280
-0.30293 -0.10486 -1.4991601 65280
-0.300017 -0.10486 -1.4991601 65280
-0.29710501 -0.10486 -1.4991601 65280
-0.29419199 -0.10486 -1.4991601 65280
-0.29127899 -0.10486 -1.4991601 65280
-0.28836599 -0.10486 -1.4991601 65280
-0.28545299 -0.10486 -1.4991601 65280
-0.28254101 -0.10486 -1.4991601 65280
-0.27962801 -0.10486 -1.4991601 65280
-0.27671501 -0.10486 -1.4991601 65280
-0.27380201 -0.10486 -1.4991601 65280
-0.27089 -0.10486 -1.4991601 65280
-0.267977 -0.10486 -1.4991601 65280
-0.265064 -0.10486 -1.4991601 65280
-0.262151 -0.10486 -1.4991601 65280
-0.259238 -0.10486 -1.4991601 65280
-0.25632599 -0.10486 -1.4991601 65280
-0.25341299 -0.10486 -1.4991601 65280
-0.25049999 -0.10486 -1.4991601 65280
-0.247587 -0.10486 -1.4991601 65280
-0.244674 -0.10486 -1.4991601 65280
-0.241762 -0.10486 -1.4991601 65280
-0.238849 -0.10486 -1.4991601 65280
-0.235936 -0.10486 -1.4991601 65280
-0.233023 -0.10486 -1.4991601 65280
-0.23011 -0.10486 -1.4991601 65280
-0.227198 -0.10486 -1.4991601 65280
-0.22428501 -0.10486 -1.4991601 65280
-0.22137199 -0.10486 -1.4991601 65280
-0.218459 -0.10486 -1.4991601 65280
-0.215547 -0.10486 -1.4991601 65280
-0.212634 -0.10486 -1.4991601 65280
-0.209721 -0.10486 -1.4991601 65280
-0.206808 -0.10486 -1.4991601 65280
-0.203895 -0.10486 -1.4991601 65280
-0.200983 -0.10486 -1.4991601 65280
-0.19807 -0.10486 -1.4991601 65280
-0.19515701 -0.10486 -1.4991601 65280
-0.19224399 -0.10486 -1.4991601 65280
-0.189331 -0.10486 -1.4991601 65280
-0.186419 -0.10486 -1.4991601 65280
-0.183506 -0.10486 -1.4991601 65280
-0.180593 -0.10486 -1.4991601 65280
-0.17768 -0.10486 -1.4991601 65280
-0.174767 -0.10486 -1.4991601 65280
-0.171855 -0.10486 -1.4991601 65280
-0.168942 -0.10486 -1.4991601 65280
-0.16602901 -0.10486 -1.4991601 65280
-0.16311599 -0.10486 -1.4991601 65280
-0.16020399 -0.10486 -1.4991601 65280
-0.157291 -0.10486 -1.4991601 65280
-0.154378 -0.10486 -1.4991601 65280
-0.151465 -0.10486 -1.4991601 65280
-0.148552 -0.10486 -1.4991601 65280
-0.14564 -0.10486 -1.4991601 65280
-0.142727 -0.10486 -1.4991601 65280
-0.139814 -0.10486 -1.4991601 65280
-0.13690101 -0.10486 -1.4991601 65280
-0.13398799 -0.10486 -1.4991601 65280
-0.13107599 -0.10486 -1.4991601 65280
-0.12816299 -0.10486 -1.4991601 65280
-0.12525 -0.10486 -1.4991601 65280
-0.122337 -0.10486 -1.4991601 65280
-0.119424 -0.10486 -1.4991601 65280
-0.116512 -0.10486 -1.4991601 65280
-0.113599 -0.10486 -1.4991601 65280
-0.110686 -0.10486 -1.4991601 65280
-0.107773 -0.10486 -1.4991601 65280
-0.10486 -0.10486 -1.4991601 65280
-0.101948 -0.10486 -1.4991601 65280
-0.099034898 -0.10486 -1.4991601 65280
-0.096122101 -0.10486 -1.4991601 65280
-0.093209296 -0.10486 -1.4991601 65280
-0.090296499 -0.10486 -1.4991601 65280
-0.087383702 -0.10486 -1.4991601 65280
-0.084470898 -0.10486 -1.4991601 65280
-0.081558101 -0.10486 -1.4991601 65280
-0.078645401 -0.10486 -1.4991601 65280
-0.075732604 -0.10486 -1.4991601 65280
-0.072819799 -0.10486 -1.4991601 65280
-0.069907002 -0.10486 -1.4991601 65280
-0.066994198 -0.10486 -1.4991601 65280
-0.064081401 -0.10486 -1.4991601 65280
-0.0611686 -0.10486 -1.4991601 65280
-0.058255799 -0.10486 -1.4991601 65280
-0.055342998 -0.10486 -1.4991601 65280
-0.052430201 -0.10486 -1.4991601 65280
-0.049517401 -0.10486 -1.4991601 65280
-0.0466047 -0.10486 -1.4991601 65280
-0.0436919 -0.10486 -1.4991601 65280
-0.040779099 -0.10486 -1.4991601 65280
-0.037866302 -0.10486 -1.4991601 65280
-0.034953501 -0.10486 -1.4991601 65280
-0.0320407 -0.10486 -1.4991601 65280
-0.0291279 -0.10486 -1.4991601 65280
-0.026215101 -0.10486 -1.4991601 65280
-0.0233023 -0.10486 -1.4991601 65280
-0.020389499 -0.10486 -1.4991601 65280
-0.0174767 -0.10486 -1.4991601 65280
-0.014564 -0.10486 -1.4991601 65280
-0.0116512 -0.10486 -1.4991601 65280
-0.0087383697 -0.10486 -1.4991601 65280
-0.0058255801 -0.10486 -1.4991601 65280
-0.00291279 -0.10486 -1.4991601 65280
0 -0.10486 -1.4991601 65280
0.00291279 -0.10486 -1.4991601 65280
0.0058255801 -0.10486 -1.4991601 65280
0.0087383697 -0.10486 -1.4991601 65280
0.0116512 -0.10486 -1.4991601 65280
0.014564 -0.10486 -1.4991601 65280
0.0174767 -0.10486 -1.4991601 65280
0.020389499 -0.10486 -1.4991601 65280
0.0233023 -0.10486 -1.4991601 65280
0.026215101 -0.10486 -1.4991601 65280
0.0291279 -0.10486 -1.4991601 65280
0.0320407 -0.10486 -1.4991601 65280
0.034953501 -0.10486 -1.4991601 65280
0.037866302 -0.10486 -1.4991601 65280
0.040779099 -0.10486 -1.4991601 65280
0.0436919 -0.10486 -1.4991601 65280
0.0466047 -0.10486 -1.4991601 65280
0.049517401 -0.10486 -1.4991601 65280
0.052430201 -0.10486 -1.4991601 65280
0.055342998 -0.10486 -1.4991601 65280
0.058255799 -0.10486 -1.4991601 65280
0.0611686 -0.10486 -1.4991601 65280
0.064081401 -0.10486 -1.4991601 65280
0.066994198 -0.10486 -1.4991601 65280
0.069907002 -0.10486 -1.4991601 65280
0.072819799 -0.10486 -1.4991601 65280
0.075732604 -0.10486 -1.4991601 65280
0.078645401 -0.10486 -1.4991601 65280
0.081558101 -0.10486 -1.4991601 65280
0.084470898 -0.10486 -1.4991601 65280
0.087383702 -0.10486 -1.4991601 65280
0.090296499 -0.10486 -1.4991601 65280
0.093209296 -0.10486 -1.4991601 65280
0.096122101 -0.10486 -1.4991601 65280
0.099034898 -0.10486 -1.4991601 65280
0.101948 -0.10486 -1.4991601 65280
0.10486 -0.10486 -1.4991601 65280
0.107773 -0.10486 -1.4991601 65280
0.110686 -0.10486 -1.4991601 65280
0.113599 -0.10486 -1.4991601 65280
0.116512 -0.10486 -1.4991601 65280
0.119424 -0.10486 -1.4991601 65280
0.122337 -0.10486 -1.4991601 65280
0.12525 -0.10486 -1.4991601 65280
0.12816299 -0.10486 -1.4991601 65280
0.13107599 -0.10486 -1.4991601 65280
0.13398799 -0.10486 -1.4991601 65280
0.13690101 -0.10486 -1.4991601 65280
0.139814 -0.10486 -1.4991601 65280
0.142727 -0.10486 -1.4991601 65280
0.14564 -0.10486 -1.4991601 65280
0.148552 -0.10486 -1.4991601 65280
0.151465 -0.10486 -1.4991601 65280
0.154378 -0.10486 -1.4991601 65280
0.157291 -0.10486 -1.4991601 65280
0.16020399 -0.10486 -1.4991601 65280
0.16311599 -0.10486 -1.4991601 65280
0.16602901 -0.10486 -1.4991601 65280
0.168942 -0.10486 -1.4991601 65280
0.171855 -0.10486 -1.4991601 65280
0.174767 -0.10486 -1.4991601 65280
0.17768 -0.10486 -1.4991601 65280
0.180593 -0.10486 -1.4991601 65280
0.183506 -0.10486 -1.4991601 65280
0.186419 -0.10486 -1.4991601 65280
0.189331 -0.10486 -1.4991601 65280
0.19224399 -0.10486 -1.4991601 65280
0.19515701 -0.10486 -1.4991601 65280
0.19807 -0.10486 -1.4991601 65280
0.200983 -0.10486 -1.4991601 65280
0.203895 -0.10486 -1.4991601 65280
0.206808 -0.10486 -1.4991601 65280
0.209721 -0.10486 -1.4991601 65280
0.212634 -0.10486 -1.4991601 65280
0.215547 -0.10486 -1.4991601 65280
0.218459 -0.10486 -1.4991601 65280
0.22137199 -0.10486 -1.4991601 65280
0.22428501 -0.10486 -1.4991601 65280
0.227198 -0.10486 -1.4991601 65280
0.23011 -0.10486 -1.4991601 65280
0.233023 -0.10486 -1.4991601 65280
0.235936 -0.10486 -1.4991601 65280
0.238849 -0.10486 -1.4991601 65280
0.241762 -0.10486 -1.4991601 65280
0.244674 -0.10486 -1.4991601 65280
0.247587 -0.10486 -1.4991601 65280
0.25049999 -0.10486 -1.4991601 65280
0.25341299 -0.10486 -1.4991601 65280
0.25632599 -0.10486 -1.4991601 65280
0.259238 -0.10486 -1.4991601 65280
0.262151 -0.10486 -1.4991601 65280
0.265064 -0.10486 -1.4991601 65280
0.267977 -0.10486 -1.4991601 65280
0.27089 -0.10486 -1.4991601 65280
0.27380201 -0.10486 -1.4991601 65280
0.27671501 -0.10486 -1.4991601 65280
0.27962801 -0.10486 -1.4991601 65280
0.28254101 -0.10486 -1.4991601 65280
0.28545299 -0.10486 -1.4991601 65280
0.28836599 -0.10486 -1.4991601 65280
0.29127899 -0.10486 -1.4991601 65280
0.29419199 -0.10486 -1.4991601 65280
0.29710501 -0.10486 -1.4991601 65280
0.300017 -0.10486 -1.4991601 65280
0.30293 -0.10486 -1.4991601 65280
0.305843 -0.10486 -1.4991601 65280
0.30875599 -0.10486 -1.4991601 65280
0.31166899 -0.10486 -1.4991601 65280
0.31458101 -0.10486 -1.4991601 65280
0.317494 -0.10486 -1.4991601 65280
0.320407 -0.10486 -1.4991601 65280
0.32332 -0.10486 -1.4991601 65280
0.326233 -0.10486 -1.4991601 65280
0.32914501 -0.10486 -1.4991601 65280
0.33205801 -0.10486 -1.4991601 65280
0.33497101 -0.10486 -1.4991601 65280
0.33788401 -0.10486 -1.4991601 65280
0.34079701 -0.10486 -1.4991601 65280
0.34370899 -0.10486 -1.4991601 65280
0.34662199 -0.10486 -1.4991601 65280
0.34953499 -0.10486 -1.4991601 65280
0.35244799 -0.10486 -1.4991601 65280
0.35536101 -0.10486 -1.4991601 65280
0.358273 -0.10486 -1.4991601 65280
0.361186 -0.10486 -1.4991601 65280
0.364099 -0.10486 -1.4991601 65280
0.36701199 -0.10486 -1.4991601 65280
0.36992401 -0.10486 -1.4991601 65280
0.37283701 -0.10486 -1.4991601 65280
0.37575001 -0.10486 -1.4991601 65280
0.378663 -0.10486 -1.4991601 65280
0.381576 -0.10486 -1.4991601 65280
0.38448799 -0.10486 -1.4991601 65280
0.38740101 -0.10486 -1.4991601 65280
0.39031401 -0.10486 -1.4991601 65280
0.39322701 -0.10486 -1.4991601 65280
0.39614001 -0.10486 -1.4991601 65280
-0.39867899 -0.101852 -1.4977601 65280
-0.395769 -0.101852 -1.4977601 65280
-0.39285901 -0.101852 -1.4977601 65280
-0.38994899 -0.101852 -1.4977601 65280
-0.38703901 -0.101852 -1.4977601 65280
-0.38412899 -0.101852 -1.4977601 65280
-0.381219 -0.101852 -1.4977601 65280
-0.37830901 -0.101852 -1.4977601 65280
-0.37539899 -0.101852 -1.4977601 65280
-0.37248901 -0.101852 -1.4977601 65280
-0.36957899 -0.101852 -1.4977601 65280
-0.36666799 -0.101852 -1.4977601 65280
-0.363758 -0.101852 -1.4977601 65280
-0.36084801 -0.101852 -1.4977601 65280
-0.35793799 -0.101852 -1.4977601 65280
-0.355028 -0.101852 -1.4977601 65280
-0.35211799 -0.101852 -1.4977601 65280
-0.349208 -0.101852 -1.4977601 65280
-0.34629801 -0.101852 -1.4977601 65280
-0.34338799 -0.101852 -1.4977601 65280
-0.340478 -0.101852 -1.4977601 65280
-0.33756801 -0.101852 -1.4977601 65280
-0.334658 -0.101852 -1.4977601 65280
-0.33174801 -0.101852 -1.4977601 65280
-0.32883799 -0.101852 -1.4977601 65280
-0.325928 -0.101852 -1.4977601 65280
-0.323017 -0.101852 -1.4977601 65280
-0.32010701 -0.101852 -1.4977601 65280
-0.317197 -0.101852 -1.4977601 65280
-0.31428701 -0.101852 -1.4977601 65280
-0.31137699 -0.101852 -1.4977601 65280
-0.308467 -0.101852 -1.4977601 65280
-0.30555701 -0.101852 -1.4977601 65280
-0.30264699 -0.101852 -1.4977601 65280
-0.29973701 -0.101852 -1.4977601 65280
-0.29682699 -0.101852 -1.4977601 65280
-0.293917 -0.101852 -1.4977601 65280
-0.29100701 -0.101852 -1.4977601 65280
-0.28809699 -0.101852 -1.4977601 65280
-0.28518701 -0.101852 -1.4977601 65280
-0.28227699 -0.101852 -1.4977601 65280
-0.27936599 -0.101852 -1.4977601 65280
-0.276456 -0.101852 -1.4977601 65280
-0.27354601 -0.101852 -1.4977601 65280
-0.27063599 -0.101852 -1.4977601 65280
-0.267726 -0.101852 -1.4977601 65280
-0.26481599 -0.101852 -1.4977601 65280
-0.261906 -0.101852 -1.4977601 65280
-0.25899601 -0.101852 -1.4977601 65280
-0.25608599 -0.101852 -1.4977601 65280
-0.253176 -0.101852 -1.4977601 65280
-0.25026599 -0.101852 -1.4977601 65280
-0.247356 -0.101852 -1.4977601 65280
-0.24444599 -0.101852 -1.4977601 65280
-0.24153601 -0.101852 -1.4977601 65280
-0.238626 -0.101852 -1.4977601 65280
-0.235715 -0.101852 -1.4977601 65280
-0.232805 -0.101852 -1.4977601 65280
-0.229895 -0.101852 -1.4977601 65280
-0.22698499 -0.101852 -1.4977601 65280
-0.224075 -0.101852 -1.4977601 65280
-0.221165 -0.101852 -1.4977601 65280
-0.218255 -0.101852 -1.4977601 65280
-0.215345 -0.101852 -1.4977601 65280
-0.21243501 -0.101852 -1.4977601 65280
-0.209525 -0.101852 -1.4977601 65280
-0.206615 -0.101852 -1.4977601 65280
-0.203705 -0.101852 -1.4977601 65280
-0.20079499 -0.101852 -1.4977601 65280
-0.19788501 -0.101852 -1.4977601 65280
-0.194975 -0.101852 -1.4977601 65280
-0.192064 -0.101852 -1.4977601 65280
-0.189154 -0.101852 -1.4977601 65280
-0.186244 -0.101852 -1.4977601 65280
-0.18333399 -0.101852 -1.4977601 65280
-0.180424 -0.101852 -1.4977601 65280
-0.177514 -0.101852 -1.4977601 65280
-0.174604 -0.101852 -1.4977601 65280
-0.171694 -0.101852 -1.4977601 65280
-0.16878401 -0.101852 -1.4977601 65280
-0.165874 -0.101852 -1.4977601 65280
-0.162964 -0.101852 -1.4977601 65280
-0.160054 -0.101852 -1.4977601 65280
-0.157144 -0.101852 -1.4977601 65280
-0.15423401 -0.101852 -1.4977601 65280
-0.15132301 -0.101852 -1.4977601 65280
-0.148413 -0.101852 -1.4977601 65280
-0.145503 -0.101852 -1.4977601 65280
-0.142593 -0.101852 -1.4977601 65280
-0.13968299 -0.101852 -1.4977601 65280
-0.13677301 -0.101852 -1.4977601 65280
-0.133863 -0.101852 -1.4977601 65280
-0.130953 -0.101852 -1.4977601 65280
-0.128043 -0.101852 -1.4977601 65280
-0.12513299 -0.101852 -1.4977601 65280
-0.122223 -0.101852 -1.4977601 65280
-0.119313 -0.101852 -1.4977601 65280
-0.116403 -0.101852 -1.4977601 65280
-0.113493 -0.101852 -1.4977601 65280
-0.110583 -0.101852 -1.4977601 65280
-0.107672 -0.101852 -1.4977601 65280
-0.104762 -0.101852 -1.4977601 65280
-0.101852 -0.101852 -1.4977601 65280
-0.098942302 -0.101852 -1.4977601 65280
-0.096032202 -0.101852 -1.4977601 65280
-0.093122199 -0.101852 -1.4977601 65280
-0.090212099 -0.101852 -1.4977601 65280
-0.087301999 -0.101852 -1.4977601 65280
-0.084392004 -0.101852 -1.4977601 65280
-0.081481896 -0.101852 -1.4977601 65280
-0.078571796 -0.101852 -1.4977601 65280
-0.075661696 -0.101852 -1.4977601 65280
-0.072751701 -0.101852 -1.4977601 65280
-0.069841601 -0.101852 -1.4977601 65280
-0.066931501 -0.101852 -1.4977601 65280
-0.064021498 -0.101852 -1.4977601 65280
-0.061111402 -0.101852 -1.4977601 65280
-0.058201302 -0.101852 -1.4977601 65280
-0.055291299 -0.101852 -1.4977601 65280
-0.052381199 -0.101852 -1.4977601 65280
-0.049471099 -0.101852 -1.4977601 65280
-0.0465611 -0.101852 -1.4977601 65280
-0.043651 -0.101852 -1.4977601 65280
-0.0407409 -0.101852 -1.4977601 65280
-0.0378309 -0.101852 -1.4977601 65280
-0.0349208 -0.101852 -1.4977601 65280
-0.032010701 -0.101852 -1.4977601 65280
-0.029100699 -0.101852 -1.4977601 65280
-0.026190599 -0.101852 -1.4977601 65280
-0.0232805 -0.101852 -1.4977601 65280
-0.0203705 -0.101852 -1.4977601 65280
-0.0174604 -0.101852 -1.4977601 65280
-0.0145503 -0.101852 -1.4977601 65280
-0.0116403 -0.101852 -1.4977601 65280
-0.0087302001 -0.101852 -1.4977601 65280
-0.00582013 -0.101852 -1.4977601 65280
-0.0029100699 -0.101852 -1.4977601 65280
0 -0.101852 -1.4977601 65280
0.0029100699 -0.101852 -1.4977601 65280
0.00582013 -0.101852 -1.4977601 65280
0.0087302001 -0.101852 -1.4977601 65280
0.0116403 -0.101852 -1.4977601 65280
0.0145503 -0.101852 -1.4977601 65280
0.0174604 -0.101852 -1.4977601 65280
0.0203705 -0.101852 -1.4977601 65280
0.0232805 -0.101852 -1.4977601 65280
0.026190599 -0.101852 -1.4977601 65280
0.029100699 -0.101852 -1.4977601 65280
0.032010701 -0.101852 -1.4977601 65280
0.0349208 -0.101852 -1.4977601 65280
0.0378309 -0.101852 -1.4977601 65280
0.0407409 -0.101852 -1.4977601 65280
0.043651 -0.101852 -1.4977601 65280
0.0465611 -0.101852 -1.4977601 65280
0.049471099 -0.101852 -1.4977601 65280
0.052381199 -0.101852 -1.4977601 65280
0.055291299 -0.101852 -1.4977601 65280
0.058201302 -0.101852 -1.4977601 65280
0.061111402 -0.101852 -1.4977601 65280
0.064021498 -0.101852 -1.4977601 65280
0.066931501 -0.101852 -1.4977601 65280
0.069841601 -0.101852 -1.4977601 65280
0.072751701 -0.101852 -1.4977601 65280
0.075661696 -0.101852 -1.4977601 65280
0.078571796 -0.101852 -1.4977601 65280
0.081481896 -0.101852 -1.4977601 65280
0.084392004 -0.101852 -1.4977601 65280
0.087301999 -0.101852 -1.4977601 65280
0.090212099 -0.101852 -1.4977601 65280
0.093122199 -0.101852 -1.4977601 65280
0.096032202 -0.101852 -1.4977601 65280
0.098942302 -0.101852 -1.4977601 65280
0.101852 -0.101852 -1.4977601 65280
0.104762 -0.101852 -1.4977601 65280
0.107672 -0.101852 -1.4977601 65280
0.110583 -0.101852 -1.4977601 65280
0.113493 -0.101852 -1.4977601 65280
0.116403 -0.101852 -1.4977601 65280
0.119313 -0.101852 -1.4977601 65280
0.122223 -0.101852 -1.4977601 65280
0.12513299 -0.101852 -1.4977601 65280
0.128043 -0.101852 -1.4977601 65280
0.130953 -0.101852 -1.4977601 65280
0.133863 -0.101852 -1.4977601 65280
0.13677301 -0.101852 -1.4977601 65280
0.13968299 -0.101852 -1.4977601 65280
0.142593 -0.101852 -1.4977601 65280
0.145503 -0.101852 -1.4977601 65280
0.148413 -0.101852 -1.4977601 65280
0.15132301 -0.101852 -1.4977601 65280
0.15423401 -0.101852 -1.4977601 65280
0.157144 -0.101852 -1.4977601 65280
0.160054 -0.101852 -1.4977601 65280
0.162964 -0.101852 -1.4977601 65280
0.165874 -0.101852 -1.4977601 65280
0.16878401 -0.101852 -1.4977601 65280
0.171694 -0.101852 -1.4977601 65280
0.174604 -0.101852 -1.4977601 65280
0.177514 -0.101852 -1.4977601 65280
0.180424 -0.101852 -1.4977601 65280
0.18333399 -0.101852 -1.4977601 65280
0.186244 -0.101852 -1.4977601 65280
0.189154 -0.101852 -1.4977601 65280
0.192064 -0.101852 -1.4977601 65280
0.194975 -0.101852 -1.4977601 65280
0.19788501 -0.101852 -1.4977601 65280
0.20079499 -0.101852 -1.4977601 65280
0.203705 -0.101852 -1.4977601 65280
0.206615 -0.101852 -1.4977601 65280
0.209525 -0.101852 -1.4977601 65280
0.21243501 -0.101852 -1.4977601 65280
0.215345 -0.101852 -1.4977601 65280
0.218255 -0.101852 -1.4977601 65280
0.221165 -0.101852 -1.4977601 65280
0.224075 -0.101852 -1.4977601 65280
0.22698499 -0.101852 -1.4977601 65280
0.229895 -0.101852 -1.4977601 65280
0.232805 -0.101852 -1.4977601 65280
0.235715 -0.101852 -1.4977601 65280
0.238626 -0.101852 -1.4977601 65280
0.24153601 -0.101852 -1.4977601 65280
0.24444599 -0.101852 -1.4977601 65280
0.247356 -0.101852 -1.4977601 65280
0.25026599 -0.101852 -1.4977601 65280
0.253176 -0.101852 -1.4977601 65280
0.25608599 -0.101852 -1.4977601 65280
0.25899601 -0.101852 -1.4977601 65280
0.261906 -0.101852 -1.4977601 65280
0.26481599 -0.101852 -1.4977601 65280
0.267726 -0.101852 -1.4977601 65280
0.27063599 -0.101852 -1.4977601 65280
0.27354601 -0.101852 -1.4977601 65280
0.276456 -0.101852 -1.4977601 65280
0.27936599 -0.101852 -1.4977601 65280
0.28227699 -0.101852 -1.4977601 65280
0.28518701 -0.101852 -1.4977601 65280
0.28809699 -0.101852 -1.4977601 65280
0.29100701 -0.101852 -1.4977601 65280
0.293917 -0.101852 -1.4977601 65280
0.29682699 -0.101852 -1.4977601 65280
0.29973701 -0.101852 -1.4977601 65280
0.30264699 -0.101852 -1.4977601 65280
0.30555701 -0.101852 -1.4977601 65280
0.308467 -0.101852 -1.4977601 65280
0.31137699 -0.101852 -1.4977601 65280
0.31428701 -0.101852 -1.4977601 65280
0.317197 -0.101852 -1.4977601 65280
0.32010701 -0.101852 -1.4977601 65280
0.323017 -0.101852 -1.4977601 65280
0.325928 -0.101852 -1.4977601 65280
0.32883799 -0.101852 -1.4977601 65280
0.33174801 -0.101852 -1.4977601 65280
0.334658 -0.101852 -1.4977601 65280
0.33756801 -0.101852 -1.4977601 65280
0.340478 -0.101852 -1.4977601 65280
0.34338799 -0.101852 -1.4977601 65280
0.34629801 -0.101852 -1.4977601 65280
0.349208 -0.101852 -1.4977601 65280
0.35211799 -0.101852 -1.4977601 65280
0.355028 -0.101852 -1.4977601 65280
0.35793799 -0.101852 -1.4977601 65280
0.36084801 -0.101852 -1.4977601 65280
0.363758 -0.101852 -1.4977601 65280
0.36666799 -0.101852 -1.4977601 65280
0.36957899 -0.101852 -1.4977601 65280
0.37248901 -0.101852 -1.4977601 65280
0.37539899 -0.101852 -1.4977601 65280
0.37830901 -0.101852 -1.4977601 65280
0.381219 -0.101852 -1.4977601 65280
0.38412899 -0.101852 -1.4977601 65280
0.38703901 -0.101852 -1.4977601 65280
0.38994899 -0.101852 -1.4977601 65280
0.39285901 -0.101852 -1.4977601 65280
0.395769 -0.101852 -1.4977601 65280
-0.401214 -0.0988499 -1.4963599 65280
-0.398307 -0.0988499 -1.4963599 65280
-0.395399 -0.0988499 -1.4963599 65280
-0.392492 -0.0988499 -1.4963599 65280
-0.38958499 -0.0988499 -1.4963599 65280
-0.386677 -0.0988499 -1.4963599 65280
-0.38376999 -0.0988499 -1.4963599 65280
-0.38086301 -0.0988499 -1.4963599 65280
-0.37795499 -0.0988499 -1.4963599 65280
-0.37504801 -0.0988499 -1.4963599 65280
-0.372141 -0.0988499 -1.4963599 65280
-0.36923301 -0.0988499 -1.4963599 65280
-0.366326 -0.0988499 -1.4963599 65280
-0.363419 -0.0988499 -1.4963599 65280
-0.360511 -0.0988499 -1.4963599 65280
-0.357604 -0.0988499 -1.4963599 65280
-0.35469699 -0.0988499 -1.4963599 65280
-0.351789 -0.0988499 -1.4963599 65280
-0.34888199 -0.0988499 -1.4963599 65280
-0.34597501 -0.0988499 -1.4963599 65280
-0.34306699 -0.0988499 -1.4963599 65280
-0.34016001 -0.0988499 -1.4963599 65280
-0.33725199 -0.0988499 -1.4963599 65280
-0.33434501 -0.0988499 -1.4963599 65280
-0.331438 -0.0988499 -1.4963599 65280
-0.32853001 -0.0988499 -1.4963599 65280
-0.32562301 -0.0988499 -1.4963599 65280
-0.322716 -0.0988499 -1.4963599 65280
-0.31980801 -0.0988499 -1.4963599 65280
-0.316901 -0.0988499 -1.4963599 65280
-0.31399399 -0.0988499 -1.4963599 65280
-0.311086 -0.0988499 -1.4963599 65280
-0.30817899 -0.0988499 -1.4963599 65280
-0.30527201 -0.0988499 -1.4963599 65280
-0.30236399 -0.0988499 -1.4963599 65280
-0.29945701 -0.0988499 -1.4963599 65280
-0.29655001 -0.0988499 -1.4963599 65280
-0.29364201 -0.0988499 -1.4963599 65280
-0.29073501 -0.0988499 -1.4963599 65280
-0.287828 -0.0988499 -1.4963599 65280
-0.28492001 -0.0988499 -1.4963599 65280
-0.282013 -0.0988499 -1.4963599 65280
-0.27910501 -0.0988499 -1.4963599 65280
-0.276198 -0.0988499 -1.4963599 65280
-0.27329099 -0.0988499 -1.4963599 65280
-0.270383 -0.0988499 -1.4963599 65280
-0.26747599 -0.0988499 -1.4963599 65280
-0.26456901 -0.0988499 -1.4963599 65280
-0.26166099 -0.0988499 -1.4963599 65280
-0.25875399 -0.0988499 -1.4963599 65280
-0.25584701 -0.0988499 -1.4963599 65280
-0.25293899 -0.0988499 -1.4963599 65280
-0.25003201 -0.0988499 -1.4963599 65280
-0.247125 -0.0988499 -1.4963599 65280
-0.24421699 -0.0988499 -1.4963599 65280
-0.24131 -0.0988499 -1.4963599 65280
-0.23840301 -0.0988499 -1.4963599 65280
-0.235495 -0.0988499 -1.4963599 65280
-0.23258799 -0.0988499 -1.4963599 65280
-0.229681 -0.0988499 -1.4963599 65280
-0.22677299 -0.0988499 -1.4963599 65280
-0.223866 -0.0988499 -1.4963599 65280
-0.22095899 -0.0988499 -1.4963599 65280
-0.218051 -0.0988499 -1.4963599 65280
-0.21514399 -0.0988499 -1.4963599 65280
-0.212236 -0.0988499 -1.4963599 65280
-0.20932899 -0.0988499 -1.4963599 65280
-0.206422 -0.0988499 -1.4963599 65280
-0.20351399 -0.0988499 -1.4963599 65280
-0.200607 -0.0988499 -1.4963599 65280
-0.19769999 -0.0988499 -1.4963599 65280
-0.194792 -0.0988499 -1.4963599 65280
-0.19188499 -0.0988499 -1.4963599 65280
-0.188978 -0.0988499 -1.4963599 65280
-0.18607 -0.0988499 -1.4963599 65280
-0.183163 -0.0988499 -1.4963599 65280
-0.18025599 -0.0988499 -1.4963599 65280
-0.177348 -0.0988499 -1.4963599 65280
-0.17444099 -0.0988499 -1.4963599 65280
-0.171534 -0.0988499 -1.4963599 65280
-0.168626 -0.0988499 -1.4963599 65280
-0.165719 -0.0988499 -1.4963599 65280
-0.16281199 -0.0988499 -1.4963599 65280
-0.159904 -0.0988499 -1.4963599 65280
-0.156997 -0.0988499 -1.4963599 65280
-0.154089 -0.0988499 -1.4963599 65280
-0.151182 -0.0988499 -1.4963599 65280
-0.148275 -0.0988499 -1.4963599 65280
-0.145367 -0.0988499 -1.4963599 65280
-0.14246 -0.0988499 -1.4963599 65280
-0.139553 -0.0988499 -1.4963599 65280
-0.136645 -0.0988499 -1.4963599 65280
-0.133738 -0.0988499 -1.4963599 65280
-0.130831 -0.0988499 -1.4963599 65280
-0.127923 -0.0988499 -1.4963599 65280
-0.125016 -0.0988499 -1.4963599 65280
-0.122109 -0.0988499 -1.4963599 65280
-0.119201 -0.0988499 -1.4963599 65280
-0.116294 -0.0988499 -1.4963599 65280
-0.113387 -0.0988499 -1.4963599 65280
-0.110479 -0.0988499 -1.4963599 65280
-0.107572 -0.0988499 -1.4963599 65280
-0.104665 -0.0988499 -1.4963599 65280
-0.101757 -0.0988499 -1.4963599 65280
-0.0988499 -0.0988499 -1.4963599 65280
-0.095942497 -0.0988499 -1.4963599 65280
-0.093035199 -0.0988499 -1.4963599 65280
-0.090127803 -0.0988499 -1.4963599 65280
-0.087220497 -0.0988499 -1.4963599 65280
-0.084313102 -0.0988499 -1.4963599 65280
-0.081405804 -0.0988499 -1.4963599 65280
-0.078498401 -0.0988499 -1.4963599 65280
-0.075591102 -0.0988499 -1.4963599 65280
-0.072683699 -0.0988499 -1.4963599 65280
-0.069776401 -0.0988499 -1.4963599 65280
-0.066868998 -0.0988499 -1.4963599 65280
-0.0639617 -0.0988499 -1.4963599 65280
-0.061054301 -0.0988499 -1.4963599 65280
-0.058146998 -0.0988499 -1.4963599 65280
-0.055239599 -0.0988499 -1.4963599 65280
-0.052332301 -0.0988499 -1.4963599 65280
-0.049424902 -0.0988499 -1.4963599 65280
-0.046517599 -0.0988499 -1.4963599 65280
-0.0436102 -0.0988499 -1.4963599 65280
-0.040702902 -0.0988499 -1.4963599 65280
-0.037795499 -0.0988499 -1.4963599 65280
-0.0348882 -0.0988499 -1.4963599 65280
-0.031980801 -0.0988499 -1.4963599 65280
-0.029073499 -0.0988499 -1.4963599 65280
-0.0261661 -0.0988499 -1.4963599 65280
-0.0232588 -0.0988499 -1.4963599 65280
-0.020351401 -0.0988499 -1.4963599 65280
-0.0174441 -0.0988499 -1.4963599 65280
-0.0145367 -0.0988499 -1.4963599 65280
-0.0116294 -0.0988499 -1.4963599 65280
-0.0087220501 -0.0988499 -1.4963599 65280
-0.0058146999 -0.0988499 -1.4963599 65280
-0.00290735 -0.0988499 -1.4963599 65280
0 -0.0988499 -1.4963599 65280
0.00290735 -0.0988499 -1.4963599 65280
0.0058146999 -0.0988499 -1.4963599 65280
0.0087220501 -0.0988499 -1.4963599 65280
0.0116294 -0.0988499 -1.4963599 65280
0.0145367 -0.0988499 -1.4963599 65280
0.0174441 -0.0988499 -1.4963599 65280
0.020351401 -0.0988499 -1.4963599 65280
0.0232588 -0.0988499 -1.4963599 65280
0.0261661 -0.0988499 -1.4963599 65280
0.029073499 -0.0988499 -1.4963599 65280
0.031980801 -0.0988499 -1.4963599 65280
0.0348882 -0.0988499 -1.4963599 65280
0.037795499 -0.0988499 -1.4963599 65280
0.040702902 -0.0988499 -1.4963599 65280
0.0436102 -0.0988499 -1.4963599 65280
0.046517599 -0.0988499 -1.4963599 65280
0.049424902 -0.0988499 -1.4963599 65280
0.052332301 -0.0988499 -1.4963599 65280
0.055239599 -0.0988499 -1.4963599 65280
0.058146998 -0.0988499 -1.4963599 65280
0.061054301 -0.0988499 -1.4963599 65280
0.0639617 -0.0988499 -1.4963599 65280
0.066868998 -0.0988499 -1.4963599 65280
0.069776401 -0.0988499 -1.4963599 65280
0.072683699 -0.0988499 -1.4963599 65280
0.075591102 -0.0988499 -1.4963599 65280
0.078498401 -0.0988499 -1.4963599 65280
0.081405804 -0.0988499 -1.4963599 65280
0.084313102 -0.0988499 -1.4963599 65280
0.087220497 -0.0988499 -1.4963599 65280
0.090127803 -0.0988499 -1.4963599 65280
0.093035199 -0.0988499 -1.4963599 65280
0.095942497 -0.0988499 -1.4963599 65280
0.0988499 -0.0988499 -1.4963599 65280
0.101757 -0.0988499 -1.4963599 65280
0.104665 -0.0988499 -1.4963599 65280
0.107572 -0.0988499 -1.4963599 65280
0.110479 -0.0988499 -1.4963599 65280
0.113387 -0.0988499 -1.4963599 65280
0.116294 -0.0988499 -1.4963599 65280
0.119201 -0.0988499 -1.4963599 65280
0.122109 -0.0988499 -1.4963599 65280
0.125016 -0.0988499 -1.4963599 65280
0.127923 -0.0988499 -1.4963599 65280
0.130831 -0.0988499 -1.4963599 65280
0.133738 -0.0988499 -1.4963599 65280
0.136645 -0.0988499 -1.4963599 65280
0.139553 -0.0988499 -1.4963599 65280
0.14246 -0.0988499 -1.4963599 65280
0.145367 -0.0988499 -1.4963599 65280
0.148275 -0.0988499 -1.4963599 65280
0.151182 -0.0988499 -1.4963599 65280
0.154089 -0.0988499 -1.4963599 65280
0.156997 -0.0988499 -1.4963599 65280
0.159904 -0.0988499 -1.4963599 65280
0.16281199 -0.0988499 -1.4963599 65280
0.165719 -0.0988499 -1.4963599 65280
0.168626 -0.0988499 -1.4963599 65280
0.171534 -0.0988499 -1.4963599 65280
0.17444099 -0.0988499 -1.4963599 65280
0.177348 -0.0988499 -1.4963599 65280
0.18025599 -0.0988499 -1.4963599 65280
0.183163 -0.0988499 -1.4963599 65280
0.18607 -0.0988499 -1.4963599 65280
0.188978 -0.0988499 -1.4963599 65280
0.19188499 -0.0988499 -1.4963599 65280
0.194792 -0.0988499 -1.4963599 65280
0.19769999 -0.0988499 -1.4963599 65280
0.200607 -0.0988499 -1.4963599 65280
0.20351399 -0.0988499 -1.4963599 65280
0.206422 -0.0988499 -1.4963599 65280
0.20932899 -0.0988499 -1.4963599 65280
0.212236 -0.0988499 -1.4963599 65280
0.21514399 -0.0988499 -1.4963599 65280
0.218051 -0.0988499 -1.4963599 65280
0.22095899 -0.0988499 -1.4963599 65280
0.223866 -0.0988499 -1.4963599 65280
0.22677299 -0.0988499 -1.4963599 65280
0.229681 -0.0988499 -1.4963599 65280
0.23258799 -0.0988499 -1.4963599 65280
0.235495 -0.0988499 -1.4963599 65280
0.23840301 -0.0988499 -1.4963599 65280
0.24131 -0.0988499 -1.4963599 65280
0.24421699 -0.0988499 -1.4963599 65280
0.247125 -0.0988499 -1.4963599 65280
0.25003201 -0.0988499 -1.4963599 65280
0.25293899 -0.0988499 -1.4963599 65280
0.25584701 -0.0988499 -1.4963599 65280
0.25875399 -0.0988499 -1.4963599 65280
0.26166099 -0.0988499 -1.4963599 65280
0.26456901 -0.0988499 -1.4963599 65280
0.26747599 -0.0988499 -1.4963599 65280
0.270383 -0.0988499 -1.4963599 65280
0.27329099 -0.0988499 -1.4963599 65280
0.276198 -0.0988499 -1.4963599 65280
0.27910501 -0.0988499 -1.4963599 65280
0.282013 -0.0988499 -1.4963599 65280
0.28492001 -0.0988499 -1.4963599 65280
0.287828 -0.0988499 -1.4963599 65280
0.29073501 -0.0988499 -1.4963599 65280
0.29364201 -0.0988499 -1.4963599 65280
0.29655001 -0.0988499 -1.4963599 65280
0.29945701 -0.0988499 -1.4963599 65280
0.30236399 -0.0988499 -1.4963599 65280
0.30527201 -0.0988499 -1.4963599 65280
0.30817899 -0.0988499 -1.4963599 65280
0.311086 -0.0988499 -1.4963599 65280
0.31399399 -0.0988499 -1.4963599 65280
0.316901 -0.0988499 -1.4963599 65280
0.31980801 -0.0988499 -1.4963599 65280
0.322716 -0.0988499 -1.4963599 65280
0.32562301 -0.0988499 -1.4963599 65280
0.32853001 -0.0988499 -1.4963599 65280
0.331438 -0.0988499 -1.4963599 65280
0.33434501 -0.0988499 -1.4963599 65280
0.33725199 -0.0988499 -1.4963599 65280
0.34016001 -0.0988499 -1.4963599 65280
0.34306699 -0.0988499 -1.4963599 65280
0.34597501 -0.0988499 -1.4963599 65280
0.34888199 -0.0988499 -1.4963599 65280
0.351789 -0.0988499 -1.4963599 65280
0.35469699 -0.0988499 -1.4963599 65280
0.357604 -0.0988499 -1.4963599 65280
0.360511 -0.0988499 -1.4963599 65280
0.363419 -0.0988499 -1.4963599 65280
0.366326 -0.0988499 -1.4963599 65280
0.36923301 -0.0988499 -1.4963599 65280
0.372141 -0.0988499 -1.4963599 65280
0.37504801 -0.0988499 -1.4963599 65280
0.37795499 -0.0988499 -1.4963599 65280
0.38086301 -0.0988499 -1.4963599 65280
0.38376999 -0.0988499 -1.4963599 65280
0.386677 -0.0988499 -1.4963599 65280
0.38958499 -0.0988499 -1.4963599 65280
0.392492 -0.0988499 -1.4963599 65280
0.395399 -0.0988499 -1.4963599 65280
0.398307 -0.0988499 -1.4963599 65280
-0.40084001 -0.095853001 -1.49496 65280
-0.397935 -0.095853001 -1.49496 65280
-0.39502999 -0.095853001 -1.49496 65280
-0.39212599 -0.095853001 -1.49496 65280
-0.38922101 -0.095853001 -1.49496 65280
-0.386316 -0.095853001 -1.49496 65280
-0.383412 -0.095853001 -1.49496 65280
-0.38050699 -0.095853001 -1.49496 65280
-0.37760299 -0.095853001 -1.49496 65280
-0.37469801 -0.095853001 -1.49496 65280
-0.371793 -0.095853001 -1.49496 65280
-0.368889 -0.095853001 -1.49496 65280
-0.36598399 -0.095853001 -1.49496 65280
-0.36307901 -0.095853001 -1.49496 65280
-0.36017501 -0.095853001 -1.49496 65280
-0.35727 -0.095853001 -1.49496 65280
-0.35436499 -0.095853001 -1.49496 65280
-0.35146099 -0.095853001 -1.49496 65280
-0.34855601 -0.095853001 -1.49496 65280
-0.34565201 -0.095853001 -1.49496 65280
-0.342747 -0.095853001 -1.49496 65280
-0.33984199 -0.095853001 -1.49496 65280
-0.33693799 -0.095853001 -1.49496 65280
-0.33403301 -0.095853001 -1.49496 65280
-0.331128 -0.095853001 -1.49496 65280
-0.328224 -0.095853001 -1.49496 65280
-0.32531899 -0.095853001 -1.49496 65280
-0.32241499 -0.095853001 -1.49496 65280
-0.31951001 -0.095853001 -1.49496 65280
-0.316605 -0.095853001 -1.49496 65280
-0.313701 -0.095853001 -1.49496 65280
-0.31079599 -0.095853001 -1.49496 65280
-0.30789101 -0.095853001 -1.49496 65280
-0.30498701 -0.095853001 -1.49496 65280
-0.302082 -0.095853001 -1.49496 65280
-0.29917699 -0.095853001 -1.49496 65280
-0.29627299 -0.095853001 -1.49496 65280
-0.29336801 -0.095853001 -1.49496 65280
-0.29046401 -0.095853001 -1.49496 65280
-0.287559 -0.095853001 -1.49496 65280
-0.28465399 -0.095853001 -1.49496 65280
-0.28174999 -0.095853001 -1.49496 65280
-0.27884501 -0.095853001 -1.49496 65280
-0.27594 -0.095853001 -1.49496 65280
-0.273036 -0.095853001 -1.49496 65280
-0.27013099 -0.095853001 -1.49496 65280
-0.26722601 -0.095853001 -1.49496 65280
-0.26432201 -0.095853001 -1.49496 65280
-0.261417 -0.095853001 -1.49496 65280
-0.258513 -0.095853001 -1.49496 65280
-0.25560799 -0.095853001 -1.49496 65280
-0.25270301 -0.095853001 -1.49496 65280
-0.249799 -0.095853001 -1.49496 65280
-0.246894 -0.095853001 -1.49496 65280
-0.24398901 -0.095853001 -1.49496 65280
-0.24108499 -0.095853001 -1.49496 65280
-0.23818 -0.095853001 -1.49496 65280
-0.235275 -0.095853001 -1.49496 65280
-0.232371 -0.095853001 -1.49496 65280
-0.22946601 -0.095853001 -1.49496 65280
-0.22656199 -0.095853001 -1.49496 65280
-0.223657 -0.095853001 -1.49496 65280
-0.220752 -0.095853001 -1.49496 65280
-0.217848 -0.095853001 -1.49496 65280
-0.21494301 -0.095853001 -1.49496 65280
-0.212038 -0.095853001 -1.49496 65280
-0.209134 -0.095853001 -1.49496 65280
-0.206229 -0.095853001 -1.49496 65280
-0.20332401 -0.095853001 -1.49496 65280
-0.20042001 -0.095853001 -1.49496 65280
-0.197515 -0.095853001 -1.49496 65280
-0.194611 -0.095853001 -1.49496 65280
