# .PCD v0.7 - Point Cloud Data file format
VERSION 0.7
FIELDS x y z rgb
SIZE 4 4 4 4
TYPE F F F U
COUNT 1 1 1 1
WIDTH 1077
HEIGHT 1
VIEWPOINT 0 0 0 1 0 0 0
POINTS 1077
DATA ascii
-0.12913321 0.052597534 -1.4066899 16711680
-0.1338526 0.054023404 -1.4058911 16711680
-0.1379239 0.054709584 -1.4045506 16711680
-0.11003277 0.038539279 -1.4123186 16711680
-0.11255185 0.04184122 -1.4117155 16711680
-0.11575712 0.045101248 -1.4109439 16711680
-0.11916178 0.047678664 -1.4114035 16711680
-0.13604802 0.054697625 -1.4081249 16711680
-0.13974936 0.055113573 -1.4061643 16711680
-0.1444858 0.055098869 -1.4054229 16711680
-0.14854616 0.054553173 -1.4047495 16711680
-0.10723164 0.032929722 -1.4151589 16711680
-0.10904409 0.036382191 -1.414583 16711680
-0.15147567 0.053982876 -1.4063854 16711680
-0.15508577 0.052870654 -1.40569 16711680
-0.10510527 0.027119167 -1.4176598 16711680
-0.10647218 0.030260403 -1.4175289 16711680
-0.15824492 0.051790405 -1.407289 16711680
-0.16135521 0.050485652 -1.4065797 16711680
-0.10518152 0.02354094 -1.420027 16711680
-0.16450936 0.048184205 -1.4082941 16711680
-0.10609175 0.018833442 -1.4219134 16711680
-0.16774485 0.044483669 -1.4098203 16711680
-0.10728189 0.013103263 -1.4226972 16711680
-0.10754842 0.014962594 -1.4242172 16711680
-0.17021766 0.04100522 -1.4119241 16711680
-0.17114915 0.039692245 -1.4101375 16711680
-0.10904743 0.0093786623 -1.425208 16711680
-0.10942496 0.010933562 -1.426829 16711680
-0.17259271 0.037215739 -1.4144236 16711680
-0.17338492 0.036140326 -1.4125637 16711680
-0.11090805 0.0053426037 -1.4272077 16711680
-0.11141196 0.0070033339 -1.4291469 16711680
-0.17470182 0.033463962 -1.4165988 16711680
-0.17559627 0.032243963 -1.4145052 16711680
-0.1129491 0.0013562972 -1.429134 16711680
-0.11365178 0.0026163626 -1.4312208 16711680
-0.17698434 0.028948247 -1.4187989 16711680
-0.1776166 0.028294165 -1.4163557 16711680
-0.11501657 -0.002834755 -1.4305174 16711680
-0.1158129 -0.0017331103 -1.4326355 16711680
-0.17901137 0.024576401 -1.420223 16711680
-0.1796023 0.024041325 -1.4178416 16711680
-0.11728186 -0.0069839396 -1.4318414 16711680
-0.11828233 -0.0063092615 -1.4339229 16711680
-0.18094566 0.019796547 -1.4216881 16711680
-0.181431 0.019628985 -1.4193163 16711680
-0.1190582 -0.010370504 -1.4324225 16711680
-0.12071306 -0.010398453 -1.4348992 16711680
-0.18251115 0.015319034 -1.4227629 16711680
-0.18293148 0.01574639 -1.4198334 16711680
-0.12367065 -0.01411896 -1.4362898 16711680
-0.18360598 0.010788067 -1.4245083 16711680
-0.12706655 -0.01774543 -1.4376663 16711680
-0.1293187 -0.01771133 -1.440327 16711680
-0.18377721 0.00450391 -1.4296513 16711680
-0.18429562 0.0060557444 -1.4265517 16711680
-0.12960562 -0.020802744 -1.4380008 16711680
-0.13171431 -0.021304399 -1.4398754 16711680
-0.18445992 0.00061992556 -1.4295197 16711680
-0.18488145 0.0021852432 -1.427135 16711680
-0.13545917 -0.024185527 -1.440515 16711680
-0.13875529 -0.024329621 -1.4421312 16711680
-0.18274131 -0.0059564319 -1.4334438 16711680
-0.18420437 -0.0039110081 -1.4309454 16711680
-0.13818496 -0.026523419 -1.4397295 16711680
-0.14177732 -0.026404526 -1.4413958 16711680
-0.14531833 -0.026640691 -1.4426986 16711680
-0.18021739 -0.012132963 -1.4358019 16711680
-0.18190129 -0.0097689759 -1.4335017 16711680
-0.18377529 -0.007564595 -1.4307891 16711680
-0.14481334 -0.02899842 -1.4401226 16711680
-0.14827751 -0.028447863 -1.4419571 16711680
-0.15287018 -0.02841204 -1.442753 16711680
-0.15705474 -0.026979595 -1.443784 16711680
-0.17316072 -0.02028928 -1.4406043 16711680
-0.17654154 -0.018537924 -1.4380999 16711680
-0.17926002 -0.015478961 -1.4359144 16711680
-0.18129979 -0.013848703 -1.4329368 16711680
-0.15514787 -0.029794298 -1.4414477 16711680
-0.15901712 -0.028451759 -1.4420038 16711680
-0.16361365 -0.026883811 -1.4417404 16711680
-0.16815093 -0.025005102 -1.4408398 16711680
-0.17231803 -0.022852 -1.4394317 16711680
-0.17554265 -0.021315563 -1.4374399 16711680
-0.11361116 0.042358454 -1.4051989 16711680
-0.11575633 0.04437416 -1.4049768 16711680
-0.11967727 0.047104262 -1.4036709 16711680
-0.12413281 0.049517989 -1.4025748 16711680
-0.12866913 0.051404808 -1.401683 16711680
-0.13356802 0.052875903 -1.4009209 16711680
-0.1384027 0.053809397 -1.4005539 16711680
-0.14126718 0.053875752 -1.3997809 16711680
-0.10906039 0.036891747 -1.4083087 16711680
-0.11180737 0.040596478 -1.4066781 16711680
-0.11403933 0.043348532 -1.4073347 16711680
-0.14102927 0.054568212 -1.4020259 16711680
-0.14412455 0.054071035 -1.4003943 16711680
-0.14886366 0.053568959 -1.4005594 16711680
-0.10614686 0.03141474 -1.4106897 16711680
-0.10768971 0.034668252 -1.410023 16711680
-0.15186433 0.053091016 -1.4012195 16711680
-0.15543303 0.051931612 -1.4010556 16711680
-0.10414459 0.025773326 -1.4131924 16711680
-0.10495969 0.028715394 -1.4127409 16711680
-0.15872675 0.051076464 -1.4021866 16711680
-0.16142698 0.049626961 -1.4020439 16711680
-0.10418452 0.02120015 -1.4154315 16711680
-0.16534457 0.046540458 -1.4035255 16711680
-0.10532227 0.015189799 -1.41731 16711680
-0.10506906 0.017209802 -1.4176182 16711680
-0.16817278 0.043393586 -1.4052387 16711680
-0.16931172 0.041725092 -1.4048356 16711680
-0.10651401 0.011717105 -1.4194058 16711680
-0.10620342 0.015165402 -1.4206884 16711680
-0.17152745 0.038793817 -1.4066429 16711680
-0.10812505 0.0077123428 -1.421661 16711680
-0.17399605 0.035070345 -1.4086976 16711680
-0.10992418 0.0030506849 -1.4231615 16711680
-0.17645565 0.030824611 -1.4101511 16711680
-0.11186795 -0.0011037095 -1.424799 16711680
-0.17860934 0.026668942 -1.4116811 16711680
-0.11417285 -0.0050327573 -1.426976 16711680
-0.18051665 0.022566235 -1.413945 16711680
-0.11661594 -0.0089499317 -1.4288267 16711680
-0.1822481 0.018256631 -1.4159502 16711680
-0.11915209 -0.012822982 -1.4300513 16711680
-0.12046478 -0.01337884 -1.4322026 16711680
-0.18384892 0.012988201 -1.4197359 16711680
-0.18362203 0.013997445 -1.4173735 16711680
-0.1207675 -0.015435411 -1.43013 16711680
-0.1226113 -0.016745802 -1.4320359 16711680
-0.18471141 0.0090835411 -1.4197805 16711680
-0.18438496 0.011070931 -1.417662 16711680
-0.12616733 -0.02024883 -1.4335386 16711680
-0.18529028 0.0043302597 -1.4219158 16711680
-0.12949561 -0.02309338 -1.4347898 16711680
-0.1314514 -0.024643432 -1.4353899 16711680
-0.18546681 -0.0021965671 -1.4247731 16711680
-0.18548419 0.00015359651 -1.4237543 16711680
-0.13481973 -0.026772957 -1.4362863 16711680
-0.1850287 -0.0058821086 -1.4264147 16711680
-0.13796896 -0.028151151 -1.4368453 16711680
-0.14122339 -0.029229339 -1.4373872 16711680
-0.18291311 -0.011838827 -1.4292159 16711680
-0.18410054 -0.0089564789 -1.4278036 16711680
-0.14449996 -0.030861717 -1.4372846 16711680
-0.14816971 -0.031511262 -1.4383317 16711680
-0.15183911 -0.031376392 -1.4396517 16711680
-0.17818296 -0.020425599 -1.4345008 16711680
-0.18025312 -0.018157512 -1.4320444 16711680
-0.1818282 -0.015413081 -1.4299271 16711680
-0.15133603 -0.032927319 -1.4375538 16711680
-0.15440139 -0.032439731 -1.4384716 16711680
-0.15940763 -0.031860333 -1.4383107 16711680
-0.16432194 -0.030509215 -1.4377333 16711680
-0.16886359 -0.028614916 -1.4368467 16711680
-0.17318384 -0.026127212 -1.4356055 16711680
-0.17689279 -0.023063544 -1.4340715 16711680
-0.17892043 -0.021441769 -1.4321418 16711680
-0.11357319 0.040813379 -1.4017242 16711680
-0.11571829 0.042319994 -1.4003313 16711680
-0.11965231 0.045075182 -1.3990108 16711680
-0.12405575 0.047524378 -1.3979849 16711680
-0.12859552 0.049407415 -1.3970829 16711680
-0.13347243 0.050832096 -1.3963075 16711680
-0.1383543 0.051739853 -1.3958905 16711680
-0.1412697 0.052551273 -1.3966978 16711680
-0.10907997 0.03494674 -1.4036942 16711680
-0.11177028 0.038561236 -1.4021126 16711680
-0.11399014 0.039926711 -1.3996097 16711680
-0.14089502 0.051097002 -1.3942937 16711680
-0.1440995 0.051958803 -1.3956898 16711680
-0.14887014 0.051524457 -1.3959781 16711680
-0.1060106 0.029331502 -1.4062957 16711680
-0.10765267 0.032197345 -1.4042832 16711680
-0.15179642 0.050673053 -1.3957317 16711680
-0.15551676 0.0499346 -1.3965708 16711680
-0.10404618 0.023902673 -1.4087781 16711680
-0.10480446 0.026400002 -1.4071236 16711680
-0.1588309 0.048678037 -1.3965747 16711680
-0.16130388 0.047708195 -1.397438 16711680
-0.10409358 0.018988412 -1.4106823 16711680
-0.1653001 0.04445117 -1.3986683 16711680
-0.10512474 0.013669647 -1.4134597 16711680
-0.10476711 0.015155988 -1.4121341 16711680
-0.16793512 0.041467551 -1.3996987 16711680
-0.16918285 0.040312022 -1.4008791 16711680
-0.10624176 0.009739208 -1.4149531 16711680
-0.17163268 0.036945056 -1.4021026 16711680
-0.10776508 0.0053868992 -1.4168637 16711680
-0.17425032 0.033055648 -1.4038142 16711680
-0.10957309 0.0011743149 -1.4190186 16711680
-0.17667189 0.029074349 -1.4058436 16711680
-0.11162149 -0.003076937 -1.4205632 16711680
-0.17877872 0.024809467 -1.4074111 16711680
-0.11396725 -0.0071204174 -1.4223436 16711680
-0.18058029 0.0205891 -1.409253 16711680
-0.11661825 -0.011093142 -1.4239739 16711680
-0.11853243 -0.01338122 -1.4224919 16711680
-0.1820046 0.012877107 -1.4101354 16711680
-0.18214041 0.016121488 -1.4111822 16711680
-0.11907755 -0.014189569 -1.4262191 16711680
-0.12046055 -0.015675735 -1.4250413 16711680
-0.18310644 0.010318968 -1.4127398 16711680
-0.18336916 0.012558209 -1.4135997 16711680
-0.12322016 -0.018522987 -1.427003 16711680
-0.18391308 0.0067433901 -1.415103 16711680
-0.12672409 -0.021860097 -1.4287349 16711680
-0.12935464 -0.023927685 -1.4270831 16711680
-0.18367872 -0.0014002658 -1.4165003 16711680
-0.18445651 0.0022237408 -1.4173315 16711680
-0.12951292 -0.024290923 -1.4306339 16711680
-0.13148776 -0.025856495 -1.4297829 16711680
-0.18446651 -0.0038194694 -1.4194018 16711680
-0.18494029 -0.0012294492 -1.4197351 16711680
-0.13519399 -0.028246935 -1.4315796 16711680
-0.13836654 -0.029665038 -1.4308596 16711680
-0.18293622 -0.011131814 -1.4220729 16711680
-0.18426995 -0.0078374166 -1.4219471 16711680
-0.13804848 -0.02924446 -1.4337735 16711680
-0.1413452 -0.030965939 -1.4325186 16711680
-0.18245727 -0.013836004 -1.4244829 16711680
-0.18378277 -0.010254342 -1.4247371 16711680
-0.14463493 -0.03254094 -1.4338237 16711680
-0.14771184 -0.033939511 -1.4338048 16711680
-0.18074097 -0.020229349 -1.4273822 16711680
-0.18182428 -0.017030595 -1.4264828 16711680
-0.15101793 -0.035099663 -1.4339826 16711680
-0.15463386 -0.035350129 -1.4344358 16711680
-0.1598317 -0.034985494 -1.4342548 16711680
-0.1646321 -0.033185162 -1.4343774 16711680
-0.16944972 -0.031183902 -1.4334238 16711680
-0.17375638 -0.029174745 -1.4315336 16711680
-0.17738762 -0.025915865 -1.4299827 16711680
-0.17948607 -0.023188997 -1.4284227 16711680
-0.16200556 -0.035761937 -1.4323946 16711680
-0.16509023 -0.034348726 -1.4326 16711680
-0.16934058 -0.032586019 -1.431758 16711680
-0.17224456 -0.031502958 -1.4303851 16711680
-0.11666233 0.040580515 -1.396598 16711680
-0.12009037 0.04237511 -1.39482 16711680
-0.12424207 0.04466838 -1.3937105 16711680
-0.12904765 0.046670724 -1.3927698 16711680
-0.1336989 0.048034236 -1.3921483 16711680
-0.13772947 0.049341477 -1.3924575 16711680
-0.10990651 0.032934535 -1.3997562 16711680
-0.11234772 0.035701245 -1.397859 16711680
-0.11553639 0.038480654 -1.3958715 16711680
-0.11846809 0.039491408 -1.3934715 16711680
-0.13636854 0.046944626 -1.3899938 16711680
-0.13978519 0.048571263 -1.3911725 16711680
-0.14426653 0.04896697 -1.3915523 16711680
-0.14840169 0.048968855 -1.3922247 16711680
-0.10695097 0.027287651 -1.4021519 16711680
-0.10880473 0.030039059 -1.3999612 16711680
-0.15116026 0.047667313 -1.3916427 16711680
-0.15496832 0.047264405 -1.3927178 16711680
-0.10482326 0.021476937 -1.4047717 16711680
-0.10589681 0.023842238 -1.4027355 16711680
-0.15818411 0.045568291 -1.3924052 16711680
-0.16114895 0.04493548 -1.3936651 16711680
-0.10505402 0.017376192 -1.4060365 16711680
-0.16430281 0.041957546 -1.3943996 16711680
-0.10578425 0.011415712 -1.4108583 16711680
-0.1058835 0.012727193 -1.408024 16711680
-0.16748914 0.038500398 -1.3958769 16711680
-0.1694496 0.037933283 -1.3983742 16711680
-0.10693635 0.0079889167 -1.4113507 16711680
-0.10726607 0.0082854535 -1.4089699 16711680
-0.17002834 0.034294821 -1.3965845 16711680
-0.17121771 0.034724653 -1.3987236 16711680
-0.10854656 0.0037922552 -1.4125097 16711680
-0.10909448 0.0036640544 -1.4100766 16711680
-0.17235956 0.029996179 -1.3976388 16711680
-0.17342141 0.030791136 -1.3997632 16711680
-0.11043373 -0.00041997246 -1.4140728 16711680
-0.11133367 -0.001052577 -1.4117582 16711680
-0.1747169 0.025254089 -1.3993288 16711680
-0.17564741 0.026565932 -1.4013058 16711680
-0.11252777 -0.0044474266 -1.4160472 16711680
-0.11368862 -0.0053986367 -1.4140674 16711680
-0.17690639 0.020868201 -1.4016635 16711680
-0.17764431 0.02262909 -1.4032604 16711680
-0.11474954 -0.008143628 -1.4184414 16711680
-0.11619367 -0.0091331825 -1.416374 16711680
-0.17858666 0.016901378 -1.4041299 16711680
-0.1795022 0.018809212 -1.4057082 16711680
-0.11710281 -0.011521287 -1.4208999 16711680
-0.11889964 -0.012506198 -1.4187341 16711680
-0.17991365 0.012814961 -1.4067868 16711680
-0.18097094 0.015358669 -1.4080948 16711680
-0.122073 -0.015813204 -1.4206511 16711680
-0.1249779 -0.017160831 -1.4187089 16711680
-0.17913157 0.0053512119 -1.4080766 16711680
-0.18076622 0.00868739 -1.409153 16711680
-0.12496692 -0.0190379 -1.4229391 16711680
-0.12722838 -0.019848961 -1.4206574 16711680
-0.18013346 0.0022816067 -1.4102123 16711680
-0.18176773 0.0046531865 -1.4117159 16711680
-0.1275 -0.021856759 -1.4250193 16711680
-0.12987667 -0.02313422 -1.4232578 16711680
-0.18155214 -0.001564919 -1.4131333 16711680
-0.182809 0.0012118826 -1.4142201 16711680
-0.13303487 -0.026287615 -1.4252063 16711680
-0.13616902 -0.027834482 -1.423578 16711680
-0.18071525 -0.0090520922 -1.4146361 16711680
-0.18227343 -0.0057273954 -1.4155196 16711680
-0.1357425 -0.02856601 -1.4274367 16711680
-0.13879634 -0.029667616 -1.426194 16711680
-0.18115541 -0.011990851 -1.4178363 16711680
-0.18279269 -0.0089989882 -1.4182115 16711680
-0.14233667 -0.03199596 -1.4278771 16711680
-0.14468551 -0.033765893 -1.4269131 16711680
-0.18037716 -0.018927267 -1.4199271 16711680
-0.18100217 -0.015931966 -1.4203079 16711680
-0.14471236 -0.033536285 -1.4300181 16711680
-0.14772636 -0.035456195 -1.4290061 16711680
-0.18023701 -0.021942902 -1.4226495 16711680
-0.1812194 -0.018350236 -1.4229209 16711680
-0.15109311 -0.036887158 -1.4300469 16711680
-0.15481246 -0.037833676 -1.4299604 16711680
-0.15906371 -0.037714798 -1.4303826 16711680
-0.17484891 -0.031147428 -1.4272847 16711680
-0.17756516 -0.028365273 -1.4254891 16711680
-0.17936587 -0.025114037 -1.4245019 16711680
-0.16107355 -0.037756335 -1.4296941 16711680
-0.1650956 -0.0366541 -1.4292479 16711680
-0.16982596 -0.034686383 -1.4283183 16711680
-0.17334503 -0.032646526 -1.4272951 16711680
-0.1208641 0.040456723 -1.3921826 16711680
-0.12495421 0.042341605 -1.3907799 16711680
-0.12922865 0.044066612 -1.3898915 16711680
-0.13364036 0.045777444 -1.3896763 16711680
-0.11107807 0.031460389 -1.3968438 16711680
-0.11361977 0.032988857 -1.3942904 16711680
-0.11686074 0.035597309 -1.3923012 16711680
-0.12069156 0.038262062 -1.3906401 16711680
-0.12528159 0.040198054 -1.388805 16711680
-0.12984046 0.042097095 -1.3879111 16711680
-0.13468429 0.044137068 -1.3879112 16711680
-0.13965431 0.045099121 -1.3878541 16711680
-0.14420953 0.045714326 -1.388307 16711680
-0.14767107 0.046646461 -1.389595 16711680
-0.1081554 0.025418349 -1.3991553 16711680
-0.11036411 0.02736254 -1.3964063 16711680
-0.11291893 0.029789373 -1.3937491 16711680
-0.14662559 0.043883938 -1.3871673 16711680
-0.15086123 0.044236958 -1.3884926 16711680
-0.15450059 0.044721019 -1.3900691 16711680
-0.10593091 0.019871753 -1.4020025 16711680
-0.10784957 0.021389201 -1.3989733 16711680
-0.1099699 0.023400443 -1.3961838 16711680
-0.15374446 0.041600529 -1.3875803 16711680
-0.15741168 0.042057011 -1.3892711 16711680
-0.16088754 0.04200625 -1.3909394 16711680
-0.10671663 0.015891008 -1.4021832 16711680
-0.10779832 0.016677175 -1.399508 16711680
-0.16087782 0.038739573 -1.3891112 16711680
-0.16296123 0.039284904 -1.3911325 16711680
-0.10788149 0.011378279 -1.4033389 16711680
-0.10878886 0.01268952 -1.4000806 16711680
-0.16315773 0.035280928 -1.3894272 16711680
-0.16563627 0.035460483 -1.3919613 16711680
-0.10913217 0.0069463085 -1.405264 16711680
-0.16846511 0.031655826 -1.3935279 16711680
-0.11085553 0.0025816392 -1.4069647 16711680
-0.1709549 0.027683318 -1.3951834 16711680
-0.11289738 -0.0016172864 -1.4088351 16711680
-0.17312033 0.023447787 -1.3970125 16711680
-0.11541902 -0.0055938 -1.4106156 16711680
-0.17481858 0.019128388 -1.3989919 16711680
-0.11816422 -0.0091351736 -1.4125165 16711680
-0.12072133 -0.0098963939 -1.4104062 16711680
-0.17421283 0.012323866 -1.3999047 16711680
-0.17612454 0.014948755 -1.4012361 16711680
-0.12074729 -0.012332633 -1.4149655 16711680
-0.12381675 -0.012774317 -1.4125171 16711680
-0.12766983 -0.013459591 -1.4115002 16711680
-0.17249268 0.0052005523 -1.4026806 16711680
-0.17488119 0.0084996708 -1.4024827 16711680
-0.17736088 0.011220044 -1.4038515 16711680
-0.12306139 -0.014992852 -1.417078 16711680
-0.12629767 -0.015827704 -1.4153736 16711680
-0.12975289 -0.015785696 -1.4132447 16711680
-0.17330739 0.0023367801 -1.4046861 16711680
-0.17632852 0.0049535371 -1.405606 16711680
-0.17835502 0.0079636741 -1.4062265 16711680
-0.12894845 -0.019314669 -1.4179772 16711680
-0.13233283 -0.019152155 -1.4153212 16711680
-0.17466843 -0.0015637465 -1.4070638 16711680
-0.17777 0.0010220055 -1.408365 16711680
-0.13183945 -0.022911966 -1.4201249 16711680
-0.13466497 -0.022913683 -1.4176848 16711680
-0.17642687 -0.0056391517 -1.4094687 16711680
-0.17905949 -0.0032808464 -1.4108417 16711680
-0.1339041 -0.025592811 -1.4219276 16711680
-0.13727812 -0.02659167 -1.4198962 16711680
-0.17798577 -0.0096291751 -1.4118823 16711680
-0.18010168 -0.0067191832 -1.4129248 16711680
-0.14036816 -0.029821325 -1.4217356 16711680
-0.14217588 -0.031072572 -1.4198791 16711680
-0.17786014 -0.016219374 -1.4128388 16711680
-0.17878428 -0.01380725 -1.4141669 16711680
-0.14264742 -0.032131936 -1.4239519 16711680
-0.14492872 -0.033895008 -1.4226551 16711680
-0.17890671 -0.01973344 -1.4159366 16711680
-0.17961463 -0.016745571 -1.4166839 16711680
-0.1486941 -0.0367231 -1.4242063 16711680
-0.15121087 -0.038556099 -1.4228696 16711680
-0.17821041 -0.027283765 -1.4179789 16711680
-0.17893574 -0.024111692 -1.4183233 16711680
-0.15122883 -0.038140453 -1.4259739 16711680
-0.15451074 -0.039586209 -1.4252476 16711680
-0.15831894 -0.04012315 -1.425915 16711680
-0.17554948 -0.03296655 -1.4225014 16711680
-0.17744762 -0.030032042 -1.4207327 16711680
-0.17880815 -0.026671983 -1.4205394 16711680
-0.16084559 -0.04012591 -1.4254493 16711680
-0.1653818 -0.03907302 -1.4249668 16711680
-0.16991737 -0.037188146 -1.4240748 16711680
-0.17379774 -0.034689881 -1.4229535 16711680
-0.11543839 0.031268947 -1.3913921 16711680
-0.11815287 0.032788694 -1.3895971 16711680
-0.1219925 0.034704201 -1.3875349 16711680
-0.12617096 0.036824472 -1.386084 16711680
-0.13070641 0.038706839 -1.3851897 16711680
-0.13538438 0.040248483 -1.3848932 16711680
-0.13989702 0.041762061 -1.3852971 16711680
-0.14323466 0.04285913 -1.3859516 16711680
-0.11227833 0.025152944 -1.3934734 16711680
-0.11494112 0.027294321 -1.3909818 16711680
-0.11803932 0.02968302 -1.3886225 16711680
-0.12164988 0.031582978 -1.3863839 16711680
-0.13734736 0.038120981 -1.3833044 16711680
-0.14173551 0.039523032 -1.3839644 16711680
-0.14615229 0.040290676 -1.3848603 16711680
-0.15004112 0.041195873 -1.3861645 16711680
-0.10986821 0.019661551 -1.3961987 16711680
-0.11221952 0.021353427 -1.393562 16711680
-0.1148816 0.023061141 -1.3906904 16711680
-0.14899877 0.037236646 -1.3839817 16711680
-0.15283978 0.038256388 -1.38559 16711680
-0.15668179 0.038901255 -1.3871099 16711680
-0.11018898 0.015362555 -1.3966167 16711680
-0.11277109 0.016654961 -1.3936985 16711680
-0.15572691 0.034546316 -1.3852561 16711680
-0.15922894 0.035733897 -1.3869485 16711680
-0.10951386 0.010431099 -1.4006456 16711680
-0.11118863 0.010854448 -1.3976978 16711680
-0.11320642 0.012865054 -1.3944727 16711680
-0.15829565 0.031657394 -1.3856084 16711680
-0.16203217 0.031889621 -1.3876677 16711680
-0.16437979 0.033236109 -1.3898476 16711680
-0.11101344 0.0062871464 -1.4019727 16711680
-0.11280359 0.006276208 -1.3990985 16711680
-0.16458428 0.027805459 -1.388906 16711680
-0.16670129 0.029418685 -1.3910389 16711680
-0.11301664 0.0019867253 -1.4033729 16711680
-0.11476876 0.0019519739 -1.4007672 16711680
-0.16683275 0.023608387 -1.3905402 16711680
-0.1687922 0.025192063 -1.3924145 16711680
-0.11495763 -0.0019775629 -1.4054683 16711680
-0.117352 -0.0021967366 -1.402638 16711680
-0.16864926 0.019201528 -1.3925818 16711680
-0.17083646 0.021366579 -1.3943721 16711680
-0.11716595 -0.0053587575 -1.4072523 16711680
-0.11985534 -0.0057377666 -1.4049443 16711680
-0.12334973 -0.0059157647 -1.4030533 16711680
-0.16737813 0.012418928 -1.3943812 16711680
-0.17009406 0.015152383 -1.3950225 16711680
-0.17241991 0.017786812 -1.3963977 16711680
-0.11880177 -0.0077173393 -1.4088029 16711680
-0.12230183 -0.0089722555 -1.4077033 16711680
-0.1261279 -0.0087974612 -1.40523 16711680
-0.16826451 0.0087439306 -1.3969429 16711680
-0.17168383 0.011578564 -1.3980002 16711680
-0.17347665 0.015028564 -1.3980887 16711680
-0.12509312 -0.011541273 -1.4098988 16711680
-0.12884875 -0.011971891 -1.4079716 16711680
-0.13196801 -0.012657052 -1.4059862 16711680
-0.16727991 0.002084868 -1.3989446 16711680
-0.16960362 0.0049766526 -1.4000052 16711680
-0.17248224 0.0081001651 -1.4007261 16711680
-0.13159819 -0.015259247 -1.4104087 16711680
-0.13437876 -0.015563879 -1.4078674 16711680
-0.16839883 -0.0014168657 -1.4011812 16711680
-0.17087546 0.0011760602 -1.4027096 16711680
-0.13415803 -0.018848473 -1.4126257 16711680
-0.13673852 -0.019170519 -1.4099953 16711680
-0.17001203 -0.00539173 -1.4034464 16711680
-0.1722663 -0.0031060213 -1.4050709 16711680
-0.13669492 -0.022877134 -1.4146651 16711680
-0.13888474 -0.023194022 -1.4119614 16711680
-0.17203806 -0.0093920566 -1.4054492 16711680
-0.17411335 -0.0073013175 -1.4073032 16711680
-0.13906449 -0.026602 -1.4165541 16711680
-0.14092904 -0.027293943 -1.4141237 16711680
-0.17424536 -0.013378847 -1.4076066 16711680
-0.17592368 -0.011581786 -1.4095656 16711680
-0.14331496 -0.031102464 -1.4161826 16711680
-0.17596339 -0.017549228 -1.4097924 16711680
-0.14654493 -0.034754638 -1.4177977 16711680
-0.14911573 -0.036878984 -1.416235 16711680
-0.17616998 -0.025651906 -1.4109412 16711680
-0.17693013 -0.022019111 -1.4119098 16711680
-0.14921981 -0.037233084 -1.4197028 16711680
-0.15127477 -0.038805798 -1.4190408 16711680
-0.17698875 -0.028099611 -1.413977 16711680
-0.17745991 -0.025414992 -1.4141123 16711680
-0.15499733 -0.040992383 -1.4207537 16711680
-0.15829702 -0.042289559 -1.4203825 16711680
-0.17524835 -0.035243649 -1.4170291 16711680
-0.17661442 -0.032036163 -1.4165012 16711680
-0.16088432 -0.042159926 -1.4210535 16711680
-0.16542873 -0.041319847 -1.4204971 16711680
-0.16997819 -0.039425086 -1.4196075 16711680
-0.1736965 -0.036833212 -1.4185261 16711680
-0.12412827 0.032888923 -1.3852414 16711680
-0.12742117 0.034224637 -1.3840221 16711680
-0.13103782 0.03573595 -1.3833168 16711680
-0.13419339 0.037064236 -1.3831955 16711680
-0.11696838 0.024957664 -1.3887212 16711680
-0.11980754 0.026841078 -1.38651 16711680
-0.12358531 0.029082362 -1.3842354 16711680
-0.12764065 0.031421963 -1.3826371 16711680
-0.13235278 0.033380732 -1.3817129 16711680
-0.1372166 0.034868088 -1.3816489 16711680
-0.14183602 0.036018509 -1.3821892 16711680
-0.14563155 0.036926068 -1.3830708 16711680
-0.11466423 0.019323044 -1.3912879 16711680
-0.11721615 0.021200024 -1.3886344 16711680
-0.12015554 0.023077242 -1.3857937 16711680
-0.12311732 0.025261007 -1.3835108 16711680
-0.13982865 0.032192014 -1.3802294 16711680
-0.14404124 0.032957595 -1.3811219 16711680
-0.14813347 0.034168802 -1.382627 16711680
-0.15152386 0.034911677 -1.3838714 16711680
-0.11512545 0.015576826 -1.3919572 16711680
-0.11798634 0.016751356 -1.3888755 16711680
-0.11996002 0.018917447 -1.3861176 16711680
-0.14701217 0.030294226 -1.3808092 16711680
-0.15081266 0.030405555 -1.3824906 16711680
-0.15435748 0.031929709 -1.384234 16711680
-0.11373039 0.0098974565 -1.3953941 16711680
-0.11630255 0.011172144 -1.3928624 16711680
-0.11915497 0.011830693 -1.3899901 16711680
-0.15371521 0.026194099 -1.3832124 16711680
-0.15699051 0.028132886 -1.3849066 16711680
-0.16031936 0.029250283 -1.3862482 16711680
-0.11526205 0.005902377 -1.3966839 16711680
-0.11832632 0.0067288922 -1.3939534 16711680
-0.12074759 0.0069666398 -1.3916817 16711680
-0.15660357 0.021830207 -1.3846837 16711680
-0.15902933 0.023660034 -1.3859577 16711680
-0.16236079 0.025630787 -1.3873488 16711680
-0.11701778 0.0020035142 -1.3984234 16711680
-0.12044269 0.002470592 -1.3957009 16711680
-0.12278908 0.0027250955 -1.3934821 16711680
-0.15874371 0.01762452 -1.3864466 16711680
-0.16113347 0.019411277 -1.387701 16711680
-0.16449523 0.021825543 -1.3890289 16711680
-0.11931047 -0.001561759 -1.4002458 16711680
-0.12245478 -0.0014267713 -1.3981136 16711680
-0.12550831 -0.0015407223 -1.3957366 16711680
-0.16061741 0.01308349 -1.3888407 16711680
-0.16327333 0.015554657 -1.3900827 16711680
-0.16609274 0.017933343 -1.3910276 16711680
-0.12121467 -0.0037267823 -1.4015505 16711680
-0.12486953 -0.0049291551 -1.4005835 16711680
-0.12827638 -0.0050544376 -1.3978766 16711680
-0.1619191 0.0089567658 -1.3912635 16711680
-0.1649105 0.011773957 -1.3926857 16711680
-0.16683421 0.015194009 -1.3926414 16711680
-0.12771063 -0.0080708452 -1.4027286 16711680
-0.13097163 -0.0083771441 -1.400321 16711680
-0.13431075 -0.0092202872 -1.3986392 16711680
-0.16109812 0.0019600401 -1.39336 16711680
-0.16324109 0.0050090281 -1.3940011 16711680
-0.16582532 0.0078917686 -1.3951017 16711680
-0.12990803 -0.010376249 -1.4043468 16711680
-0.13351636 -0.01157078 -1.402913 16711680
-0.136832 -0.011832723 -1.400557 16711680
-0.16181491 -0.0014926642 -1.3956271 16711680
-0.16467321 0.0013995171 -1.3968436 16711680
-0.16659653 0.0048402427 -1.3971488 16711680
-0.13635212 -0.015081253 -1.4053686 16711680
-0.13969959 -0.014957599 -1.402632 16711680
-0.14283079 -0.015333047 -1.4011673 16711680
-0.16060847 -0.0079154521 -1.3976923 16711680
-0.16289294 -0.0053501725 -1.3981413 16711680
-0.16595846 -0.0026593311 -1.3995003 16711680
-0.13909632 -0.019016046 -1.4074492 16711680
-0.14212233 -0.018746722 -1.404851 16711680
-0.14506343 -0.018236738 -1.4026219 16711680
-0.16156165 -0.011334103 -1.3993549 16711680
-0.16457303 -0.0093387924 -1.4004259 16711680
-0.1675698 -0.0071746781 -1.4018582 16711680
-0.14119959 -0.023219928 -1.4092835 16711680
-0.14404905 -0.02293767 -1.4065949 16711680
-0.14678845 -0.022094946 -1.404254 16711680
-0.16362418 -0.015068771 -1.4009359 16711680
-0.16672525 -0.013523629 -1.402117 16711680
-0.1696734 -0.011355765 -1.4036824 16711680
-0.14312798 -0.02750222 -1.4109662 16711680
-0.14560592 -0.027379159 -1.4081296 16711680
-0.14751881 -0.025009971 -1.4053577 16711680
-0.16549546 -0.017485827 -1.4018091 16711680
-0.16930106 -0.017527297 -1.4034783 16711680
-0.17191745 -0.015513755 -1.4053165 16711680
-0.14533001 -0.031599596 -1.4124761 16711680
-0.14719033 -0.031873472 -1.4098206 16711680
-0.17190796 -0.021597907 -1.4049751 16711680
-0.17377134 -0.019750454 -1.4068763 16711680
-0.14732733 -0.034757875 -1.4143176 16711680
-0.14921427 -0.036102969 -1.4123653 16711680
-0.17430235 -0.025584571 -1.4074236 16711680
-0.17525189 -0.023134906 -1.4088356 16711680
-0.15223223 -0.039497551 -1.4144797 16711680
-0.17532995 -0.029815 -1.4098219 16711680
-0.15550977 -0.042098727 -1.4158013 16711680
-0.15829118 -0.043630939 -1.4157333 16711680
-0.17467484 -0.036752403 -1.4124112 16711680
-0.1754411 -0.033812527 -1.4118683 16711680
-0.16129248 -0.043976434 -1.4164063 16711680
-0.16554207 -0.043270979 -1.4159464 16711680
-0.16978095 -0.041507509 -1.4151113 16711680
-0.17316861 -0.039037086 -1.4140714 16711680
-0.12543765 0.026609361 -1.3821611 16711680
-0.12897886 0.028273387 -1.3806497 16711680
-0.13305357 0.029917058 -1.3798304 16711680
-0.13657136 0.031283505 -1.3798772 16711680
-0.12232064 0.02084291 -1.3835118 16711680
-0.12522456 0.023076996 -1.3812484 16711680
-0.12925977 0.025328351 -1.3792686 16711680
-0.13432467 0.027491469 -1.3782873 16711680
-0.13927557 0.028931666 -1.3785307 16711680
-0.14342891 0.029547919 -1.3793702 16711680
-0.12040594 0.01541338 -1.386521 16711680
-0.12206797 0.016817302 -1.3837166 16711680
-0.12442337 0.018893667 -1.3806605 16711680
-0.14240414 0.026336072 -1.377106 16711680
-0.14634235 0.026877424 -1.3789151 16711680
-0.14926104 0.027390577 -1.3808116 16711680
-0.12140442 0.011134093 -1.3870655 16711680
-0.1222731 0.012614788 -1.3840954 16711680
-0.14925821 0.023783583 -1.3788064 16711680
-0.15184814 0.02372485 -1.3811501 16711680
-0.12255312 0.0066464711 -1.3890878 16711680
-0.15475845 0.020058148 -1.3827645 16711680
-0.12470952 0.0024595275 -1.3908629 16711680
-0.15681498 0.015796766 -1.384567 16711680
-0.12741904 -0.0011462867 -1.3925775 16711680
-0.13020523 -0.0027185669 -1.3906239 16711680
-0.1567457 0.0083871419 -1.3854669 16711680
-0.15807757 0.01163791 -1.3865614 16711680
-0.130146 -0.0044898437 -1.3950411 16711680
-0.13261475 -0.0050718607 -1.3927927 16711680
-0.15743454 0.0051984428 -1.3878957 16711680
-0.15942258 0.0078017702 -1.3892826 16711680
-0.13234293 -0.0070962235 -1.3970301 16711680
-0.13569798 -0.0080368258 -1.395381 16711680
-0.13950375 -0.0086370241 -1.3933657 16711680
-0.15551654 -0.0019383915 -1.3901052 16711680
-0.15833399 0.0013737399 -1.390945 16711680
-0.16040251 0.0045756311 -1.3915224 16711680
-0.13849492 -0.010868605 -1.3979652 16711680
-0.14223678 -0.010752006 -1.3956332 16711680
-0.1469097 -0.010449283 -1.3941246 16711680
-0.15229136 -0.0082016625 -1.3930624 16711680
-0.15602185 -0.005010739 -1.3929251 16711680
-0.15931736 -0.0021531936 -1.3938652 16711680
-0.14106004 -0.01355274 -1.4000942 16711680
-0.14439668 -0.013861276 -1.3989091 16711680
-0.1488151 -0.01271946 -1.3967999 16711680
-0.15348786 -0.01083805 -1.3959339 16711680
-0.15790209 -0.0082908776 -1.3963335 16711680
-0.16017772 -0.0056042038 -1.3963575 16711680
-0.1472355 -0.017610125 -1.4012742 16711680
-0.1510765 -0.016212437 -1.3994907 16711680
-0.15527497 -0.014468778 -1.3986685 16711680
-0.15930256 -0.012591138 -1.3989034 16711680
-0.1491394 -0.022130791 -1.4031888 16711680
-0.15325341 -0.020841975 -1.4014404 16711680
-0.15765187 -0.019007303 -1.4005743 16711680
-0.16179089 -0.016867641 -1.4007028 16711680
-0.14832903 -0.028317604 -1.4063199 16711680
-0.15068859 -0.026795719 -1.4043326 16711680
-0.15502216 -0.025354926 -1.4023763 16711680
-0.15990512 -0.023308013 -1.4014146 16711680
-0.16440596 -0.021101847 -1.4016578 16711680
-0.16752771 -0.020027041 -1.4025244 16711680
-0.1493769 -0.032157 -1.4073279 16711680
-0.15258232 -0.031517271 -1.4046099 16711680
-0.15682627 -0.029416561 -1.402475 16711680
-0.16160147 -0.027404089 -1.4015462 16711680
-0.16645773 -0.025738981 -1.4018862 16711680
-0.16985892 -0.023631118 -1.4033024 16711680
-0.15142672 -0.036769558 -1.4081256 16711680
-0.15305406 -0.03583093 -1.4053071 16711680
-0.16934198 -0.029048879 -1.4021112 16711680
-0.17197141 -0.028188176 -1.4041041 16711680
-0.15372747 -0.040440775 -1.4098686 16711680
-0.15509063 -0.041600455 -1.4080218 16711680
-0.17286827 -0.03422093 -1.4045662 16711680
-0.17354304 -0.032205809 -1.4059772 16711680
-0.15583368 -0.042610694 -1.4117999 16711680
-0.15842606 -0.044425398 -1.4108424 16711680
-0.1735439 -0.038134672 -1.4078797 16711680
-0.17428187 -0.034828849 -1.4081117 16711680
-0.16161366 -0.045422301 -1.4119726 16711680
-0.16493005 -0.045218226 -1.4110979 16711680
-0.16993512 -0.043135718 -1.410112 16711680
-0.17247032 -0.040943075 -1.4098412 16711680
-0.12699665 0.020218708 -1.378626 16711680
-0.13056809 0.021976348 -1.3768181 16711680
-0.13501672 0.023794904 -1.3759211 16711680
-0.13914783 0.025283542 -1.3762445 16711680
-0.12398152 0.014684659 -1.380096 16711680
-0.12638149 0.017437376 -1.3777839 16711680
-0.13027105 0.019386057 -1.3752964 16711680
-0.13648631 0.02197586 -1.3740749 16711680
-0.1411798 0.023584204 -1.3748634 16711680
-0.14537454 0.023609143 -1.3759066 16711680
-0.12307908 0.0085582091 -1.3829412 16711680
-0.12322055 0.010793074 -1.381176 16711680
-0.1489168 0.021474 -1.3761287 16711680
-0.15094778 0.020378547 -1.3773637 16711680
-0.12386217 0.0053072814 -1.3838961 16711680
-0.15311986 0.017490076 -1.3780569 16711680
-0.12619156 0.0010972451 -1.3858311 16711680
-0.15515184 0.013112164 -1.3801327 16711680
-0.1283222 -0.0010917764 -1.3874788 16711680
-0.13023163 -0.0027600396 -1.387283 16711680
-0.15563254 0.0078116935 -1.3822861 16711680
-0.15579215 0.010368057 -1.3819996 16711680
-0.13415577 -0.0051904647 -1.3888155 16711680
-0.1372222 -0.0065523311 -1.387836 16711680
-0.15387855 0.00045502558 -1.3844751 16711680
-0.15524916 0.0035743061 -1.3846802 16711680
-0.13691071 -0.0069685578 -1.391613 16711680
-0.14019272 -0.0077107884 -1.3899298 16711680
-0.14493187 -0.007941857 -1.3885956 16711680
-0.1500387 -0.0058201328 -1.3876191 16711680
-0.15340875 -0.0022145733 -1.3873318 16711680
-0.15557121 0.0010729358 -1.3876874 16711680
-0.14313768 -0.0092316475 -1.3925827 16711680
-0.14658216 -0.0088849477 -1.3915185 16711680
-0.1506668 -0.0072056223 -1.3907846 16711680
-0.15337855 -0.0049641598 -1.3905587 16711680
-0.1551221 -0.033503961 -1.4032772 16711680
-0.15822852 -0.031834055 -1.4020324 16711680
-0.16217308 -0.030184936 -1.4012575 16711680
-0.16572775 -0.029103052 -1.4011894 16711680
-0.15525378 -0.037479848 -1.4030874 16711680
-0.15893275 -0.035150576 -1.400982 16711680
-0.16365747 -0.033220515 -1.4000403 16711680
-0.16823173 -0.032030139 -1.4005022 16711680
-0.15609512 -0.041837372 -1.4044286 16711680
-0.17120725 -0.035605211 -1.4014529 16711680
-0.15939917 -0.045325361 -1.4062232 16711680
-0.16262896 -0.046904027 -1.4049702 16711680
-0.17042951 -0.043765787 -1.4033064 16711680
-0.17200749 -0.040159751 -1.4037459 16711680
-0.16211115 -0.046470661 -1.4081454 16711680
-0.16499116 -0.046373989 -1.406562 16711680
-0.16922244 -0.044613972 -1.4057311 16711680
-0.17168079 -0.04247674 -1.4062468 16711680
-0.13290453 0.020375289 -1.3741666 16711680
-0.13400279 0.020868026 -1.3740212 16711680
-0.12445906 0.011984154 -1.3752362 16711680
-0.12725531 0.015367663 -1.373935 16711680
-0.131052 0.018074948 -1.3726716 16711680
-0.13605194 0.020161416 -1.3716955 16711680
-0.14077087 0.020996794 -1.371269 16711680
-0.14535937 0.020672601 -1.3711134 16711680
-0.12256871 0.0062764781 -1.377376 16711680
-0.12325669 0.0091548953 -1.3770671 16711680
-0.14863051 0.019748617 -1.3720843 16711680
-0.15129884 0.01810981 -1.371662 16711680
-0.12311433 0.0027969321 -1.3793625 16711680
-0.1538793 0.015600528 -1.3733219 16711680
-0.12554215 -0.0014308672 -1.3812963 16711680
-0.15583406 0.01117472 -1.3753396 16711680
-0.12802926 -0.0043836851 -1.3817773 16711680
-0.13040063 -0.0049729189 -1.3833098 16711680
-0.15574101 0.0056916699 -1.3783711 16711680
-0.15635942 0.0074124224 -1.3763102 16711680
-0.13395002 -0.0074932668 -1.3834372 16711680
-0.13721742 -0.0077814609 -1.3848099 16711680
-0.15373722 -0.00090784952 -1.3815655 16711680
-0.15521877 0.0014003729 -1.3792642 16711680
-0.13666543 -0.010297652 -1.382634 16711680
-0.1402224 -0.0095659252 -1.3841499 16711680
-0.14476599 -0.0092744809 -1.3846048 16711680
-0.14975445 -0.0071385056 -1.3837062 16711680
-0.15281422 -0.004244064 -1.3816853 16711680
-0.15515727 -0.0026474893 -1.3789592 16711680
-0.14672026 -0.011125239 -1.3828466 16711680
-0.14922975 -0.010073097 -1.3823519 16711680
-0.15739663 -0.039815549 -1.4001733 16711680
-0.1601743 -0.038527738 -1.398558 16711680
-0.16436017 -0.036794461 -1.3977273 16711680
-0.16755383 -0.035566058 -1.3981826 16711680
-0.15812798 -0.042696882 -1.4003942 16711680
-0.16050914 -0.041964848 -1.3974612 16711680
-0.16602865 -0.039571643 -1.3963594 16711680
-0.16914481 -0.038125146 -1.3982074 16711680
-0.16011252 -0.045593128 -1.4018853 16711680
-0.16337457 -0.046394344 -1.4006277 16711680
-0.16835813 -0.044325121 -1.3996433 16711680
-0.17038801 -0.041334249 -1.3999736 16711680
-0.16548575 -0.046709519 -1.4034281 16711680
-0.16809134 -0.045628022 -1.4029163 16711680
-0.12343898 0.012969453 -1.367483 16711680
-0.12634879 0.015263323 -1.3672853 16711680
-0.13046837 0.017709903 -1.3668299 16711680
-0.13480052 0.019509323 -1.3659862 16711680
-0.1392407 0.020635914 -1.3647635 16711680
-0.14261945 0.021079421 -1.3635263 16711680
-0.12068953 0.0076148137 -1.3702581 16711680
-0.12280276 0.010703422 -1.3704832 16711680
-0.1262629 0.014285402 -1.3701055 16711680
-0.13072844 0.017187556 -1.3698324 16711680
-0.13599837 0.019375315 -1.3688062 16711680
-0.14092252 0.020378351 -1.367321 16711680
-0.14577658 0.020260407 -1.3659716 16711680
-0.14921452 0.019471537 -1.3646586 16711680
-0.12080772 0.0047473591 -1.3730931 16711680
-0.12236138 0.0083448077 -1.373793 16711680
-0.14880255 0.019307185 -1.3686585 16711680
-0.15207967 0.017677095 -1.366985 16711680
-0.12048929 -0.0019338215 -1.3736827 16711680
-0.12135954 0.00020134635 -1.3754452 16711680
-0.15553202 0.014412066 -1.368768 16711680
-0.15716287 0.012992252 -1.3666953 16711680
-0.1220535 -0.0050584609 -1.3750625 16711680
-0.12358466 -0.0040087085 -1.3773822 16711680
-0.15760671 0.010144735 -1.3707008 16711680
-0.1585855 0.010095328 -1.3679112 16711680
-0.12691391 -0.0077854488 -1.3787481 16711680
-0.13019492 -0.0076624006 -1.3811308 16711680
-0.15705147 0.0035251211 -1.3758199 16711680
-0.1585021 0.0053893393 -1.3724766 16711680
-0.12982808 -0.01133734 -1.3791164 16711680
-0.13280098 -0.010677721 -1.3809255 16711680
-0.1573226 -0.00044537336 -1.3761224 16711680
-0.15913653 0.00087694079 -1.3733575 16711680
-0.13207871 -0.014304793 -1.3790365 16711680
-0.13574173 -0.013871726 -1.3806548 16711680
-0.13977899 -0.012913654 -1.3820934 16711680
-0.14450762 -0.011878883 -1.3828753 16711680
-0.15117314 -0.0090692062 -1.381578 16711680
-0.15468687 -0.0067300759 -1.379181 16711680
-0.1575304 -0.0048043868 -1.3763753 16711680
-0.15968874 -0.0027937293 -1.3736055 16711680
-0.13856812 -0.016700964 -1.3802587 16711680
-0.14216599 -0.015861683 -1.3810573 16711680
-0.14663967 -0.014563438 -1.3813803 16711680
-0.15113106 -0.012694662 -1.3805023 16711680
-0.15477744 -0.010547558 -1.3786287 16711680
-0.15751663 -0.0088282451 -1.3765352 16711680
-0.14999811 -0.016742248 -1.379705 16711680
-0.1626115 -0.043191921 -1.3964832 16711680
-0.16549945 -0.042142231 -1.3959593 16711680
-0.16380566 -0.045016266 -1.3973458 16711680
-0.16606614 -0.044079367 -1.3969047 16711680
-0.12724259 0.022205904 -1.3572555 16711680
-0.13025947 0.023478314 -1.3566766 16711680
-0.12131325 0.015310569 -1.3608708 16711680
-0.12383743 0.017953774 -1.3603235 16711680
-0.1279068 0.020281522 -1.3599391 16711680
-0.13248676 0.022209743 -1.3590016 16711680
-0.13688518 0.023330374 -1.3578175 16711680
-0.1404791 0.023268724 -1.3571256 16711680
-0.11917593 0.009356793 -1.3639518 16711680
-0.12114343 0.012556959 -1.3639649 16711680
-0.12475413 0.015924778 -1.3638482 16711680
-0.12899895 0.018433494 -1.3633504 16711680
-0.13406412 0.020570019 -1.3622961 16711680
-0.13875614 0.021754421 -1.3610939 16711680
-0.14350232 0.021844199 -1.3595455 16711680
-0.14694968 0.020905891 -1.3585132 16711680
-0.11893347 0.0067463052 -1.3666507 16711680
-0.1208182 0.010234531 -1.3669469 16711680
-0.14620402 0.020792237 -1.3621762 16711680
-0.14974506 0.019585969 -1.3606237 16711680
-0.11804439 0.00033670664 -1.368709 16711680
-0.1187325 0.0029614083 -1.3693513 16711680
-0.15339758 0.01735105 -1.3625746 16711680
-0.15540464 0.015890924 -1.3613787 16711680
-0.11916946 -0.0029634433 -1.3710275 16711680
-0.11973073 -0.00015290733 -1.372455 16711680
-0.15585627 0.01490421 -1.3653234 16711680
-0.15770863 0.013060391 -1.3634272 16711680
-0.12114041 -0.0071514361 -1.3729199 16711680
-0.12330738 -0.0073297732 -1.3756878 16711680
-0.15953644 0.0076678749 -1.3686049 16711680
-0.15991777 0.008958023 -1.3653115 16711680
-0.12351617 -0.011110179 -1.3741306 16711680
-0.12529103 -0.010549206 -1.3761985 16711680
-0.16058294 0.0042396355 -1.369236 16711680
-0.16149589 0.0046739914 -1.3666222 16711680
-0.12548186 -0.014392674 -1.3744644 16711680
-0.12810473 -0.0143295 -1.3766489 16711680
-0.16155702 -0.00042590965 -1.3700008 16711680
-0.16257173 0.00097486656 -1.3671771 16711680
-0.13148764 -0.017556798 -1.3770002 16711680
-0.13469595 -0.017152116 -1.3787709 16711680
-0.15983871 -0.0066700466 -1.373845 16711680
-0.1616503 -0.0050677601 -1.3710737 16711680
-0.13405468 -0.02049017 -1.3764259 16711680
-0.13766816 -0.019857824 -1.3780754 16711680
-0.14202237 -0.01943088 -1.3790854 16711680
-0.14720933 -0.017821319 -1.3797351 16711680
-0.1524777 -0.015649717 -1.3786931 16711680
-0.15671878 -0.013332702 -1.3762128 16711680
-0.15952967 -0.010722622 -1.3738078 16711680
-0.16180271 -0.008905923 -1.3709829 16711680
-0.14423572 -0.021349862 -1.3778642 16711680
-0.14840053 -0.019968985 -1.3780721 16711680
-0.1526213 -0.018194932 -1.3772583 16711680
-0.15623175 -0.016326889 -1.3755255 16711680
-0.1206345 0.023890827 -1.3524079 16711680
-0.12363731 0.026768539 -1.3515686 16711680
-0.1280313 0.028584987 -1.350737 16711680
-0.1322792 0.028730718 -1.3501334 16711680
-0.11877187 0.018198974 -1.3548672 16711680
-0.12100008 0.020964148 -1.3551639 16711680
-0.12560762 0.023589477 -1.3551852 16711680
-0.1301568 0.025488425 -1.3542842 16711680
-0.13494661 0.026816497 -1.3523638 16711680
-0.1381931 0.026273536 -1.3510594 16711680
-0.119447 0.014799105 -1.3574311 16711680
-0.12186822 0.018437803 -1.3581212 16711680
-0.12530594 0.021148231 -1.3576404 16711680
-0.13287605 0.024306968 -1.3561252 16711680
-0.13708091 0.024754385 -1.3551472 16711680
-0.1408776 0.023770984 -1.3531907 16711680
-0.11842609 0.0083909873 -1.3605094 16711680
-0.11904127 0.011391087 -1.3596033 16711680
-0.14430262 0.021825172 -1.3545915 16711680
-0.14697814 0.020258406 -1.3548549 16711680
-0.11782634 0.0046753548 -1.362325 16711680
-0.15047438 0.018342657 -1.3560073 16711680
-0.11703205 -0.00087709725 -1.3648074 16711680
-0.11719174 0.0017589442 -1.3637706 16711680
-0.15339689 0.016789889 -1.3566444 16711680
-0.15564014 0.01519092 -1.357218 16711680
-0.11781356 -0.0055110957 -1.3668913 16711680
-0.15898488 0.011626612 -1.3587588 16711680
-0.11966997 -0.009773735 -1.3686749 16711680
-0.16129008 0.0075402353 -1.3604934 16711680
-0.12224214 -0.013612842 -1.3705149 16711680
-0.16286792 0.0032275077 -1.362528 16711680
-0.12527651 -0.01720446 -1.3718716 16711680
-0.12745208 -0.017669454 -1.3741411 16711680
-0.1634213 -0.0026826542 -1.3670567 16711680
-0.16379604 -0.0012596156 -1.3642735 16711680
-0.12766838 -0.020218031 -1.371835 16711680
-0.1302183 -0.020667307 -1.3737051 16711680
-0.16352828 -0.0067758337 -1.3671801 16711680
-0.16427149 -0.0048679374 -1.3646054 16711680
-0.13370958 -0.022941489 -1.3738832 16711680
-0.13715959 -0.0232911 -1.3750099 16711680
-0.14092328 -0.022479188 -1.3767883 16711680
-0.15880726 -0.015036099 -1.3732839 16711680
-0.16126643 -0.013217226 -1.3702655 16711680
-0.16285999 -0.010807594 -1.368207 16711680
-0.14009877 -0.024749592 -1.3744186 16711680
-0.14381728 -0.024346571 -1.375065 16711680
-0.14910565 -0.023720931 -1.3746415 16711680
-0.15364769 -0.021837108 -1.3737432 16711680
-0.15756926 -0.01862203 -1.3724328 16711680
-0.16012888 -0.01642197 -1.3705 16711680
-0.11724205 0.019355739 -1.3480921 16711680
-0.12026469 0.022500319 -1.3500661 16711680
-0.12403587 0.025205631 -1.3496307 16711680
-0.12822641 0.026919354 -1.3488107 16711680
-0.13268435 0.027657663 -1.3476211 16711680
-0.1361766 0.027248183 -1.3443662 16711680
-0.11713353 0.016919894 -1.3513622 16711680
-0.12112176 0.019056415 -1.3507444 16711680
-0.12561348 0.020538043 -1.3497 16711680
-0.13045642 0.022556031 -1.348749 16711680
-0.13473675 0.024719702 -1.3480728 16711680
-0.13899733 0.026019743 -1.3470666 16711680
-0.11634854 0.010800047 -1.3539187 16711680
-0.11767915 0.013486207 -1.3540378 16711680
-0.1216967 0.01673275 -1.3532059 16711680
-0.13674955 0.023008896 -1.3502645 16711680
-0.14186823 0.023557901 -1.349285 16711680
-0.14456488 0.022535836 -1.3484964 16711680
-0.11694965 0.0073537435 -1.3557847 16711680
-0.11882704 0.010382965 -1.3568735 16711680
-0.14418319 0.020932412 -1.3518894 16711680
-0.14720817 0.019828891 -1.3498123 16711680
-0.11766303 0.0026286244 -1.3579935 16711680
-0.1506585 0.016292688 -1.3516302 16711680
-0.11713052 -0.0030389708 -1.3604553 16711680
-0.11762317 -0.00087795686 -1.3586444 16711680
-0.15311444 0.013947753 -1.3515235 16711680
-0.15565054 0.012973262 -1.3528702 16711680
-0.11777895 -0.0075358972 -1.362366 16711680
-0.15894358 0.0095827337 -1.3542886 16711680
-0.11950931 -0.011788074 -1.3640939 16711680
-0.16129693 0.0055921488 -1.3559124 16711680
-0.12177025 -0.015580457 -1.3660035 16711680
-0.16304705 0.0015789289 -1.3579021 16711680
-0.12500824 -0.019655868 -1.3676021 16711680
-0.16424651 -0.0032981457 -1.359864 16711680
-0.12752593 -0.021963108 -1.3686097 16711680
-0.12965037 -0.023445774 -1.3693621 16711680
-0.16440509 -0.0089956876 -1.362553 16711680
-0.1645259 -0.0065790284 -1.3613327 16711680
-0.13336201 -0.025383934 -1.3700067 16711680
-0.13676813 -0.026446339 -1.3706658 16711680
-0.16228244 -0.015743988 -1.3657004 16711680
-0.16352956 -0.012835886 -1.3640902 16711680
-0.13969097 -0.027254123 -1.370621 16711680
-0.14444537 -0.02744237 -1.3709391 16711680
-0.14907774 -0.026680175 -1.3709708 16711680
-0.15450172 -0.024427723 -1.3699023 16711680
-0.1580576 -0.021791335 -1.3682168 16711680
-0.16089706 -0.018429801 -1.3664577 16711680
-0.15058276 -0.026969176 -1.3697802 16711680
-0.15332684 -0.025830317 -1.3692427 16711680
-0.11723188 0.018797174 -1.3463293 16711680
-0.11923072 0.020303698 -1.3443207 16711680
-0.12367258 0.02202931 -1.3424762 16711680
-0.12840968 0.023966031 -1.3416148 16711680
-0.13305095 0.026019346 -1.3415464 16711680
-0.13601105 0.026610078 -1.3426399 16711680
-0.11756163 0.015845574 -1.347307 16711680
-0.12009443 0.016762462 -1.3451898 16711680
-0.12512372 0.020541476 -1.3457743 16711680
-0.129558 0.022394607 -1.3449059 16711680
-0.13515852 0.022924783 -1.3422716 16711680
-0.13814443 0.024386069 -1.3432622 16711680
-0.11703575 0.0090618823 -1.3519661 16711680
-0.11876795 0.011153214 -1.3491473 16711680
-0.12191971 0.011677494 -1.3463039 16711680
-0.13784401 0.018387906 -1.3431721 16711680
-0.14123599 0.020513158 -1.3447775 16711680
-0.14441408 0.020847274 -1.346523 16711680
-0.11756521 0.0056480691 -1.3524818 16711680
-0.1205316 0.0065542851 -1.3497491 16711680
-0.12294573 0.0080832113 -1.3475308 16711680
-0.14008148 0.015178395 -1.3441868 16711680
-0.14338869 0.016178535 -1.3452743 16711680
-0.14685178 0.017730189 -1.3467189 16711680
-0.11872184 0.00082242675 -1.3532245 16711680
-0.12056839 0.0027096123 -1.3505046 16711680
-0.14623415 0.01338887 -1.3454697 16711680
-0.14959808 0.013723528 -1.3471484 16711680
-0.11800277 -0.0053058993 -1.3566309 16711680
-0.11858523 -0.003616225 -1.3544697 16711680
-0.15314755 0.010783723 -1.3476846 16711680
-0.15540779 0.010251272 -1.3492918 16711680
-0.11873709 -0.0090555623 -1.3575501 16711680
-0.11915466 -0.0074643251 -1.354143 16711680
-0.15544997 0.0074772481 -1.3470867 16711680
-0.15777671 0.0072361063 -1.3498812 16711680
-0.12035246 -0.013365133 -1.3594207 16711680
-0.16033839 0.0031948593 -1.3515835 16711680
-0.12264258 -0.017619016 -1.3613335 16711680
-0.16235527 -0.0009919079 -1.3535705 16711680
-0.1253884 -0.021274036 -1.3628535 16711680
-0.12736648 -0.023565348 -1.3615015 16711680
-0.16357526 -0.0085083954 -1.3548728 16711680
-0.16357866 -0.0053779278 -1.355364 16711680
-0.1275284 -0.023307446 -1.3647273 16711680
-0.12969773 -0.025110099 -1.3643243 16711680
-0.16388841 -0.010856003 -1.3576132 16711680
-0.16419297 -0.0080442503 -1.3575476 16711680
-0.13352181 -0.027180467 -1.3655306 16711680
-0.1365896 -0.028510835 -1.365559 16711680
