# .PCD v0.7 - Point Cloud Data file format
VERSION 0.7
FIELDS x y z rgb
SIZE 4 4 4 4
TYPE F F F U
COUNT 1 1 1 1
WIDTH 1111
HEIGHT 1
VIEWPOINT 0 0 0 1 0 0 0
POINTS 1111
DATA ascii
-0.31073591 -0.02812179 -1.4189012 16711680
-0.31436336 -0.027611328 -1.4207453 16711680
-0.3175168 -0.026244553 -1.4220643 16711680
-0.26040491 -0.019189969 -1.4186763 16711680
-0.2638 -0.021254819 -1.4170192 16711680
-0.30895981 -0.03183575 -1.4213041 16711680
-0.31253669 -0.031357326 -1.4235346 16711680
-0.26005268 -0.023550546 -1.4212793 16711680
-0.2628639 -0.025409337 -1.4196727 16711680
-0.30738604 -0.035915747 -1.4238268 16711680
-0.31044883 -0.035348739 -1.4259889 16711680
-0.2596696 -0.026728407 -1.42339 16711680
-0.26223287 -0.029671133 -1.422259 16711680
-0.30570367 -0.039811637 -1.4263109 16711680
-0.30876359 -0.038534261 -1.4280534 16711680
-0.26232415 -0.033876516 -1.4246404 16711680
-0.26347825 -0.036116101 -1.4232498 16711680
-0.30157924 -0.045019943 -1.4267861 16711680
-0.30335301 -0.043441512 -1.428459 16711680
-0.26221752 -0.036832042 -1.427229 16711680
-0.26330641 -0.039701473 -1.4264699 16711680
-0.29959998 -0.048165914 -1.4298239 16711680
-0.30168149 -0.046054084 -1.4309169 16711680
-0.26422676 -0.043992911 -1.4287766 16711680
-0.2654689 -0.04705745 -1.4280367 16711680
-0.29420742 -0.053721882 -1.4311342 16711680
-0.29650921 -0.05151087 -1.4318554 16711680
-0.26494482 -0.046410818 -1.4310564 16711680
-0.26685286 -0.049532246 -1.4311296 16711680
-0.26934439 -0.052068882 -1.4327402 16711680
-0.28773656 -0.056382243 -1.4344331 16711680
-0.29134452 -0.055248659 -1.4334131 16711680
-0.29438388 -0.053300727 -1.4337952 16711680
-0.27142802 -0.053556427 -1.4329561 16711680
-0.27568823 -0.055327665 -1.4337504 16711680
-0.28052855 -0.056461535 -1.4342024 16711680
-0.28526819 -0.056745522 -1.4342998 16711680
-0.28560075 0.027053155 -1.392694 16711680
-0.28903833 0.026565097 -1.3917748 16711680
-0.29364687 0.025732446 -1.3909189 16711680
-0.29848412 0.024936646 -1.3907536 16711680
-0.30332342 0.023800578 -1.3912033 16711680
-0.30792841 0.022366542 -1.3922446 16711680
-0.31221315 0.021075362 -1.3939151 16711680
-0.31528029 0.020138517 -1.3954917 16711680
-0.27910304 0.024073454 -1.3934839 16711680
-0.28303194 0.024050757 -1.3919193 16711680
-0.28740907 0.023995699 -1.390612 16711680
-0.29187435 0.023262642 -1.3895251 16711680
-0.30863291 0.019350985 -1.3910978 16711680
-0.31269243 0.018065846 -1.3929752 16711680
-0.31635067 0.016270861 -1.3950474 16711680
-0.31957445 0.014930306 -1.3973826 16711680
-0.2733874 0.021242626 -1.3951302 16711680
-0.27685159 0.021015525 -1.3933158 16711680
-0.28062582 0.020600483 -1.3913579 16711680
-0.31703338 0.012069223 -1.3947588 16711680
-0.32020959 0.010880463 -1.3973814 16711680
-0.32319328 0.0093761953 -1.3998957 16711680
-0.27106225 0.017594859 -1.3953477 16711680
-0.27454716 0.01688166 -1.3932979 16711680
-0.32041064 0.0061761104 -1.3975868 16711680
-0.32339811 0.0053257914 -1.4002117 16711680
-0.26669398 0.014367165 -1.3987405 16711680
-0.26897994 0.01345804 -1.3963691 16711680
-0.2725147 0.013620574 -1.3939204 16711680
-0.32066375 0.0023931982 -1.3984206 16711680
-0.3231931 0.00066742767 -1.4014007 16711680
-0.32525045 0.00065351557 -1.4042013 16711680
-0.26514888 0.010268229 -1.400153 16711680
-0.26725668 0.0089466181 -1.3978559 16711680
-0.32252467 -0.0039906832 -1.4030083 16711680
-0.32456735 -0.0036605233 -1.4057199 16711680
-0.26388791 0.0057625584 -1.4017588 16711680
-0.26588526 0.0044706035 -1.3997084 16711680
-0.3214556 -0.0085276226 -1.4049103 16711680
-0.32342333 -0.0081584202 -1.4073294 16711680
-0.26259765 0.0016377103 -1.4040385 16711680
-0.2650457 -0.00019316515 -1.4019293 16711680
-0.31982753 -0.012948308 -1.4070778 16711680
-0.32232779 -0.012242868 -1.4095124 16711680
-0.26192874 -0.0021953182 -1.4061252 16711680
-0.264384 -0.0042710034 -1.4045866 16711680
-0.26747766 -0.0065980246 -1.4036736 16711680
-0.3144891 -0.017575601 -1.4080511 16711680
-0.31801549 -0.016824743 -1.4095541 16711680
-0.32099742 -0.015857659 -1.4116549 16711680
-0.2614598 -0.0048920088 -1.4079007 16711680
-0.26374093 -0.0080200452 -1.4076838 16711680
-0.26744148 -0.010307487 -1.4063196 16711680
-0.31242669 -0.020816613 -1.4105206 16711680
-0.31645516 -0.020340832 -1.4126155 16711680
-0.31981248 -0.018536631 -1.4133883 16711680
-0.26389 -0.01147991 -1.4103709 16711680
-0.26705104 -0.014165403 -1.4094762 16711680
-0.26958457 -0.01670249 -1.4083419 16711680
-0.30733183 -0.025485408 -1.411772 16711680
-0.31053868 -0.024339281 -1.4135854 16711680
-0.31439614 -0.023354581 -1.4152322 16711680
-0.26669419 -0.018162899 -1.4123399 16711680
-0.26932165 -0.020253658 -1.4106051 16711680
-0.30563155 -0.028750621 -1.4140004 16711680
-0.30866876 -0.027887508 -1.4162858 16711680
-0.26607123 -0.022321381 -1.4149228 16711680
-0.2685551 -0.024321621 -1.4130486 16711680
-0.30403733 -0.032680213 -1.4163568 16711680
-0.30670068 -0.031931449 -1.4186569 16711680
-0.26522231 -0.02684355 -1.4173013 16711680
-0.26742306 -0.028624788 -1.4152542 16711680
-0.30281585 -0.036892351 -1.4185674 16711680
-0.30517024 -0.036177345 -1.4210293 16711680
-0.26445526 -0.031038009 -1.4195101 16711680
-0.26611868 -0.032912273 -1.417617 16711680
-0.30170465 -0.041180745 -1.4209754 16711680
-0.30355471 -0.040468771 -1.4234157 16711680
-0.26527372 -0.037166893 -1.4199884 16711680
-0.30009961 -0.045337662 -1.4232707 16711680
-0.26528737 -0.041819628 -1.4221642 16711680
-0.26646075 -0.045175783 -1.4212025 16711680
-0.29531676 -0.051949523 -1.4239236 16711680
-0.29775426 -0.049318504 -1.4252837 16711680
-0.26547045 -0.045169067 -1.4245466 16711680
-0.26633349 -0.047689412 -1.4243512 16711680
-0.29378828 -0.054102059 -1.4269087 16711680
-0.29566428 -0.05216562 -1.4273311 16711680
-0.26754862 -0.051416457 -1.4268426 16711680
-0.26946706 -0.054390427 -1.4272716 16711680
-0.287563 -0.058629077 -1.4289423 16711680
-0.29060268 -0.056843016 -1.4289942 16711680
-0.27138951 -0.055688102 -1.4286064 16711680
-0.2755523 -0.057645228 -1.4293182 16711680
-0.2804085 -0.058778673 -1.4297769 16711680
-0.28506574 -0.058890004 -1.429876 16711680
-0.2948418 0.022801222 -1.3891586 16711680
-0.29848021 0.021892807 -1.3889344 16711680
-0.30234316 0.02099606 -1.3893009 16711680
-0.30559546 0.020272087 -1.3900974 16711680
-0.28383446 0.020759199 -1.3901294 16711680
-0.28768232 0.020454368 -1.388865 16711680
-0.29248306 0.019901006 -1.3878088 16711680
-0.29738724 0.019339181 -1.387483 16711680
-0.30241567 0.018161843 -1.387955 16711680
-0.30707604 0.016601574 -1.3892658 16711680
-0.31120116 0.01496724 -1.3910728 16711680
-0.31445932 0.013638455 -1.3929768 16711680
-0.27815878 0.017734975 -1.3916419 16711680
-0.28188986 0.017543066 -1.3898757 16711680
-0.28596982 0.017111721 -1.3880311 16711680
-0.29010376 0.016974872 -1.3867488 16711680
-0.30792868 0.012786372 -1.3884182 16711680
-0.31142747 0.011105543 -1.3904334 16711680
-0.3149353 0.0099195195 -1.3930347 16711680
-0.31769234 0.0087240133 -1.395171 16711680
-0.27619782 0.014484091 -1.3921729 16711680
-0.2798731 0.013499349 -1.3900317 16711680
-0.28334594 0.013861666 -1.3880309 16711680
-0.31228998 0.0072097946 -1.3907468 16711680
-0.31489429 0.0053103035 -1.3933723 16711680
-0.3180958 0.0047155106 -1.3960786 16711680
-0.27098697 0.01099515 -1.3947595 16711680
-0.2743572 0.010312701 -1.3930782 16711680
-0.27767697 0.0089331688 -1.391104 16711680
-0.31455499 0.00029607955 -1.3945669 16711680
-0.31779709 0.00018793717 -1.3971809 16711680
-0.3206971 -0.00065700989 -1.3994181 16711680
-0.26956174 0.0069956249 -1.396154 16711680
-0.27310759 0.0056471201 -1.3943826 16711680
-0.27569932 0.0042309761 -1.3928469 16711680
-0.31392947 -0.004757775 -1.3964697 16711680
-0.31655216 -0.0045144437 -1.3984491 16711680
-0.31993222 -0.0046594627 -1.4007879 16711680
-0.2682538 0.0029931543 -1.3980465 16711680
-0.2718721 0.0011469601 -1.396355 16711680
-0.2744019 -0.00020749401 -1.3948517 16711680
-0.3127389 -0.0092269499 -1.3984666 16711680
-0.3153137 -0.0090002874 -1.4004148 16711680
-0.31898805 -0.0088071087 -1.4027288 16711680
-0.26753521 -0.0010341462 -1.4001808 16711680
-0.27059633 -0.0029312661 -1.3989632 16711680
-0.27350491 -0.0050049219 -1.3974704 16711680
-0.31099004 -0.01375358 -1.40098 16711680
-0.31416863 -0.013121145 -1.4030293 16711680
-0.31749585 -0.012687607 -1.4048295 16711680
-0.26744819 -0.0037507741 -1.4018022 16711680
-0.26984692 -0.0069104373 -1.401757 16711680
-0.27310684 -0.0092281289 -1.4000388 16711680
-0.30902642 -0.017613731 -1.4033967 16711680
-0.31262016 -0.016871378 -1.4057292 16711680
-0.31609547 -0.015179661 -1.4064068 16711680
-0.26971829 -0.010871101 -1.4043728 16711680
-0.27268562 -0.013222881 -1.4028932 16711680
-0.27522373 -0.015982926 -1.4020991 16711680
-0.30384129 -0.022641465 -1.4047612 16711680
-0.30710265 -0.021307154 -1.4061331 16711680
-0.31049731 -0.020312564 -1.4080529 16711680
-0.26970053 -0.013837008 -1.4063646 16711680
-0.2721844 -0.017011587 -1.405858 16711680
-0.27520689 -0.019352986 -1.4044452 16711680
-0.3018482 -0.025634732 -1.4069164 16711680
-0.30543283 -0.024776515 -1.4090204 16711680
-0.30883223 -0.023031931 -1.4100357 16711680
-0.27176195 -0.021238364 -1.4087483 16711680
-0.2751261 -0.023322169 -1.4070015 16711680
-0.27771658 -0.025560033 -1.4063911 16711680
-0.29670039 -0.029978003 -1.4081854 16711680
-0.29984215 -0.029138587 -1.409379 16711680
-0.30343685 -0.028547985 -1.4116623 16711680
-0.27111816 -0.025797673 -1.411227 16711680
-0.27428094 -0.02756555 -1.4095379 16711680
-0.27742347 -0.029050963 -1.4081969 16711680
-0.29506239 -0.03313987 -1.4098227 16711680
-0.29828727 -0.033115488 -1.4117708 16711680
-0.30150738 -0.032908075 -1.4140736 16711680
-0.26988205 -0.030237101 -1.4132829 16711680
-0.2729373 -0.031903218 -1.4114612 16711680
-0.27614188 -0.033013791 -1.4099804 16711680
-0.29412755 -0.037199143 -1.4116534 16711680
-0.29713607 -0.037581865 -1.4137031 16711680
-0.30028716 -0.037330125 -1.4161212 16711680
-0.26850253 -0.034656513 -1.4151419 16711680
-0.27121389 -0.036256298 -1.4130701 16711680
-0.27475953 -0.035695087 -1.4110527 16711680
-0.29397801 -0.040146846 -1.412835 16711680
-0.29650158 -0.042175204 -1.4154403 16711680
-0.29923716 -0.041832685 -1.4180244 16711680
-0.26748574 -0.039098423 -1.4169183 16711680
-0.26944247 -0.040652163 -1.4148334 16711680
-0.2958189 -0.04682697 -1.4173121 16711680
-0.29785654 -0.04618508 -1.4197485 16711680
-0.26676613 -0.042623598 -1.4190189 16711680
-0.26795197 -0.044994637 -1.417551 16711680
-0.29478067 -0.051191919 -1.4200497 16711680
-0.2965748 -0.049588714 -1.4218125 16711680
-0.26782346 -0.049265433 -1.420168 16711680
-0.29255003 -0.054983247 -1.4223642 16711680
-0.26855162 -0.053117637 -1.4221395 16711680
-0.26985526 -0.05595747 -1.4227096 16711680
-0.28740487 -0.060006514 -1.4242506 16711680
-0.2898272 -0.058099072 -1.4241135 16711680
-0.27182674 -0.057878215 -1.4241253 16711680
-0.27565834 -0.059767578 -1.4248441 16711680
-0.28018343 -0.060825866 -1.4252654 16711680
-0.28450286 -0.060843915 -1.4253099 16711680
-0.2930243 0.016616788 -1.3861438 16711680
-0.29711798 0.015805081 -1.3857241 16711680
-0.30144238 0.014744058 -1.3861097 16711680
-0.30495679 0.013862321 -1.3871655 16711680
-0.28694388 0.013823044 -1.3862634 16711680
-0.29105681 0.013762172 -1.3849877 16711680
-0.29599008 0.013100743 -1.3842838 16711680
-0.30142507 0.011883598 -1.3848064 16711680
-0.30604929 0.010266745 -1.3864329 16711680
-0.30942938 0.0084923552 -1.3883722 16711680
-0.28157875 0.010789879 -1.3883172 16711680
-0.2843824 0.010702826 -1.386142 16711680
-0.28817567 0.010744225 -1.3839489 16711680
-0.30735192 0.0062227957 -1.3857213 16711680
-0.31027865 0.0046089171 -1.3885329 16711680
-0.31237301 0.0035610544 -1.3911587 16711680
-0.27976128 0.0067855334 -1.388836 16711680
-0.28203237 0.0071955789 -1.3862975 16711680
-0.31079987 0.00041410513 -1.3890013 16711680
-0.31219745 -0.00086758286 -1.3919355 16711680
-0.27757129 0.0026769508 -1.3908042 16711680
-0.31195387 -0.0053503765 -1.3940256 16711680
-0.27640113 -0.0017849403 -1.3928182 16711680
-0.31065622 -0.0098133627 -1.3960351 16711680
-0.27601096 -0.0060935216 -1.3949559 16711680
-0.27776727 -0.009161748 -1.3937091 16711680
-0.30611897 -0.015728187 -1.3964193 16711680
-0.30875087 -0.013721325 -1.3980269 16711680
-0.27559769 -0.010121373 -1.3978357 16711680
-0.27774948 -0.012231085 -1.3962836 16711680
-0.3042154 -0.018473588 -1.3987392 16711680
-0.30691332 -0.017338471 -1.4007604 16711680
-0.27531382 -0.013294676 -1.4001653 16711680
-0.27780011 -0.016139952 -1.3994009 16711680
-0.28092486 -0.019001378 -1.3984238 16711680
-0.29806671 -0.022979897 -1.3999152 16711680
-0.3019551 -0.021794299 -1.4016722 16711680
-0.3052623 -0.020299381 -1.4029727 16711680
-0.27770528 -0.019777672 -1.4024473 16711680
-0.2812714 -0.022050224 -1.4011934 16711680
-0.28546381 -0.02461639 -1.4009888 16711680
-0.29121444 -0.025953095 -1.401522 16711680
-0.2959891 -0.025485886 -1.4025708 16711680
-0.29996362 -0.024932981 -1.4045217 16711680
-0.2776286 -0.023209585 -1.4050037 16711680
-0.28034759 -0.025481116 -1.4047209 16711680
-0.28497425 -0.027279235 -1.4039236 16711680
-0.28991297 -0.028491341 -1.4044365 16711680
-0.29471609 -0.028883548 -1.4061415 16711680
-0.29802707 -0.027983526 -1.4069315 16711680
-0.27981323 -0.029913422 -1.4075099 16711680
-0.2840555 -0.031140877 -1.4068903 16711680
-0.28853455 -0.032191031 -1.407312 16711680
-0.29269287 -0.032926448 -1.408715 16711680
-0.27821961 -0.034489691 -1.4095709 16711680
-0.28260326 -0.035957731 -1.4090501 16711680
-0.28730139 -0.037051901 -1.409488 16711680
-0.29172373 -0.037647787 -1.4108342 16711680
-0.27324924 -0.038756687 -1.411985 16711680
-0.2764596 -0.039060727 -1.4107875 16711680
-0.28115374 -0.040550966 -1.4101337 16711680
-0.28637525 -0.041757394 -1.4106202 16711680
-0.291089 -0.042493146 -1.4121763 16711680
-0.2939221 -0.043303628 -1.4138989 16711680
-0.27160704 -0.042382739 -1.4129907 16711680
-0.27515242 -0.043962691 -1.4112568 16711680
-0.2802006 -0.044881705 -1.4104489 16711680
-0.28531018 -0.046051569 -1.4109365 16711680
-0.28996572 -0.047421154 -1.4126452 16711680
-0.29347259 -0.047491398 -1.4150355 16711680
-0.27035382 -0.047231305 -1.414009 16711680
-0.27286661 -0.047679763 -1.4117818 16711680
-0.29025459 -0.051740136 -1.4134132 16711680
-0.29229915 -0.052329946 -1.4160775 16711680
-0.26960054 -0.051357783 -1.4160624 16711680
-0.27045843 -0.053268705 -1.4145701 16711680
-0.28941548 -0.057715744 -1.4163803 16711680
-0.29074609 -0.056310907 -1.4180427 16711680
-0.26951125 -0.054129209 -1.41834 16711680
-0.2707279 -0.057183038 -1.417986 16711680
-0.28686351 -0.060954724 -1.4195033 16711680
-0.28928018 -0.058653288 -1.4201279 16711680
-0.27235577 -0.059694551 -1.4198502 16711680
-0.27527592 -0.061504498 -1.419893 16711680
-0.28061911 -0.062753849 -1.4203905 16711680
-0.28392223 -0.062434826 -1.4209337 16711680
-0.29145131 0.010153111 -1.3827497 16711680
-0.29569653 0.0093702609 -1.3820583 16711680
-0.30043224 0.0082312291 -1.3824785 16711680
-0.30442551 0.0071285423 -1.3839697 16711680
-0.28555396 0.0075032543 -1.3830255 16711680
-0.28958446 0.0081473477 -1.3816029 16711680
-0.29435742 0.0072698249 -1.3803527 16711680
-0.30099398 0.0057217609 -1.3809735 16711680
-0.30537784 0.0044443663 -1.3830677 16711680
-0.30839938 0.0021847449 -1.385177 16711680
-0.28061807 0.0033086566 -1.3851441 16711680
-0.2824544 0.0048711821 -1.3836215 16711680
-0.3098768 -0.0015503233 -1.3861885 16711680
-0.31052062 -0.0034734244 -1.3878433 16711680
-0.27912104 0.00030801632 -1.3860657 16711680
-0.31037962 -0.0069953883 -1.388901 16711680
-0.27803233 -0.0042547705 -1.3882778 16711680
-0.30892748 -0.011511536 -1.3911599 16711680
-0.27802211 -0.0070847245 -1.3902874 16711680
-0.27860016 -0.0095525244 -1.3904966 16711680
-0.30571708 -0.015889928 -1.3930277 16711680
-0.30738217 -0.013924014 -1.3929541 16711680
-0.27987742 -0.013611701 -1.3928519 16711680
-0.28172916 -0.01656799 -1.3926301 16711680
-0.29957497 -0.020671032 -1.3942133 16711680
-0.30238411 -0.018884536 -1.3949666 16711680
-0.28030196 -0.016343862 -1.3961588 16711680
-0.2828539 -0.018989205 -1.3953546 16711680
-0.28674755 -0.022010801 -1.3953019 16711680
-0.29219019 -0.023285069 -1.3958377 16711680
-0.29695982 -0.022289788 -1.3966733 16711680
-0.30044493 -0.020801162 -1.3977902 16711680
-0.28361052 -0.021634385 -1.3985883 16711680
-0.28675988 -0.02342023 -1.3984911 16711680
-0.29109114 -0.02444908 -1.398964 16711680
-0.2945486 -0.024186071 -1.3996 16711680
-0.27632317 -0.047165338 -1.4105171 16711680
-0.28001472 -0.047697566 -1.4102401 16711680
-0.28422973 -0.048675548 -1.4106346 16711680
-0.28763813 -0.049822237 -1.4115717 16711680
-0.27418849 -0.050504062 -1.4101199 16711680
-0.27892044 -0.050912078 -1.4092062 16711680
-0.28394651 -0.052121781 -1.4096628 16711680
-0.28807899 -0.053705823 -1.4113852 16711680
-0.27200422 -0.05440129 -1.4113597 16711680
-0.28810501 -0.058218855 -1.4128592 16711680
-0.27212504 -0.05894383 -1.4137379 16711680
-0.27404791 -0.062197972 -1.413282 16711680
-0.28234556 -0.064245775 -1.4139282 16711680
-0.28553727 -0.06215607 -1.4149922 16711680
-0.27309883 -0.06122477 -1.4162303 16711680
-0.27579463 -0.062946588 -1.4154692 16711680
-0.28031078 -0.064002961 -1.4158922 16711680
-0.28332534 -0.063604936 -1.4171692 16711680
-0.29726049 0.006463035 -1.3800195 16711680
-0.29843578 0.0062253345 -1.3801992 16711680
-0.28559047 0.004530549 -1.3783026 16711680
-0.29003921 0.0055673495 -1.377997 16711680
-0.29486933 0.0054869931 -1.3779488 16711680
-0.30020836 0.0042447969 -1.3784546 16711680
-0.30447194 0.0021978356 -1.3793372 16711680
-0.30789971 -0.00069341063 -1.3803738 16711680
-0.28030208 0.0011675768 -1.3795083 16711680
-0.28256953 0.003093347 -1.3795722 16711680
-0.30967444 -0.0032092603 -1.3821111 16711680
-0.31091738 -0.0061079878 -1.3823036 16711680
-0.27823046 -0.001778923 -1.3813466 16711680
-0.31107053 -0.0094539635 -1.3844233 16711680
-0.27720854 -0.0064123357 -1.3835822 16711680
-0.30954525 -0.013971204 -1.386603 16711680
-0.27732909 -0.010187764 -1.3845146 16711680
-0.27845457 -0.011861017 -1.3865769 16711680
-0.30556312 -0.018082254 -1.3891538 16711680
-0.3075496 -0.017240867 -1.38744 16711680
-0.27973989 -0.015924171 -1.387475 16711680
-0.28177652 -0.017877953 -1.3896381 16711680
-0.2994099 -0.022000507 -1.3912892 16711680
-0.30246666 -0.021195456 -1.3896077 16711680
-0.28044501 -0.019839786 -1.3872403 16711680
-0.28325754 -0.021111421 -1.3896811 16711680
-0.28685132 -0.023412269 -1.3913323 16711680
-0.29219043 -0.024599593 -1.3919128 16711680
-0.29674357 -0.024185477 -1.3909528 16711680
-0.30016893 -0.02449479 -1.3890443 16711680
-0.28775045 -0.026214374 -1.3900374 16711680
-0.29043415 -0.026834309 -1.390287 16711680
-0.27524519 -0.053927485 -1.4077313 16711680
-0.27855372 -0.054622356 -1.4069872 16711680
-0.28301913 -0.055674698 -1.4073967 16711680
-0.28609943 -0.056442849 -1.408752 16711680
-0.27410394 -0.056672212 -1.4079559 16711680
-0.27711397 -0.057729863 -1.4058039 16711680
-0.28306553 -0.059030231 -1.4063447 16711680
-0.28586221 -0.059433792 -1.409034 16711680
-0.27361265 -0.060012151 -1.409732 16711680
-0.27600858 -0.062650695 -1.4093289 16711680
-0.28132701 -0.063898496 -1.4098214 16711680
-0.28454465 -0.062579066 -1.4108605 16711680
-0.27677152 -0.063822523 -1.4125608 16711680
-0.27955124 -0.064474918 -1.4128211 16711680
-0.28730235 0.0051215198 -1.3706309 16711680
-0.29093722 0.0053174794 -1.3713495 16711680
-0.29566693 0.0049233399 -1.3721477 16711680
-0.30028751 0.0038404297 -1.3725873 16711680
-0.30470049 0.0021082368 -1.3726484 16711680
-0.30789757 0.00042107515 -1.3723735 16711680
-0.28138846 0.0026004557 -1.3722444 16711680
-0.28475353 0.003941454 -1.3732104 16711680
-0.28960249 0.0048569683 -1.373981 16711680
-0.29481789 0.0046564043 -1.3750743 16711680
-0.30043802 0.0033381246 -1.3756093 16711680
-0.30522278 0.0012028646 -1.375537 16711680
-0.30927479 -0.0017933603 -1.3755069 16711680
-0.31182876 -0.0045275874 -1.3750974 16711680
-0.27912319 0.00048346817 -1.3748256 16711680
-0.28222585 0.0026066545 -1.3761334 16711680
-0.3104122 -0.0040179417 -1.3788302 16711680
-0.31244767 -0.0073840078 -1.3779786 16711680
-0.27488807 -0.0047269259 -1.3748912 16711680
-0.27635202 -0.0032993965 -1.3769507 16711680
-0.31281507 -0.011830175 -1.3803986 16711680
-0.31378856 -0.0141288 -1.3787429 16711680
-0.2739659 -0.0080254804 -1.3764353 16711680
-0.27518159 -0.0078026792 -1.3791372 16711680
-0.31149548 -0.016295012 -1.3825382 16711680
-0.3129279 -0.017177731 -1.3801066 16711680
-0.27526337 -0.012639042 -1.3810915 16711680
-0.2772941 -0.014161615 -1.3842562 16711680
-0.30597767 -0.020856902 -1.3869064 16711680
-0.30901596 -0.020503212 -1.3841856 16711680
-0.27540061 -0.017157841 -1.3819901 16711680
-0.27764323 -0.018125974 -1.3845551 16711680
-0.30383152 -0.024220183 -1.3870202 16711680
-0.30669668 -0.024456203 -1.384918 16711680
-0.27546889 -0.020868056 -1.3823192 16711680
-0.27816677 -0.022433253 -1.3848678 16711680
-0.2815029 -0.023801355 -1.3873748 16711680
-0.28558621 -0.025567472 -1.389436 16711680
-0.29271898 -0.027200088 -1.3901157 16711680
-0.2974008 -0.027535876 -1.3888785 16711680
-0.30142516 -0.027869545 -1.3870454 16711680
-0.30495548 -0.027740335 -1.3850721 16711680
-0.27884227 -0.026390657 -1.3850524 16711680
-0.28192797 -0.027671188 -1.3868202 16711680
-0.28607884 -0.029124204 -1.3883891 16711680
-0.29087195 -0.030244626 -1.388842 16711680
-0.29541582 -0.030759038 -1.3881314 16711680
-0.29906204 -0.031128857 -1.3869437 16711680
-0.28786278 -0.03298448 -1.3875228 16711680
-0.27829164 -0.060027458 -1.4053383 16711680
-0.28127614 -0.060867712 -1.4056591 16711680
-0.27795783 -0.062107336 -1.4063685 16711680
-0.28036785 -0.06267412 -1.406597 16711680
-0.29813352 0.0094477069 -1.3623621 16711680
-0.30136019 0.0087102186 -1.3626779 16711680
-0.28864634 0.0075647142 -1.3638519 16711680
-0.29226896 0.0082293879 -1.3641543 16711680
-0.29687351 0.007774109 -1.3650002 16711680
-0.30178466 0.0066457018 -1.3654228 16711680
-0.30615205 0.0049363505 -1.3655096 16711680
-0.30908999 0.0027703606 -1.3657849 16711680
-0.28278852 0.0042377785 -1.3658835 16711680
-0.28615722 0.0057310108 -1.366614 16711680
-0.2909351 0.0064128153 -1.3676621 16711680
-0.2958087 0.0059937853 -1.3684562 16711680
-0.30124685 0.0047473256 -1.3689071 16711680
-0.30588415 0.0029211026 -1.3690577 16711680
-0.31002128 0.00013540126 -1.3688205 16711680
-0.31242642 -0.0026973877 -1.3686745 16711680
-0.28042397 0.002521744 -1.3682549 16711680
-0.28382289 0.0043261107 -1.3692542 16711680
-0.31086335 -0.0019909963 -1.3719983 16711680
-0.31331772 -0.0051489975 -1.3713592 16711680
-0.27553278 -0.001992058 -1.3696014 16711680
-0.27741647 -0.00017605908 -1.3705652 16711680
-0.31439099 -0.008851286 -1.3740581 16711680
-0.31541505 -0.011307149 -1.373343 16711680
-0.27393261 -0.0050878897 -1.3719229 16711680
-0.27562776 -0.0029677246 -1.373621 16711680
-0.31421259 -0.01196557 -1.3771983 16711680
-0.3150709 -0.014718184 -1.3757441 16711680
-0.27258795 -0.0094331019 -1.374001 16711680
-0.2734811 -0.010528334 -1.3772249 16711680
-0.31210029 -0.01962865 -1.3808724 16711680
-0.31396306 -0.019129883 -1.3778825 16711680
-0.27186108 -0.013891355 -1.3755436 16711680
-0.27304876 -0.014231825 -1.3780367 16711680
-0.31078762 -0.022956988 -1.3815405 16711680
-0.31240273 -0.023389488 -1.3792912 16711680
-0.27142277 -0.017654184 -1.3761765 16711680
-0.27295595 -0.018871449 -1.3789735 16711680
-0.30867404 -0.027240088 -1.3822409 16711680
-0.31097636 -0.026963364 -1.3798767 16711680
-0.27364922 -0.023393828 -1.3799993 16711680
-0.27593833 -0.024707858 -1.3825734 16711680
-0.30278483 -0.03096427 -1.3850993 16711680
-0.30581072 -0.030971173 -1.3830078 16711680
-0.27410737 -0.02730687 -1.3799376 16711680
-0.27687338 -0.028678069 -1.3825158 16711680
-0.28025848 -0.030703776 -1.3846602 16711680
-0.28506225 -0.032275155 -1.3867507 16711680
-0.29067585 -0.033607356 -1.387269 16711680
-0.29593256 -0.034383576 -1.3861413 16711680
-0.30022451 -0.034099199 -1.3847283 16711680
-0.30374652 -0.03419916 -1.38272 16711680
-0.2811859 -0.033654019 -1.3839463 16711680
-0.28517243 -0.034875643 -1.3853283 16711680
-0.28968421 -0.035912827 -1.3857658 16711680
-0.29400447 -0.036620107 -1.3851638 16711680
-0.29516631 0.014086423 -1.3560623 16711680
-0.29936975 0.014640225 -1.3562241 16711680
-0.30404529 0.013537265 -1.3566928 16711680
-0.30758983 0.011177434 -1.3572379 16711680
-0.28982866 0.010753294 -1.3575839 16711680
-0.29307953 0.011772262 -1.3586287 16711680
-0.29817286 0.011295121 -1.3600254 16711680
-0.3030341 0.010164076 -1.3604733 16711680
-0.30800989 0.0083259456 -1.3599671 16711680
-0.31055385 0.0059022009 -1.3595309 16711680
-0.28775921 0.0078572035 -1.3600171 16711680
-0.29156402 0.0095194113 -1.3615463 16711680
-0.29592043 0.0097259581 -1.3621572 16711680
-0.3040131 0.0078411885 -1.362887 16711680
-0.30779117 0.0057137161 -1.3630793 16711680
-0.31067395 0.0025507621 -1.3621323 16711680
-0.28251085 0.0035240091 -1.3623111 16711680
-0.28494099 0.005529372 -1.3617884 16711680
-0.31187376 -0.00084246323 -1.36426 16711680
-0.3129921 -0.0036163218 -1.3651191 16711680
-0.2794539 0.0010190718 -1.3636689 16711680
-0.31432688 -0.0070509724 -1.3670281 16711680
-0.27502295 -0.0028058123 -1.3655025 16711680
-0.27692169 -0.00085172988 -1.3647113 16711680
-0.3155522 -0.0099157076 -1.3683128 16711680
-0.3162376 -0.012438152 -1.369355 16711680
-0.27244735 -0.0068186186 -1.3674241 16711680
-0.31640974 -0.017092086 -1.371495 16711680
-0.27099779 -0.011170721 -1.3693627 16711680
-0.31542343 -0.021560712 -1.3735154 16711680
-0.27033517 -0.015578682 -1.3715705 16711680
-0.31366521 -0.025769498 -1.3756193 16711680
-0.27029589 -0.020097142 -1.3734498 16711680
-0.27115574 -0.021482181 -1.376178 16711680
-0.30956659 -0.030443661 -1.379755 16711680
-0.31137288 -0.029780485 -1.3772631 16711680
-0.27043688 -0.023920935 -1.3738548 16711680
-0.2716974 -0.02554702 -1.376298 16711680
-0.30726686 -0.033831984 -1.3796457 16711680
-0.3095867 -0.032961473 -1.3774817 16711680
-0.27306619 -0.029371034 -1.3772452 16711680
-0.27527136 -0.031504009 -1.3792155 16711680
-0.27822533 -0.032800958 -1.3819684 16711680
-0.29731396 -0.037261624 -1.3837638 16711680
-0.3010307 -0.037485518 -1.3816183 16711680
-0.30417225 -0.03663661 -1.3802061 16711680
-0.27687126 -0.034427013 -1.3793278 16711680
-0.27983838 -0.036147762 -1.3809532 16711680
-0.28442433 -0.038689569 -1.3819755 16711680
-0.28927064 -0.039828613 -1.382423 16711680
-0.29450166 -0.039570477 -1.3823942 16711680
-0.29824406 -0.039429389 -1.3813441 16711680
-0.29099712 0.011874305 -1.3507305 16711680
-0.29466522 0.012922512 -1.3536232 16711680
-0.29926714 0.012939781 -1.3543651 16711680
-0.30372226 0.011869922 -1.354785 16711680
-0.30791768 0.0098141655 -1.3548582 16711680
-0.31121799 0.0071598906 -1.352617 16711680
-0.28869432 0.010283042 -1.3536981 16711680
-0.29318416 0.0096939951 -1.3542858 16711680
-0.29779673 0.0082404353 -1.3545544 16711680
-0.30296776 0.0070342626 -1.3550388 16711680
-0.30771542 0.0062952042 -1.3556489 16711680
-0.31203392 0.0048288908 -1.3558822 16711680
-0.28392604 0.0059974343 -1.3555698 16711680
-0.28647661 0.0074444693 -1.3562026 16711680
-0.29168072 0.0077226479 -1.3566617 16711680
-0.30775198 0.0039782207 -1.3581815 16711680
-0.31230086 0.0014135335 -1.3586189 16711680
-0.31401199 -0.001035545 -1.3585047 16711680
-0.28194693 0.0030341484 -1.3573086 16711680
-0.28487793 0.0045492686 -1.3590406 16711680
-0.31194398 -0.0017795432 -1.3615708 16711680
-0.3141866 -0.0046137646 -1.3602972 16711680
-0.27923459 -0.0010014474 -1.3593271 16711680
-0.3143878 -0.0092764702 -1.3627337 16711680
-0.27494657 -0.0050713439 -1.3612025 16711680
-0.27702549 -0.0037735607 -1.3597238 16711680
-0.31498048 -0.012598265 -1.36313 16711680
-0.31605944 -0.014698641 -1.3650326 16711680
-0.27238938 -0.0089142956 -1.362931 16711680
-0.31632185 -0.019193897 -1.3670518 16711680
-0.27086157 -0.013191842 -1.3647835 16711680
-0.31545579 -0.023623087 -1.3689843 16711680
-0.26996589 -0.017377466 -1.3669794 16711680
-0.31401518 -0.027690092 -1.371109 16711680
-0.26974669 -0.022381824 -1.3691148 16711680
-0.31165603 -0.032151535 -1.373008 16711680
-0.27013028 -0.025593959 -1.3706026 16711680
-0.27074519 -0.027935594 -1.3717929 16711680
-0.30783242 -0.03661583 -1.375282 16711680
-0.30962074 -0.034837432 -1.3742902 16711680
-0.27236202 -0.031563058 -1.3732682 16711680
-0.2742404 -0.034300562 -1.3747321 16711680
-0.30151284 -0.040592674 -1.3773315 16711680
-0.30455872 -0.039094009 -1.3762913 16711680
-0.27606475 -0.036627363 -1.375407 16711680
-0.27958134 -0.039453585 -1.3769519 16711680
-0.28362072 -0.041464109 -1.3782486 16711680
-0.28940865 -0.042821597 -1.3787872 16711680
-0.29411611 -0.042866003 -1.3782645 16711680
-0.29870045 -0.041918565 -1.3775282 16711680
-0.28492525 -0.042678118 -1.3774798 16711680
-0.28785232 -0.04336514 -1.3777552 16711680
-0.29110938 0.011243897 -1.3489956 16711680
-0.29403526 0.011130374 -1.3476816 16711680
-0.29894939 0.0098223872 -1.3471819 16711680
-0.30396885 0.0086193029 -1.3477197 16711680
-0.30878219 0.0076470226 -1.3490031 16711680
-0.31115434 0.006556727 -1.3508713 16711680
-0.28942546 0.00874779 -1.3498389 16711680
-0.29245567 0.0078381952 -1.3485237 16711680
-0.2983996 0.0081201512 -1.3506459 16711680
-0.30313686 0.0070204157 -1.351092 16711680
-0.30846447 0.0039968584 -1.3500617 16711680
-0.31138277 0.0035917368 -1.3518922 16711680
-0.28395131 0.0039882399 -1.3537617 16711680
-0.28720823 0.0044207331 -1.3516341 16711680
-0.29067683 0.0027642697 -1.3497581 16711680
-0.30772433 -0.0011411235 -1.3513508 16711680
-0.3111867 -0.001172578 -1.3539218 16711680
-0.31341803 -0.0025295746 -1.3564591 16711680
-0.28227296 0.00095405802 -1.3541837 16711680
-0.28578895 -0.00027395226 -1.3523893 16711680
-0.28910372 -0.00062694773 -1.3509841 16711680
-0.30736932 -0.0049293581 -1.3527153 16711680
-0.31024867 -0.0058836751 -1.3546948 16711680
-0.31347707 -0.0064401105 -1.3570937 16711680
-0.28021517 -0.0035658199 -1.3549006 16711680
-0.28341913 -0.0033548623 -1.3528856 16711680
-0.31081372 -0.0097591132 -1.3554565 16711680
-0.31320688 -0.011228241 -1.3579785 16711680
-0.27528065 -0.007808866 -1.3576076 16711680
-0.27724639 -0.0069826618 -1.3557856 16711680
-0.31414884 -0.015591871 -1.3592441 16711680
-0.31520167 -0.01714791 -1.3613527 16711680
-0.2734679 -0.011192374 -1.3584509 16711680
-0.27556044 -0.010480182 -1.3553798 16711680
-0.31419232 -0.019661229 -1.3590668 16711680
-0.31516722 -0.020895883 -1.3623544 16711680
-0.27178186 -0.015436731 -1.3604068 16711680
-0.31441474 -0.025476933 -1.364414 16711680
-0.27064291 -0.020015223 -1.3625845 16711680
-0.31308293 -0.029837612 -1.3665954 16711680
-0.27030149 -0.024404533 -1.3645412 16711680
-0.27086437 -0.027538136 -1.363616 16711680
-0.3093881 -0.036532026 -1.3676994 16711680
-0.31106678 -0.033929192 -1.3683692 16711680
-0.27033138 -0.027089695 -1.3667808 16711680
-0.27108651 -0.029836213 -1.3668505 16711680
-0.30759713 -0.038345419 -1.3702734 16711680
-0.30946666 -0.036231 -1.3704664 16711680
-0.27257439 -0.033578046 -1.3688879 16711680
-0.27419308 -0.036406271 -1.3696387 16711680
-0.30145133 -0.042808454 -1.3721198 16711680
-0.30432767 -0.040938176 -1.3718665 16711680
-0.27615851 -0.038686212 -1.3711212 16711680
-0.2794483 -0.041746516 -1.3721993 16711680
-0.28261638 -0.043834709 -1.3729573 16711680
-0.29030234 -0.04556457 -1.3737961 16711680
-0.29411736 -0.045102052 -1.3736688 16711680
-0.2985487 -0.043841645 -1.3732916 16711680
-0.2845023 -0.044441488 -1.3736964 16711680
-0.28813049 -0.045285899 -1.3740481 16711680
-0.29508206 0.0095230136 -1.3445101 16711680
-0.29939255 0.0088633671 -1.3434882 16711680
-0.30376548 0.0078751445 -1.3438697 16711680
-0.30768171 0.0065768138 -1.3456826 16711680
-0.29404533 0.0061701182 -1.3464053 16711680
-0.29790393 0.0047523025 -1.3458016 16711680
-0.30288613 0.0035781711 -1.3462752 16711680
-0.30678579 0.0031740405 -1.347609 16711680
-0.2929599 0.0015200172 -1.3487443 16711680
-0.29667488 9.8505989e-05 -1.3479985 16711680
-0.30150974 -0.0010229275 -1.3484465 16711680
-0.30524826 -0.0014247801 -1.3499025 16711680
-0.28660333 -0.0037257858 -1.3507391 16711680
-0.29066929 -0.0034580268 -1.3499553 16711680
-0.29535231 -0.0048403908 -1.3488616 16711680
-0.3003673 -0.0060220379 -1.3493329 16711680
-0.30488989 -0.0068361815 -1.3513012 16711680
-0.30813003 -0.0088814069 -1.3526061 16711680
-0.28116342 -0.0067654885 -1.3520635 16711680
-0.28418255 -0.0062045287 -1.3500584 16711680
-0.28963131 -0.0065359175 -1.3487365 16711680
-0.29377919 -0.007471405 -1.3483528 16711680
-0.30021822 -0.0089546591 -1.3488984 16711680
-0.30464199 -0.010090137 -1.3501209 16711680
-0.30941364 -0.012120718 -1.352429 16711680
-0.31149405 -0.013797477 -1.3550047 16711680
-0.27858636 -0.0098997355 -1.3522139 16711680
-0.2815395 -0.0095625482 -1.3499031 16711680
-0.31031835 -0.016227415 -1.3526396 16711680
-0.31229585 -0.017777734 -1.3553386 16711680
-0.27423933 -0.013761066 -1.3553039 16711680
-0.27570868 -0.013574619 -1.3531253 16711680
-0.31304801 -0.022352241 -1.3565744 16711680
-0.31394237 -0.022975961 -1.3591161 16711680
-0.27292904 -0.017803172 -1.3563169 16711680
-0.27384588 -0.018609328 -1.3541112 16711680
-0.31232262 -0.027606333 -1.3577014 16711680
-0.31312102 -0.027141474 -1.3600866 16711680
-0.27179652 -0.021929245 -1.358466 16711680
-0.27249229 -0.023596162 -1.3566812 16711680
-0.31084052 -0.032735758 -1.3605375 16711680
-0.31191221 -0.031314865 -1.3622744 16711680
-0.27117798 -0.025347028 -1.3609381 16711680
-0.27191988 -0.027644258 -1.3598632 16711680
-0.30907682 -0.036284484 -1.363384 16711680
-0.31050736 -0.034551587 -1.3646085 16711680
-0.272506 -0.031955127 -1.3625174 16711680
-0.27433187 -0.035400465 -1.3615055 16711680
-0.30321547 -0.042132262 -1.36409 16711680
-0.30621058 -0.039773766 -1.3656882 16711680
-0.2733638 -0.034851484 -1.3646438 16711680
-0.27534789 -0.037877478 -1.3647468 16711680
-0.27806494 -0.040985543 -1.3639942 16711680
-0.29704982 -0.04541906 -1.3658419 16711680
-0.30058986 -0.04383444 -1.3671898 16711680
-0.3037127 -0.041992445 -1.3674028 16711680
-0.27687073 -0.040064901 -1.3670319 16711680
-0.27963096 -0.042711053 -1.3673506 16711680
-0.28392643 -0.045480676 -1.3681538 16711680
-0.28921235 -0.046699807 -1.3686886 16711680
-0.2943241 -0.046142004 -1.3687168 16711680
-0.29785424 -0.045038667 -1.3689617 16711680
-0.2852723 -0.045778781 -1.3708184 16711680
-0.28701776 -0.046283673 -1.3708444 16711680
-0.29640275 -0.0080342796 -1.3483168 16711680
-0.29821149 -0.00843562 -1.348497 16711680
-0.28493041 -0.0095637348 -1.3477532 16711680
-0.28933337 -0.0099464636 -1.3468043 16711680
-0.29424593 -0.010502204 -1.3465418 16711680
-0.29923236 -0.011624854 -1.3470274 16711680
-0.30374441 -0.01333419 -1.3481361 16711680
-0.30766723 -0.014830088 -1.3498955 16711680
-0.27979532 -0.01257156 -1.3497554 16711680
-0.2829684 -0.012770435 -1.3476019 16711680
-0.28713253 -0.012957755 -1.3458405 16711680
-0.30454969 -0.017021075 -1.3474683 16711680
-0.30799273 -0.018671084 -1.3499265 16711680
-0.31045479 -0.019823475 -1.3525654 16711680
-0.27773026 -0.016470313 -1.3501576 16711680
-0.28059304 -0.016872745 -1.3478966 16711680
-0.30823085 -0.023316372 -1.3504676 16711680
-0.3105858 -0.024090042 -1.3532658 16711680
-0.27565095 -0.020579932 -1.3515339 16711680
-0.31030384 -0.028674748 -1.3547436 16711680
-0.27426964 -0.02510524 -1.3536845 16711680
-0.30917701 -0.033242587 -1.3569319 16711680
-0.27406895 -0.029514633 -1.3558431 16711680
-0.27575549 -0.032251388 -1.3547897 16711680
-0.30404955 -0.039331477 -1.3574246 16711680
-0.3070285 -0.03722823 -1.3589381 16711680
-0.27413818 -0.033087052 -1.358696 16711680
-0.27616334 -0.035668522 -1.3577619 16711680
-0.27908969 -0.038830023 -1.3573267 16711680
-0.30211204 -0.04172397 -1.360086 16711680
-0.30484432 -0.040299546 -1.3615103 16711680
-0.27700788 -0.03861209 -1.3606983 16711680
-0.28028181 -0.041561306 -1.3603803 16711680
-0.28444073 -0.044061128 -1.3602108 16711680
-0.29072851 -0.045530532 -1.3608049 16711680
-0.2955648 -0.045089375 -1.3618194 16711680
-0.29967776 -0.043825328 -1.3627266 16711680
-0.28087705 -0.043182392 -1.3633249 16711680
-0.28474194 -0.045274582 -1.3633155 16711680
-0.28943327 -0.04635784 -1.3637416 16711680
-0.29378954 -0.046169158 -1.3645465 16711680
-0.29034552 -0.013242435 -1.3450904 16711680
-0.29386818 -0.013908662 -1.3447517 16711680
-0.29851317 -0.014954729 -1.3452181 16711680
-0.30176103 -0.015955035 -1.3461504 16711680
-0.28436628 -0.015931373 -1.3459699 16711680
-0.28819099 -0.016336041 -1.3444138 16711680
-0.29284993 -0.016526558 -1.3434169 16711680
-0.29844829 -0.017816568 -1.3439606 16711680
-0.30240899 -0.019659409 -1.3457456 16711680
-0.30567473 -0.020926235 -1.3479656 16711680
-0.27899691 -0.019920522 -1.3485088 16711680
-0.28231648 -0.019465687 -1.3466096 16711680
-0.2856701 -0.020493342 -1.3445491 16711680
-0.30278388 -0.024485484 -1.3461643 16711680
-0.30581078 -0.024956018 -1.3488075 16711680
-0.30820322 -0.026796535 -1.3512586 16711680
-0.27767012 -0.022974018 -1.3494817 16711680
-0.28080702 -0.023921423 -1.3474346 16711680
-0.283454 -0.025488075 -1.3458172 16711680
-0.30228558 -0.029538505 -1.3473876 16711680
-0.30506819 -0.029656753 -1.3497589 16711680
-0.30787122 -0.030028205 -1.3523228 16711680
-0.27654022 -0.026816228 -1.3510932 16711680
-0.27946132 -0.028560923 -1.3491827 16711680
-0.28237817 -0.030420855 -1.3480425 16711680
-0.30066356 -0.034739248 -1.3497754 16711680
-0.30385578 -0.034313299 -1.3514911 16711680
-0.30688438 -0.033890516 -1.3539226 16711680
-0.27597639 -0.03019857 -1.3530762 16711680
-0.27836674 -0.032461457 -1.3521427 16711680
-0.28242087 -0.034802396 -1.3507688 16711680
-0.28582349 -0.037589058 -1.3512287 16711680
-0.29423651 -0.039314739 -1.3518665 16711680
-0.29823437 -0.038526997 -1.3522713 16711680
-0.3026002 -0.038121659 -1.3544031 16711680
-0.30553043 -0.037093956 -1.3558069 16711680
-0.27855787 -0.036126927 -1.354919 16711680
-0.28187266 -0.038220216 -1.3541822 16711680
-0.28668004 -0.040162012 -1.3535546 16711680
-0.2916292 -0.041385781 -1.354099 16711680
-0.29657191 -0.041701172 -1.3555919 16711680
-0.30052638 -0.04117268 -1.3570409 16711680
-0.28187859 -0.041005507 -1.3574266 16711680
-0.28582507 -0.04304003 -1.3576052 16711680
-0.29038534 -0.044099871 -1.3580042 16711680
-0.29482388 -0.044030085 -1.3586358 16711680
-0.28949684 -0.019599197 -1.3419335 16711680
-0.29276535 -0.01975432 -1.3412126 16711680
-0.29743725 -0.02084871 -1.3416504 16711680
-0.30026987 -0.022105375 -1.3429556 16711680
-0.2875739 -0.022583634 -1.3426641 16711680
-0.29149607 -0.023987053 -1.3412442 16711680
-0.29671824 -0.02519054 -1.3417321 16711680
-0.30052498 -0.025624299 -1.3439047 16711680
-0.28573856 -0.026794598 -1.3446165 16711680
-0.29005888 -0.028589495 -1.3432424 16711680
-0.295573 -0.029886648 -1.3437631 16711680
-0.29992172 -0.030134292 -1.3459558 16711680
-0.28481725 -0.030906215 -1.3469775 16711680
-0.28915948 -0.032621719 -1.3461663 16711680
-0.2940498 -0.033860147 -1.3466991 16711680
-0.29857683 -0.034119524 -1.3482974 16711680
-0.28459024 -0.034410354 -1.3492644 16711680
-0.28797996 -0.036342248 -1.3494718 16711680
-0.29284334 -0.037432317 -1.3498725 16711680
-0.29681557 -0.03717301 -1.3503361 16711680
-0.28789952 -0.038594052 -1.3514663 16711680
-0.29161182 -0.039457198 -1.3518065 16711680
-0.39905199 -0.10486 -1.4991601 65280
-0.39614001 -0.10486 -1.4991601 65280
-0.39322701 -0.10486 -1.4991601 65280
-0.39031401 -0.10486 -1.4991601 65280
-0.38740101 -0.10486 -1.4991601 65280
-0.38448799 -0.10486 -1.4991601 65280
-0.381576 -0.10486 -1.4991601 65280
-0.378663 -0.10486 -1.4991601 65280
-0.37575001 -0.10486 -1.4991601 65280
-0.37283701 -0.10486 -1.4991601 65280
-0.36992401 -0.10486 -1.4991601 65280
-0.36701199 -0.10486 -1.4991601 65280
-0.364099 -0.10486 -1.4991601 65280
-0.361186 -0.10486 -1.4991601 65280
-0.358273 -0.10486 -1.4991601 65280
-0.35536101 -0.10486 -1.4991601 65280
-0.35244799 -0.10486 -1.4991601 65280
-0.34953499 -0.10486 -1.4991601 65280
-0.34662199 -0.10486 -1.4991601 65280
-0.34370899 -0.10486 -1.4991601 65280
-0.34079701 -0.10486 -1.4991601 65280
-0.33788401 -0.10486 -1.4991601 65280
-0.33497101 -0.10486 -1.4991601 65280
-0.33205801 -0.10486 -1.4991601 65280
-0.32914501 -0.10486 -1.4991601 65280
-0.326233 -0.10486 -1.4991601 65280
-0.32332 -0.10486 -1.4991601 65280
-0.320407 -0.10486 -1.4991601 65280
-0.317494 -0.10486 -1.4991601 65280
-0.31458101 -0.10486 -1.4991601 65280
-0.31166899 -0.10486 -1.4991601 65280
-0.30875599 -0.10486 -1.4991601 65280
-0.305843 -0.10486 -1.4991601 65280
-0.30293 -0.10486 -1.4991601 65280
-0.300017 -0.10486 -1.4991601 65280
-0.29710501 -0.10486 -1.4991601 65280
-0.29419199 -0.10486 -1.4991601 65280
-0.29127899 -0.10486 -1.4991601 65280
-0.28836599 -0.10486 -1.4991601 65280
-0.28545299 -0.10486 -1.4991601 65280
-0.28254101 -0.10486 -1.4991601 65280
-0.27962801 -0.10486 -1.4991601 65280
-0.27671501 -0.10486 -1.4991601 65280
-0.27380201 -0.10486 -1.4991601 65280
-0.27089 -0.10486 -1.4991601 65280
-0.267977 -0.10486 -1.4991601 65280
-0.265064 -0.10486 -1.4991601 65280
-0.262151 -0.10486 -1.4991601 65280
-0.259238 -0.10486 -1.4991601 65280
-0.25632599 -0.10486 -1.4991601 65280
-0.25341299 -0.10486 -1.4991601 65280
-0.25049999 -0.10486 -1.4991601 65280
-0.247587 -0.10486 -1.4991601 65280
-0.244674 -0.10486 -1.4991601 65280
-0.241762 -0.10486 -1.4991601 65280
-0.238849 -0.10486 -1.4991601 65280
-0.235936 -0.10486 -1.4991601 65280
-0.233023 -0.10486 -1.4991601 65280
-0.23011 -0.10486 -1.4991601 65280
-0.227198 -0.10486 -1.4991601 65280
-0.22428501 -0.10486 -1.4991601 65280
-0.22137199 -0.10486 -1.4991601 65280
-0.218459 -0.10486 -1.4991601 65280
-0.215547 -0.10486 -1.4991601 65280
-0.212634 -0.10486 -1.4991601 65280
-0.209721 -0.10486 -1.4991601 65280
-0.206808 -0.10486 -1.4991601 65280
-0.203895 -0.10486 -1.4991601 65280
-0.200983 -0.10486 -1.4991601 65280
-0.19807 -0.10486 -1.4991601 65280
-0.19515701 -0.10486 -1.4991601 65280
-0.19224399 -0.10486 -1.4991601 65280
-0.189331 -0.10486 -1.4991601 65280
-0.186419 -0.10486 -1.4991601 65280
-0.183506 -0.10486 -1.4991601 65280
-0.180593 -0.10486 -1.4991601 65280
-0.17768 -0.10486 -1.4991601 65280
-0.174767 -0.10486 -1.4991601 65280
-0.171855 -0.10486 -1.4991601 65280
-0.168942 -0.10486 -1.4991601 65280
-0.16602901 -0.10486 -1.4991601 65280
-0.16311599 -0.10486 -1.4991601 65280
-0.16020399 -0.10486 -1.4991601 65280
-0.157291 -0.10486 -1.4991601 65280
-0.154378 -0.10486 -1.4991601 65280
-0.151465 -0.10486 -1.4991601 65280
-0.148552 -0.10486 -1.4991601 65280
-0.14564 -0.10486 -1.4991601 65280
-0.142727 -0.10486 -1.4991601 65280
-0.139814 -0.10486 -1.4991601 65280
-0.13690101 -0.10486 -1.4991601 65280
-0.13398799 -0.10486 -1.4991601 65280
-0.13107599 -0.10486 -1.4991601 65280
-0.12816299 -0.10486 -1.4991601 65280
-0.12525 -0.10486 -1.4991601 65280
-0.122337 -0.10486 -1.4991601 65280
-0.119424 -0.10486 -1.4991601 65280
-0.116512 -0.10486 -1.4991601 65280
-0.113599 -0.10486 -1.4991601 65280
-0.110686 -0.10486 -1.4991601 65280
-0.107773 -0.10486 -1.4991601 65280
-0.10486 -0.10486 -1.4991601 65280
-0.101948 -0.10486 -1.4991601 65280
-0.099034898 -0.10486 -1.4991601 65280
-0.096122101 -0.10486 -1.4991601 65280
-0.093209296 -0.10486 -1.4991601 65280
-0.090296499 -0.10486 -1.4991601 65280
-0.087383702 -0.10486 -1.4991601 65280
-0.084470898 -0.10486 -1.4991601 65280
-0.081558101 -0.10486 -1.4991601 65280
-0.078645401 -0.10486 -1.4991601 65280
-0.075732604 -0.10486 -1.4991601 65280
-0.072819799 -0.10486 -1.4991601 65280
-0.069907002 -0.10486 -1.4991601 65280
-0.066994198 -0.10486 -1.4991601 65280
-0.064081401 -0.10486 -1.4991601 65280
-0.0611686 -0.10486 -1.4991601 65280
-0.058255799 -0.10486 -1.4991601 65280
-0.055342998 -0.10486 -1.4991601 65280
-0.052430201 -0.10486 -1.4991601 65280
-0.049517401 -0.10486 -1.4991601 65280
-0.0466047 -0.10486 -1.4991601 65280
-0.0436919 -0.10486 -1.4991601 65280
-0.040779099 -0.10486 -1.4991601 65280
-0.037866302 -0.10486 -1.4991601 65280
-0.034953501 -0.10486 -1.4991601 65280
-0.0320407 -0.10486 -1.4991601 65280
-0.0291279 -0.10486 -1.4991601 65280
-0.026215101 -0.10486 -1.4991601 65280
-0.0233023 -0.10486 -1.4991601 65280
-0.020389499 -0.10486 -1.4991601 65280
-0.0174767 -0.10486 -1.4991601 65280
-0.014564 -0.10486 -1.4991601 65280
-0.0116512 -0.10486 -1.4991601 65280
-0.0087383697 -0.10486 -1.4991601 65280
-0.0058255801 -0.10486 -1.4991601 65280
-0.00291279 -0.10486 -1.4991601 65280
0 -0.10486 -1.4991601 65280
0.00291279 -0.10486 -1.4991601 65280
0.0058255801 -0.10486 -1.4991601 65280
0.0087383697 -0.10486 -1.4991601 65280
0.0116512 -0.10486 -1.4991601 65280
0.014564 -0.10486 -1.4991601 65280
0.0174767 -0.10486 -1.4991601 65280
0.020389499 -0.10486 -1.4991601 65280
0.0233023 -0.10486 -1.4991601 65280
0.026215101 -0.10486 -1.4991601 65280
0.0291279 -0.10486 -1.4991601 65280
0.0320407 -0.10486 -1.4991601 65280
0.034953501 -0.10486 -1.4991601 65280
0.037866302 -0.10486 -1.4991601 65280
0.040779099 -0.10486 -1.4991601 65280
0.0436919 -0.10486 -1.4991601 65280
0.0466047 -0.10486 -1.4991601 65280
0.049517401 -0.10486 -1.4991601 65280
0.052430201 -0.10486 -1.4991601 65280
0.055342998 -0.10486 -1.4991601 65280
0.058255799 -0.10486 -1.4991601 65280
0.0611686 -0.10486 -1.4991601 65280
0.064081401 -0.10486 -1.4991601 65280
0.066994198 -0.10486 -1.4991601 65280
0.069907002 -0.10486 -1.4991601 65280
0.072819799 -0.10486 -1.4991601 65280
0.075732604 -0.10486 -1.4991601 65280
0.078645401 -0.10486 -1.4991601 65280
0.081558101 -0.10486 -1.4991601 65280
0.084470898 -0.10486 -1.4991601 65280
0.087383702 -0.10486 -1.4991601 65280
0.090296499 -0.10486 -1.4991601 65280
0.093209296 -0.10486 -1.4991601 65280
0.096122101 -0.10486 -1.4991601 65280
0.099034898 -0.10486 -1.4991601 65280
0.101948 -0.10486 -1.4991601 65280
0.10486 -0.10486 -1.4991601 65280
0.107773 -0.10486 -1.4991601 65280
0.110686 -0.10486 -1.4991601 65280
0.113599 -0.10486 -1.4991601 65280
0.116512 -0.10486 -1.4991601 65280
0.119424 -0.10486 -1.4991601 65280
0.122337 -0.10486 -1.4991601 65280
0.12525 -0.10486 -1.4991601 65280
0.12816299 -0.10486 -1.4991601 65280
0.13107599 -0.10486 -1.4991601 65280
0.13398799 -0.10486 -1.4991601 65280
0.13690101 -0.10486 -1.4991601 65280
0.139814 -0.10486 -1.4991601 65280
0.142727 -0.10486 -1.4991601 65280
0.14564 -0.10486 -1.4991601 65280
0.148552 -0.10486 -1.4991601 65280
0.151465 -0.10486 -1.4991601 65280
0.154378 -0.10486 -1.4991601 65280
0.157291 -0.10486 -1.4991601 65280
0.16020399 -0.10486 -1.4991601 65280
0.16311599 -0.10486 -1.4991601 65280
0.16602901 -0.10486 -1.4991601 65280
0.168942 -0.10486 -1.4991601 65280
0.171855 -0.10486 -1.4991601 65280
0.174767 -0.10486 -1.4991601 65280
0.17768 -0.10486 -1.4991601 65280
0.180593 -0.10486 -1.4991601 65280
0.183506 -0.10486 -1.4991601 65280
0.186419 -0.10486 -1.4991601 65280
0.189331 -0.10486 -1.4991601 65280
0.19224399 -0.10486 -1.4991601 65280
0.19515701 -0.10486 -1.4991601 65280
0.19807 -0.10486 -1.4991601 65280
0.200983 -0.10486 -1.4991601 65280
0.203895 -0.10486 -1.4991601 65280
0.206808 -0.10486 -1.4991601 65280
0.209721 -0.10486 -1.4991601 65280
0.212634 -0.10486 -1.4991601 65280
0.215547 -0.10486 -1.4991601 65280
0.218459 -0.10486 -1.4991601 65280
0.22137199 -0.10486 -1.4991601 65280
0.22428501 -0.10486 -1.4991601 65280
0.227198 -0.10486 -1.4991601 65280
0.23011 -0.10486 -1.4991601 65280
0.233023 -0.10486 -1.4991601 65280
0.235936 -0.10486 -1.4991601 65280
0.238849 -0.10486 -1.4991601 65280
0.241762 -0.10486 -1.4991601 65280
0.244674 -0.10486 -1.4991601 65280
0.247587 -0.10486 -1.4991601 65280
0.25049999 -0.10486 -1.4991601 65280
0.25341299 -0.10486 -1.4991601 65280
0.25632599 -0.10486 -1.4991601 65280
0.259238 -0.10486 -1.4991601 65280
0.262151 -0.10486 -1.4991601 65280
0.265064 -0.10486 -1.4991601 65280
0.267977 -0.10486 -1.4991601 65280
0.27089 -0.10486 -1.4991601 65280
0.27380201 -0.10486 -1.4991601 65280
0.27671501 -0.10486 -1.4991601 65280
0.27962801 -0.10486 -1.4991601 65280
0.28254101 -0.10486 -1.4991601 65280
0.28545299 -0.10486 -1.4991601 65280
