# .PCD v0.7 - Point Cloud Data file format
VERSION 0.7
FIELDS x y z rgb
SIZE 4 4 4 4
TYPE F F F U
COUNT 1 1 1 1
WIDTH 1079
HEIGHT 1
VIEWPOINT 0 0 0 1 0 0 0
POINTS 1079
DATA ascii
-0.13163587 0.030953787 -1.432512 16711680
-0.12692539 0.031985894 -1.4312403 16711680
-0.12288374 0.03251674 -1.4297274 16711680
-0.17444108 0.022217803 -1.4343339 16711680
-0.17127021 0.024201391 -1.4344721 16711680
-0.1666497 0.02599722 -1.4347452 16711680
-0.16176651 0.027361047 -1.4343287 16711680
-0.15699805 0.028683979 -1.4337037 16711680
-0.15221922 0.030007727 -1.4330704 16711680
-0.14742616 0.031324692 -1.4324397 16711680
-0.1426499 0.032658376 -1.4318005 16711680
-0.1378637 0.033974815 -1.431162 16711680
-0.13304213 0.035306074 -1.4302927 16711680
-0.12832938 0.036139712 -1.4287269 16711680
-0.12480381 0.035996672 -1.4277352 16711680
-0.17470336 0.025291273 -1.4324756 16711680
-0.17224959 0.028030377 -1.4318287 16711680
-0.16821676 0.030172225 -1.4321377 16711680
-0.16335589 0.031665258 -1.4321097 16711680
-0.15845364 0.033000898 -1.4316541 16711680
-0.15368527 0.034342803 -1.4310573 16711680
-0.14889753 0.035671432 -1.4304208 16711680
-0.14412643 0.036970869 -1.4297537 16711680
-0.13928755 0.038330387 -1.42892 16711680
-0.1345146 0.039471306 -1.4277138 16711680
-0.13021195 0.039666422 -1.426296 16711680
-0.12657778 0.038650356 -1.4260627 16711680
-0.17194031 0.031205786 -1.4297546 16711680
-0.16919938 0.033902504 -1.4292169 16711680
-0.16478738 0.035572067 -1.4295672 16711680
-0.16009083 0.037287995 -1.4292665 16711680
-0.1551483 0.03859663 -1.4288539 16711680
-0.15036787 0.039924655 -1.4282173 16711680
-0.14552207 0.041327506 -1.4273325 16711680
-0.14073636 0.042278565 -1.4263529 16711680
-0.1363278 0.042996328 -1.4248952 16711680
-0.13252428 0.042148028 -1.4245076 16711680
-0.16909608 0.03708598 -1.4270316 16711680
-0.16600026 0.039503451 -1.4266644 16711680
-0.16137178 0.041136619 -1.4267489 16711680
-0.15662734 0.042685956 -1.4263235 16711680
-0.15184085 0.044017222 -1.4256855 16711680
-0.14702019 0.045070276 -1.4248775 16711680
-0.14237276 0.046045359 -1.4235321 16711680
-0.13849898 0.045561489 -1.4229711 16711680
-0.16584352 0.042706255 -1.4243767 16711680
-0.16249053 0.04471264 -1.4238946 16711680
-0.15806541 0.046500161 -1.4233397 16711680
-0.15329766 0.047816984 -1.4227095 16711680
-0.14858967 0.048571188 -1.4220433 16711680
-0.14467087 0.048564248 -1.4215707 16711680
-0.15820545 0.048590116 -1.4213793 16711680
-0.15498814 0.049492214 -1.4209534 16711680
-0.14519759 -0.021234687 -1.4491554 16711680
-0.14095569 -0.020398544 -1.4493253 16711680
-0.13644047 -0.019228119 -1.4491391 16711680
-0.13166717 -0.017914236 -1.448504 16711680
-0.1272939 -0.016550262 -1.4475309 16711680
-0.12344464 -0.015191166 -1.4462858 16711680
-0.15525404 -0.019200489 -1.4479882 16711680
-0.15162608 -0.019104265 -1.4489892 16711680
-0.14706773 -0.018274132 -1.4498402 16711680
-0.14245704 -0.016562715 -1.4502009 16711680
-0.13747793 -0.015164677 -1.4499615 16711680
-0.13272618 -0.013763893 -1.4493392 16711680
-0.1278154 -0.012580425 -1.4482597 16711680
-0.12322506 -0.011672948 -1.4466881 16711680
-0.11919351 -0.010138625 -1.4446898 16711680
-0.11640672 -0.0084825251 -1.4428489 16711680
-0.16135643 -0.016188009 -1.4465138 16711680
-0.15779112 -0.016309718 -1.4478326 16711680
-0.15330558 -0.0150641 -1.4493494 16711680
-0.14873019 -0.013981501 -1.4502041 16711680
-0.14357434 -0.013371971 -1.4503982 16711680
-0.12833345 -0.0091303959 -1.4483676 16711680
-0.12388828 -0.007104259 -1.4469103 16711680
-0.11972359 -0.0057072807 -1.444876 16711680
-0.11583085 -0.0047382414 -1.4423001 16711680
-0.11318032 -0.0028732251 -1.4401009 16711680
-0.16380234 -0.01316143 -1.4462315 16711680
-0.1598181 -0.011948541 -1.4478321 16711680
-0.15575573 -0.011311285 -1.4491796 16711680
-0.11966753 -0.00134617 -1.4443972 16711680
-0.1163206 9.7010285e-05 -1.4420673 16711680
-0.11280976 0.00083798263 -1.4394941 16711680
-0.16893777 -0.010073148 -1.4441915 16711680
-0.16588494 -0.009097632 -1.4458851 16711680
-0.16206542 -0.00775484 -1.4472876 16711680
-0.11677732 0.0048085516 -1.4413071 16711680
-0.11321367 0.0055306479 -1.4388908 16711680
-0.11055191 0.0061094062 -1.4363883 16711680
-0.17089848 -0.0060267225 -1.44313 16711680
-0.16778535 -0.0046688439 -1.445156 16711680
-0.16404006 -0.0049331272 -1.4465213 16711680
-0.11660688 0.0081102941 -1.4402261 16711680
-0.11410622 0.010181759 -1.4380747 16711680
-0.11125953 0.010374999 -1.4352515 16711680
-0.17259611 -0.0017152596 -1.4417697 16711680
-0.17021067 -0.00025279447 -1.4436347 16711680
-0.11466266 0.015151622 -1.4362682 16711680
-0.11235391 0.014897723 -1.4337708 16711680
-0.17407988 0.0028110463 -1.4401224 16711680
-0.17187238 0.0041120937 -1.4419721 16711680
-0.11603351 0.019858211 -1.4345084 16711680
-0.1138453 0.019465715 -1.4321482 16711680
-0.1755254 0.0072257598 -1.4381366 16711680
-0.17347015 0.0087809814 -1.4398783 16711680
-0.11753345 0.024581958 -1.4323133 16711680
-0.1153567 0.023851618 -1.4301701 16711680
-0.17697169 0.011311591 -1.4358226 16711680
-0.17498654 0.013196355 -1.4375812 16711680
-0.11895908 0.028691044 -1.4301544 16711680
-0.11680324 0.027968477 -1.4278529 16711680
-0.17809626 0.015539747 -1.4334507 16711680
-0.17622413 0.017443156 -1.4351566 16711680
-0.12068181 0.032818343 -1.4277928 16711680
-0.11851261 0.031915434 -1.4255563 16711680
-0.17900111 0.019442273 -1.4308891 16711680
-0.17700991 0.021621879 -1.4325304 16711680
-0.12288297 0.036676981 -1.4253815 16711680
-0.12043252 0.035649762 -1.4231364 16711680
-0.17964329 0.022453668 -1.4284883 16711680
-0.17763728 0.025473204 -1.4294705 16711680
-0.17441805 0.028179804 -1.4305418 16711680
-0.12874569 0.040839031 -1.4244763 16711680
-0.12492433 0.04002662 -1.4224973 16711680
-0.1220013 0.038398772 -1.4208655 16711680
-0.17789567 0.029156126 -1.4264076 16711680
-0.17452402 0.031723537 -1.427532 16711680
-0.17150736 0.034312431 -1.4276816 16711680
-0.13496958 0.044425923 -1.4228661 16711680
-0.13121356 0.043720897 -1.4218255 16711680
-0.12737601 0.043173455 -1.4196936 16711680
-0.17777199 0.032274246 -1.4237437 16711680
-0.17521426 0.03489244 -1.4240283 16711680
-0.17126508 0.037579868 -1.4251921 16711680
-0.16839042 0.040190093 -1.4251246 16711680
-0.14108676 0.047726858 -1.4215146 16711680
-0.13740778 0.046936709 -1.420735 16711680
-0.13300787 0.046547823 -1.4184388 16711680
-0.12963247 0.045561548 -1.4173822 16711680
-0.17480773 0.03786131 -1.4215248 16711680
-0.17212614 0.040673219 -1.4216381 16711680
-0.1681778 0.043224059 -1.4225689 16711680
-0.16410746 0.045915883 -1.4222475 16711680
-0.1604031 0.04777481 -1.4216881 16711680
-0.15230677 0.050005395 -1.4206132 16711680
-0.14824928 0.050321963 -1.4201207 16711680
-0.14343412 0.050062325 -1.4192966 16711680
-0.13911623 0.049818195 -1.4172567 16711680
-0.13568194 0.0489274 -1.416111 16711680
-0.17193688 0.04359347 -1.4187289 16711680
-0.16877915 0.046165366 -1.4187663 16711680
-0.16440645 0.048344664 -1.4191829 16711680
-0.15966369 0.05005319 -1.4191206 16711680
-0.15478109 0.05140445 -1.4184734 16711680
-0.14999641 0.052334759 -1.4172767 16711680
-0.14540642 0.052649088 -1.4156888 16711680
-0.14149456 0.052060757 -1.4146572 16711680
-0.16778143 0.048641603 -1.4159644 16711680
-0.16486435 0.050234426 -1.4157827 16711680
-0.16059235 0.051978428 -1.4154204 16711680
-0.15596673 0.053266 -1.4148034 16711680
-0.15139608 0.053965189 -1.4139972 16711680
-0.14806432 0.054070193 -1.41338 16711680
-0.13949919 -0.026270937 -1.4458709 16711680
-0.13524118 -0.025014348 -1.4459258 16711680
-0.13051248 -0.023699157 -1.4453044 16711680
-0.12669162 -0.022663668 -1.4442827 16711680
-0.15364064 -0.025516178 -1.4452866 16711680
-0.15024485 -0.024680045 -1.4468123 16711680
-0.1456556 -0.024474964 -1.4474696 16711680
-0.14064908 -0.023996018 -1.447597 16711680
-0.13569693 -0.022716835 -1.4475341 16711680
-0.13091825 -0.021378394 -1.4469094 16711680
-0.12605357 -0.019957066 -1.445646 16711680
-0.12174203 -0.017863253 -1.4442717 16711680
-0.11800963 -0.015874336 -1.4424734 16711680
-0.11519717 -0.014898658 -1.4401907 16711680
-0.15998015 -0.022587869 -1.4442908 16711680
-0.15633568 -0.022434745 -1.4460744 16711680
-0.15242073 -0.022227027 -1.4476032 16711680
-0.14810818 -0.021691807 -1.4487845 16711680
-0.12091139 -0.014195222 -1.445194 16711680
-0.11736234 -0.01259597 -1.4429793 16711680
-0.11422755 -0.010748334 -1.4404224 16711680
-0.1117893 -0.0090065859 -1.4381056 16711680
-0.16614029 -0.01953592 -1.4427339 16711680
-0.16264392 -0.019472111 -1.4445797 16711680
-0.15900983 -0.01927631 -1.446426 16711680
-0.11363424 -0.0064829271 -1.4404351 16711680
-0.11106718 -0.0053264862 -1.4378301 16711680
-0.10844496 -0.0035361275 -1.4350423 16711680
-0.16795839 -0.016487624 -1.4428892 16711680
-0.16507502 -0.01620459 -1.4448147 16711680
-0.11055927 -0.001012519 -1.4375967 16711680
-0.10846837 -4.222244e-05 -1.434979 16711680
-0.17038922 -0.012408819 -1.4419591 16711680
-0.16745459 -0.012750447 -1.4446307 16711680
-0.1104032 0.0029841298 -1.437112 16711680
-0.10874748 0.0046326765 -1.4337682 16711680
-0.17276046 -0.0083689019 -1.4398994 16711680
-0.10933889 0.0091849975 -1.4315065 16711680
-0.17460167 -0.0041541401 -1.4380592 16711680
-0.11039454 0.013627164 -1.4295441 16711680
-0.17621686 0.00015750714 -1.4362174 16711680
-0.11170222 0.018065747 -1.4276564 16711680
-0.17768331 0.0045301365 -1.4341941 16711680
-0.11318028 0.022416171 -1.4256091 16711680
-0.1789875 0.0088339839 -1.431919 16711680
-0.11482745 0.026603485 -1.4234059 16711680
-0.17995766 0.013205399 -1.429749 16711680
-0.11676624 0.030711465 -1.4213665 16711680
-0.18060103 0.017785512 -1.4276121 16711680
-0.11907923 0.034831855 -1.4195018 16711680
-0.18103415 0.022131419 -1.4252096 16711680
-0.17999968 0.02466253 -1.4265391 16711680
-0.12331174 0.04036995 -1.4190159 16711680
-0.12150382 0.038635738 -1.4173273 16711680
-0.18150039 0.025354996 -1.4224765 16711680
-0.18027322 0.028030401 -1.4235412 16711680
-0.12547633 0.04317721 -1.4162186 16711680
-0.12339523 0.041443113 -1.4147547 16711680
-0.18001616 0.031780954 -1.4206854 16711680
-0.17744249 0.034794807 -1.4215494 16711680
-0.13158582 0.047380194 -1.4154582 16711680
-0.12832461 0.046104051 -1.4138333 16711680
-0.17995811 0.034687582 -1.4178433 16711680
-0.17725228 0.037714399 -1.4183362 16711680
-0.17455332 0.040664993 -1.4187646 16711680
-0.13786928 0.05089806 -1.4138343 16711680
-0.13417692 0.049661268 -1.4125755 16711680
-0.13053602 0.048382979 -1.4113016 16711680
-0.17670532 0.040376332 -1.4152294 16711680
-0.1739687 0.043435007 -1.4155877 16711680
-0.17074612 0.046497419 -1.4159279 16711680
-0.14480063 0.053765606 -1.4125131 16711680
-0.14041269 0.052694704 -1.4111677 16711680
-0.13671026 0.051439799 -1.4099232 16711680
-0.17324522 0.045596614 -1.4127312 16711680
-0.17003068 0.048293948 -1.4128135 16711680
-0.16609451 0.050840691 -1.4123025 16711680
-0.16148128 0.052923501 -1.4116921 16711680
-0.15649453 0.054292507 -1.4110595 16711680
-0.15155649 0.054886319 -1.4103197 16711680
-0.14683363 0.054714419 -1.4097322 16711680
-0.14283766 0.054018222 -1.4086819 16711680
-0.16547638 0.051874209 -1.4089705 16711680
-0.16161536 0.053366967 -1.4089411 16711680
-0.15733813 0.054554734 -1.408349 16711680
-0.15331386 0.055233166 -1.4073685 16711680
-0.14396036 -0.029383168 -1.443244 16711680
-0.13975638 -0.028448172 -1.4437816 16711680
-0.13492675 -0.027561806 -1.4434148 16711680
-0.13014093 -0.026210122 -1.4428129 16711680
-0.12553628 -0.024510354 -1.4418906 16711680
-0.12171409 -0.023229256 -1.4402807 16711680
-0.15446268 -0.027810644 -1.4427743 16711680
-0.15041552 -0.028154995 -1.4438293 16711680
-0.14583552 -0.028175302 -1.4445496 16711680
-0.14186031 -0.026959989 -1.4456291 16711680
-0.12410626 -0.022011261 -1.4432955 16711680
-0.12055276 -0.021241557 -1.4411749 16711680
-0.11682467 -0.01884998 -1.4393406 16711680
-0.11394157 -0.016586315 -1.437391 16711680
-0.16073643 -0.025135029 -1.4418476 16711680
-0.15713252 -0.025957327 -1.4432154 16711680
-0.11255368 -0.013479104 -1.4373558 16711680
-0.11034375 -0.011249913 -1.4351422 16711680
-0.1665352 -0.02218353 -1.4403648 16711680
-0.16357501 -0.022844367 -1.4419626 16711680
-0.10908366 -0.0077997297 -1.4346825 16711680
-0.10735944 -0.0057967082 -1.4324702 16711680
-0.16930082 -0.018981647 -1.4396501 16711680
-0.10687532 -0.0017280206 -1.4312896 16711680
-0.17199653 -0.015085524 -1.4376255 16711680
-0.10712695 0.0028915359 -1.4290342 16711680
-0.17479946 -0.011287607 -1.4340782 16711680
-0.17389256 -0.010957388 -1.4362934 16711680
-0.107972 0.0073290267 -1.4275401 16711680
-0.10758062 0.0073059369 -1.4251673 16711680
-0.17643353 -0.0069014374 -1.4329023 16711680
-0.17565629 -0.006301444 -1.4349575 16711680
-0.10918774 0.012106445 -1.4261457 16711680
-0.10873593 0.011844477 -1.4239161 16711680
-0.1780446 -0.0026543951 -1.4311371 16711680
-0.1771967 -0.0018158257 -1.4334501 16711680
-0.11048949 0.01649249 -1.4246219 16711680
-0.10998467 0.016203517 -1.4221054 16711680
-0.17947066 0.0016315104 -1.4293034 16711680
-0.17875814 0.0028667371 -1.4314016 16711680
-0.11213198 0.021341465 -1.4225656 16711680
-0.11138315 0.020410711 -1.4202483 16711680
-0.18085143 0.0056679407 -1.4269471 16711680
-0.18017375 0.0070513403 -1.4289373 16711680
-0.11366373 0.025460949 -1.42013 16711680
-0.11289062 0.024492558 -1.4179457 16711680
-0.18204287 0.00976656 -1.4245223 16711680
-0.18146175 0.011440573 -1.4261497 16711680
-0.11552337 0.029733447 -1.4174805 16711680
-0.11460882 0.028543133 -1.4155738 16711680
-0.18293169 0.012739374 -1.4222128 16711680
-0.18239756 0.015384117 -1.423475 16711680
-0.1173671 0.033390582 -1.4148577 16711680
-0.11598651 0.031528279 -1.4129694 16711680
-0.18283114 0.019754836 -1.4211881 16711680
-0.11977924 0.037227143 -1.4127997 16711680
-0.18287688 0.024340082 -1.4188324 16711680
-0.18191043 0.027440341 -1.4200999 16711680
-0.12488028 0.043520987 -1.4122249 16711680
-0.12269782 0.041103773 -1.4109297 16711680
-0.18292922 0.027466215 -1.4163566 16711680
-0.18217774 0.030201908 -1.41676 16711680
-0.12668976 0.045584142 -1.4093899 16711680
-0.12476858 0.043572277 -1.4086316 16711680
-0.18130809 0.034181222 -1.4142817 16711680
-0.17938294 0.037307344 -1.414412 16711680
-0.13304128 0.050061006 -1.408289 16711680
-0.13002083 0.048391446 -1.4074796 16711680
-0.18047604 0.036362622 -1.4114425 16711680
-0.17818432 0.039583873 -1.4116993 16711680
-0.17604589 0.0426936 -1.4114817 16711680
-0.13931906 0.052841056 -1.406575 16711680
-0.13599542 0.051293433 -1.4060534 16711680
-0.132513 0.0496612 -1.4050853 16711680
-0.17714161 0.041747149 -1.4082643 16711680
-0.17473015 0.044808336 -1.4089582 16711680
-0.17150266 0.048101027 -1.4082745 16711680
-0.1677976 0.050676715 -1.4087868 16711680
-0.15085201 0.055364102 -1.4065212 16711680
-0.14657789 0.054985058 -1.4049859 16711680
-0.1420929 0.053829722 -1.4047168 16711680
-0.13876186 0.052380342 -1.4031397 16711680
-0.17028201 0.0492418 -1.4058228 16711680
-0.16673563 0.051354177 -1.4060298 16711680
-0.16228414 0.053267978 -1.4056102 16711680
-0.15751266 0.054588001 -1.4049646 16711680
-0.15271091 0.055227153 -1.4042456 16711680
-0.148825 0.055186559 -1.4029715 16711680
-0.14751449 -0.032028656 -1.4393091 16711680
-0.14463116 -0.03177451 -1.4398881 16711680
-0.13969134 -0.031475283 -1.4396882 16711680
-0.13460249 -0.030572496 -1.4392798 16711680
-0.12982923 -0.029250912 -1.438646 16711680
-0.12507342 -0.027438343 -1.4377297 16711680
-0.12080047 -0.025164578 -1.4367547 16711680
-0.1184106 -0.023965366 -1.4354672 16711680
-0.15508085 -0.030300811 -1.4391472 16711680
-0.15033607 -0.031362675 -1.439684 16711680
-0.14718391 -0.030807111 -1.4413396 16711680
-0.11878743 -0.022942834 -1.4375622 16711680
-0.11633036 -0.021916267 -1.4352386 16711680
-0.11314581 -0.018709155 -1.4337187 16711680
-0.16123138 -0.028054595 -1.4380168 16711680
-0.1579241 -0.029011298 -1.4392642 16711680
-0.11137972 -0.016241716 -1.4330404 16711680
-0.10937592 -0.013666991 -1.4311799 16711680
-0.16683553 -0.025102247 -1.4366124 16711680
-0.16431925 -0.026219513 -1.4380064 16711680
-0.10774987 -0.010543559 -1.430503 16711680
-0.10657553 -0.0083519556 -1.4287058 16711680
-0.17019615 -0.021562073 -1.4351633 16711680
-0.1059338 -0.0036225375 -1.4266351 16711680
-0.17350999 -0.016950864 -1.4322137 16711680
-0.17255902 -0.01780455 -1.433828 16711680
-0.10620505 0.00062552281 -1.4249873 16711680
-0.10625605 0.0017967997 -1.4232935 16711680
-0.1753048 -0.01329815 -1.4310706 16711680
-0.17379941 -0.014184115 -1.4343233 16711680
-0.10687937 0.0056390013 -1.4220223 16711680
-0.17715348 -0.0090485029 -1.4295738 16711680
-0.10786259 0.010151135 -1.4203336 16711680
-0.17905203 -0.0048874822 -1.4270639 16711680
-0.10900338 0.014495932 -1.4178826 16711680
-0.1805729 -0.00077539682 -1.424944 16711680
-0.11033882 0.018665239 -1.4156286 16711680
-0.18183661 0.0038097762 -1.423251 16711680
-0.11202832 0.023144022 -1.4139918 16711680
-0.18290007 0.0082589835 -1.4212991 16711680
-0.11390308 0.027438547 -1.4120861 16711680
-0.18369466 0.012333123 -1.4189116 16711680
-0.18364605 0.014792262 -1.4196926 16711680
-0.11694773 0.033253096 -1.4108341 16711680
-0.11585343 0.031111086 -1.4099041 16711680
-0.18409556 0.014532036 -1.4168035 16711680
-0.18404067 0.017489122 -1.4167699 16711680
-0.11868428 0.035550468 -1.4080595 16711680
-0.11713843 0.033071332 -1.4079714 16711680
-0.18392694 0.022199243 -1.4145397 16711680
-0.12172353 0.039429706 -1.4062706 16711680
-0.18351451 0.026311746 -1.4126291 16711680
-0.1831612 0.028585179 -1.4114915 16711680
-0.12633736 0.044332359 -1.4039323 16711680
-0.12461844 0.042622752 -1.404759 16711680
-0.1821875 0.032169141 -1.4097915 16711680
-0.12935154 0.046793118 -1.4027798 16711680
-0.18082857 0.035062518 -1.4084094 16711680
-0.17920457 0.037874397 -1.4071835 16711680
-0.13531369 0.050013885 -1.4014086 16711680
-0.13229093 0.048517331 -1.4019872 16711680
-0.17772231 0.040523577 -1.4051353 16711680
-0.17566803 0.043728072 -1.4044313 16711680
-0.17321362 0.046761151 -1.4044346 16711680
-0.14550555 0.054457519 -1.400769 16711680
-0.1419089 0.053084288 -1.3999684 16711680
-0.13848616 0.05142086 -1.3998551 16711680
-0.17395055 0.045769621 -1.4020822 16711680
-0.17162186 0.048014332 -1.402202 16711680
-0.16749249 0.050685853 -1.4010912 16711680
-0.16284885 0.052682806 -1.4002212 16711680
-0.15806852 0.05400775 -1.3995945 16711680
-0.15299571 0.054700006 -1.3991704 16711680
-0.14794886 0.054571662 -1.3990884 16711680
-0.14492102 0.053807724 -1.3982435 16711680
-0.14752124 -0.033646051 -1.4358672 16711680
-0.1446237 -0.033934325 -1.4352907 16711680
-0.13965489 -0.033647943 -1.4350934 16711680
-0.13460277 -0.032746445 -1.4347719 16711680
-0.12982644 -0.031427719 -1.4341276 16711680
-0.12511149 -0.029616501 -1.4331775 16711680
-0.1208051 -0.027335573 -1.4321374 16711680
-0.11836144 -0.025399201 -1.432434 16711680
-0.15497279 -0.032454059 -1.4346274 16711680
-0.15033853 -0.033477698 -1.4351548 16711680
-0.14716467 -0.034387358 -1.4336867 16711680
-0.11885956 -0.026557367 -1.4298952 16711680
-0.11633216 -0.024080981 -1.4305581 16711680
-0.11311702 -0.020804051 -1.4291602 16711680
-0.16138417 -0.030095655 -1.4336034 16711680
-0.15786676 -0.031703781 -1.4336251 16711680
-0.11138284 -0.018810835 -1.4276215 16711680
-0.10928734 -0.015672782 -1.4266992 16711680
-0.16682561 -0.027228616 -1.4323144 16711680
-0.16428952 -0.028972704 -1.4325881 16711680
-0.10757855 -0.013098735 -1.4249624 16711680
-0.10656035 -0.010597797 -1.4242486 16711680
-0.1702951 -0.023751676 -1.4304039 16711680
-0.10589406 -0.0059096944 -1.421868 16711680
-0.173517 -0.018923197 -1.4285687 16711680
-0.1725169 -0.020675955 -1.4287156 16711680
-0.10602207 -0.0023007356 -1.419902 16711680
-0.10611771 -0.00025141984 -1.4196259 16711680
-0.17547897 -0.015507268 -1.4267229 16711680
-0.10666955 0.0035434803 -1.4175942 16711680
-0.17750874 -0.011382144 -1.4247801 16711680
-0.10754759 0.0079945643 -1.4155148 16711680
-0.17930889 -0.0069860574 -1.4230222 16711680
-0.10871528 0.012576891 -1.4136519 16711680
-0.18078482 -0.0028283326 -1.4207444 16711680
-0.11016221 0.016791191 -1.4113653 16711680
-0.18197808 0.0015720474 -1.418687 16711680
-0.11188555 0.020981012 -1.4093845 16711680
-0.18285933 0.0060271216 -1.4164866 16711680
-0.18241027 0.0072360439 -1.4134154 16711680
-0.11574261 0.02587134 -1.4045383 16711680
-0.11396292 0.025192229 -1.4073688 16711680
-0.1835219 0.010378775 -1.4153466 16711680
-0.18306664 0.011107161 -1.4131624 16711680
-0.11719025 0.029395273 -1.4043781 16711680
-0.11587379 0.02911943 -1.4063815 16711680
-0.18327594 0.015343126 -1.4119048 16711680
-0.11940842 0.033036307 -1.4034609 16711680
-0.18316373 0.020098336 -1.4099588 16711680
-0.18199989 0.021531569 -1.4067162 16711680
-0.12490635 0.037452243 -1.3991488 16711680
-0.12235817 0.036850996 -1.4019009 16711680
-0.18308142 0.024124641 -1.408923 16711680
-0.1823231 0.025462413 -1.4067527 16711680
-0.1265859 0.040918976 -1.3993747 16711680
-0.12475409 0.040268086 -1.4011815 16711680
-0.18150389 0.029959887 -1.4054191 16711680
-0.17979901 0.032044254 -1.4031076 16711680
-0.13289763 0.045015067 -1.3968594 16711680
-0.12987073 0.04426901 -1.3985707 16711680
-0.18058489 0.03357942 -1.4055147 16711680
-0.17882383 0.035522941 -1.4025944 16711680
-0.13555919 0.047517758 -1.3969023 16711680
-0.13246906 0.046888225 -1.3990712 16711680
-0.17768525 0.039080173 -1.4015673 16711680
-0.1762332 0.04155878 -1.3997866 16711680
-0.14151534 0.051240347 -1.3952026 16711680
-0.13851982 0.049876492 -1.3963776 16711680
-0.17451994 0.044199236 -1.3982373 16711680
-0.17210002 0.046802208 -1.3973943 16711680
-0.16795239 0.049672633 -1.3960754 16711680
-0.16331443 0.051860105 -1.3960232 16711680
-0.15824491 0.053260453 -1.3953437 16711680
-0.1532934 0.05373162 -1.3941536 16711680
-0.14818145 0.053457741 -1.3942094 16711680
-0.14453278 0.052486084 -1.3943312 16711680
-0.16628882 0.050114863 -1.3936617 16711680
-0.16318798 0.051489122 -1.3938854 16711680
-0.15871702 0.052725565 -1.3932837 16711680
-0.15551585 0.053100023 -1.3922336 16711680
-0.14394461 -0.035039268 -1.4312692 16711680
-0.13980941 -0.034931336 -1.4302586 16711680
-0.13501655 -0.03416774 -1.4298456 16711680
-0.12995894 -0.032766625 -1.4291792 16711680
-0.12549181 -0.030963752 -1.4283589 16711680
-0.12177845 -0.028900091 -1.4283253 16711680
-0.15449026 -0.03364297 -1.4303155 16711680
-0.15046872 -0.034646399 -1.4301325 16711680
-0.14585717 -0.03526143 -1.4296889 16711680
-0.14239587 -0.035513218 -1.4278635 16711680
-0.12356716 -0.030274447 -1.4253963 16711680
-0.12035785 -0.02815409 -1.4263515 16711680
-0.11688043 -0.025363341 -1.4256436 16711680
-0.11398065 -0.022414215 -1.4249769 16711680
-0.16077918 -0.03133665 -1.4290951 16711680
-0.15712413 -0.032882437 -1.4288583 16711680
-0.11255191 -0.020542243 -1.4229529 16711680
-0.11025266 -0.0173457 -1.4223927 16711680
-0.16661182 -0.028307736 -1.427696 16711680
-0.16381536 -0.030052625 -1.4275284 16711680
-0.10879644 -0.014843002 -1.420172 16711680
-0.1073164 -0.011933655 -1.4198223 16711680
-0.16927494 -0.025503606 -1.4258219 16711680
-0.10697245 -0.0082070306 -1.4175099 16711680
-0.17367424 -0.019226538 -1.4250808 16711680
-0.1720233 -0.021616109 -1.423929 16711680
-0.10709965 -0.0037582684 -1.4153939 16711680
-0.10667016 -0.00067375973 -1.4162316 16711680
-0.17502861 -0.016672552 -1.4228549 16711680
-0.1739462 -0.018170681 -1.4212898 16711680
-0.10795102 0.00012640748 -1.4124244 16711680
-0.10739332 0.0020621689 -1.4138792 16711680
-0.17669189 -0.013058551 -1.4204634 16711680
-0.17568989 -0.014268816 -1.4185225 16711680
-0.10910951 0.0041544354 -1.409694 16711680
-0.10842153 0.0058401572 -1.4114138 16711680
-0.17826952 -0.0090038292 -1.4182689 16711680
-0.17734349 -0.0096973144 -1.4159822 16711680
-0.11069278 0.0088146087 -1.4071105 16711680
-0.10974866 0.01009264 -1.4091029 16711680
-0.17969429 -0.0046357056 -1.4164274 16711680
-0.1788592 -0.0048084445 -1.414094 16711680
-0.11236306 0.013637613 -1.4052594 16711680
-0.11118546 0.014348248 -1.4073337 16711680
-0.18093875 -6.217882e-05 -1.4150628 16711680
-0.17989144 -0.0001035966 -1.4125646 16711680
-0.11419533 0.018051121 -1.4039165 16711680
-0.11279105 0.018791623 -1.4060256 16711680
-0.18190967 0.0044909809 -1.4139163 16711680
-0.18056941 0.0045968043 -1.4112552 16711680
-0.11641619 0.022429179 -1.4027259 16711680
-0.11444606 0.022793651 -1.4050246 16711680
-0.18073651 0.0092597017 -1.4095498 16711680
-0.17885144 0.010346671 -1.4065018 16711680
-0.12188068 0.026138354 -1.3989364 16711680
-0.1189356 0.026346628 -1.401435 16711680
-0.18116449 0.013960377 -1.4082358 16711680
-0.17934032 0.014194058 -1.4054798 16711680
-0.12358371 0.029522078 -1.3981388 16711680
-0.12134161 0.030442102 -1.4003025 16711680
-0.18155819 0.018124197 -1.4071424 16711680
-0.18007436 0.018978246 -1.4044125 16711680
-0.12566353 0.03402213 -1.3972658 16711680
-0.12334228 0.03425812 -1.3995079 16711680
-0.18016835 0.02358406 -1.4028344 16711680
-0.17831966 0.025105432 -1.3998121 16711680
-0.1312419 0.037848666 -1.3936255 16711680
-0.1283076 0.037888832 -1.3960023 16711680
-0.18014558 0.027710916 -1.4021536 16711680
-0.17819314 0.029238112 -1.3997165 16711680
-0.13357811 0.041533127 -1.3938148 16711680
-0.13064644 0.041435819 -1.3955946 16711680
-0.17742868 0.033532504 -1.3983898 16711680
-0.17648418 0.035114165 -1.3959029 16711680
-0.13894098 0.04553574 -1.3909328 16711680
-0.13676369 0.044826575 -1.3929976 16711680
-0.17718135 0.037069529 -1.3982233 16711680
-0.17581844 0.03909 -1.3954208 16711680
-0.14162482 0.048588462 -1.3908964 16711680
-0.13878869 0.047757249 -1.3931792 16711680
-0.17446217 0.042455707 -1.3942817 16711680
-0.17223826 0.045077503 -1.392574 16711680
-0.16911201 0.047880389 -1.3917772 16711680
-0.15250275 0.052481897 -1.3895763 16711680
-0.14829479 0.051705267 -1.3893991 16711680
-0.1447082 0.050695334 -1.3903494 16711680
-0.16744831 0.048665121 -1.3907135 16711680
-0.16365722 0.050318401 -1.3900175 16711680
-0.15867977 0.051696669 -1.389357 16711680
-0.15453619 0.052246612 -1.3890119 16711680
-0.13966811 -0.035338968 -1.4269347 16711680
-0.13508789 -0.034623094 -1.4260644 16711680
-0.13060901 -0.033385783 -1.4253986 16711680
-0.12622203 -0.031616133 -1.4251578 16711680
-0.153707 -0.034188792 -1.4269812 16711680
-0.15018038 -0.03500925 -1.4254963 16711680
-0.14563297 -0.035517368 -1.4249246 16711680
-0.14070202 -0.03547712 -1.4244574 16711680
-0.13559872 -0.034765232 -1.4231797 16711680
-0.13080065 -0.033436824 -1.4225463 16711680
-0.1259512 -0.031410668 -1.4225537 16711680
-0.12164544 -0.028863877 -1.4217774 16711680
-0.11799996 -0.026078377 -1.4212446 16711680
-0.11520839 -0.023548603 -1.4218072 16711680
-0.16018777 -0.03174134 -1.4254329 16711680
-0.15660346 -0.033078175 -1.424176 16711680
-0.15249369 -0.034360502 -1.4232055 16711680
-0.11699352 -0.024544466 -1.4185761 16711680
-0.11398603 -0.021261927 -1.4185706 16711680
-0.11141308 -0.018234391 -1.4189918 16711680
-0.16599518 -0.028739586 -1.4243937 16711680
-0.16280867 -0.030245855 -1.4227395 16711680
-0.15923843 -0.031692956 -1.4215226 16711680
-0.11318257 -0.01893504 -1.4154028 16711680
-0.1106371 -0.015803117 -1.4158782 16711680
-0.10853565 -0.012575485 -1.4160568 16711680
-0.16787264 -0.02636534 -1.4216856 16711680
-0.16585137 -0.027819678 -1.4200292 16711680
-0.11001932 -0.01232367 -1.4126291 16711680
-0.10869236 -0.0099746808 -1.413831 16711680
-0.17005882 -0.022882249 -1.4192067 16711680
-0.16768835 -0.025060415 -1.4175349 16711680
-0.11050316 -0.0091875456 -1.4099478 16711680
-0.10924475 -0.006098222 -1.4111598 16711680
-0.17234425 -0.018877311 -1.4172969 16711680
-0.10987389 -0.0016523153 -1.4089763 16711680
-0.17417444 -0.014763325 -1.4151437 16711680
-0.11088227 0.0027216291 -1.4068383 16711680
-0.17571339 -0.010418709 -1.4131306 16711680
-0.11233982 0.0071303332 -1.4047382 16711680
-0.17673489 -0.0059415475 -1.4110689 16711680
-0.11423819 0.01139215 -1.4028171 16711680
-0.17735901 -0.0014441274 -1.4093161 16711680
-0.1753314 -0.00094072148 -1.4066315 16711680
-0.11906751 0.014665833 -1.3991485 16711680
-0.11641737 0.01552761 -1.4012816 16711680
-0.17804673 0.0031617647 -1.4082184 16711680
-0.17534995 0.0036106915 -1.4053657 16711680
-0.17261133 0.005585135 -1.4031407 16711680
-0.12543511 0.018631205 -1.3968832 16711680
-0.1215988 0.018475313 -1.3982564 16711680
-0.11847752 0.019663587 -1.4003222 16711680
-0.17851646 0.0071430863 -1.4073123 16711680
-0.17613888 0.008358134 -1.4046767 16711680
-0.1729493 0.0090350993 -1.4022599 16711680
-0.12711702 0.021723773 -1.3961812 16711680
-0.12353092 0.022991516 -1.397715 16711680
-0.12036556 0.023283431 -1.3995717 16711680
-0.17699425 0.013236066 -1.4034783 16711680
-0.17363904 0.013469588 -1.4007908 16711680
-0.12912273 0.025855731 -1.3949077 16711680
-0.12560061 0.027436862 -1.3966663 16711680
-0.17761162 0.018009249 -1.4018216 16711680
-0.17483231 0.0181191 -1.3993313 16711680
-0.13094558 0.030324742 -1.3934288 16711680
-0.12793094 0.031770326 -1.3952173 16711680
-0.17819446 0.021644806 -1.4007534 16711680
-0.17572343 0.022801735 -1.3977427 16711680
-0.13286789 0.034640308 -1.3920671 16711680
-0.12981299 0.035308689 -1.394129 16711680
-0.1758844 0.027328562 -1.3960569 16711680
-0.17478277 0.027763281 -1.3934343 16711680
-0.13722123 0.038138136 -1.3884377 16711680
-0.1354358 0.038494006 -1.3907008 16711680
-0.17619677 0.031200755 -1.395463 16711680
-0.17520663 0.032519482 -1.3927658 16711680
-0.13942578 0.04238018 -1.3880099 16711680
-0.13729234 0.04196576 -1.3903041 16711680
-0.17454097 0.037086919 -1.3909558 16711680
-0.17340665 0.038553506 -1.3881198 16711680
-0.14508636 0.046674896 -1.3846674 16711680
-0.14271711 0.045923777 -1.3867955 16711680
-0.17399743 0.040419873 -1.3905646 16711680
-0.17222603 0.04257879 -1.3882004 16711680
-0.16989549 0.045567244 -1.387266 16711680
-0.15176393 0.050574448 -1.3848333 16711680
-0.14808118 0.049251277 -1.3850006 16711680
-0.14497584 0.04844771 -1.3867003 16711680
-0.16788428 0.046794601 -1.3862417 16711680
-0.16372962 0.048757914 -1.3853463 16711680
-0.15895806 0.050079811 -1.3847113 16711680
-0.15424003 0.050579488 -1.3844994 16711680
-0.14906743 -0.035043538 -1.4218321 16711680
-0.14562637 -0.03525674 -1.4208255 16711680
-0.1410325 -0.035140097 -1.4195819 16711680
-0.13623038 -0.034507476 -1.4188082 16711680
-0.13145982 -0.033186022 -1.41817 16711680
-0.12695438 -0.031232849 -1.4176873 16711680
-0.12278248 -0.028906826 -1.4177229 16711680
-0.11980858 -0.026942458 -1.4179839 16711680
-0.15570661 -0.032858331 -1.4201392 16711680
-0.15173505 -0.033838738 -1.4190673 16711680
-0.14732532 -0.034578536 -1.4181309 16711680
-0.14286305 -0.034709908 -1.4168164 16711680
-0.12634213 -0.030136272 -1.4146334 16711680
-0.12240135 -0.027667467 -1.4148095 16711680
-0.11888891 -0.024742726 -1.4147258 16711680
-0.11579943 -0.021931183 -1.4151642 16711680
-0.16158536 -0.030073997 -1.4191018 16711680
-0.15807866 -0.031137824 -1.4177184 16711680
-0.15426576 -0.032174706 -1.416095 16711680
-0.11837538 -0.022229336 -1.411317 16711680
-0.11533599 -0.019298002 -1.412057 16711680
-0.11249878 -0.016256673 -1.4124883 16711680
-0.16406803 -0.027683455 -1.416479 16711680
-0.16055374 -0.028613906 -1.4145719 16711680
-0.11534015 -0.016108613 -1.4085875 16711680
-0.11247501 -0.013402574 -1.4095902 16711680
-0.16867283 -0.023239952 -1.4162459 16711680
-0.16635403 -0.024351768 -1.4139963 16711680
-0.1627405 -0.026147183 -1.4125019 16711680
-0.11527315 -0.013028052 -1.4062266 16711680
-0.11291358 -0.0095115919 -1.4067938 16711680
-0.11094753 -0.0072561353 -1.408561 16711680
-0.17043303 -0.019606031 -1.4140376 16711680
-0.16831185 -0.020405283 -1.4115223 16711680
-0.11382806 -0.005324414 -1.4042726 16711680
-0.11185932 -0.0033588838 -1.4062458 16711680
-0.17193271 -0.015548555 -1.411639 16711680
-0.16992831 -0.016183838 -1.4093066 16711680
-0.11514669 -0.0010105288 -1.4020385 16711680
-0.11324202 0.0007025376 -1.4038543 16711680
-0.17346671 -0.01122196 -1.4099659 16711680
-0.17103314 -0.011533046 -1.4071778 16711680
-0.11702699 0.0034029027 -1.4000708 16711680
-0.11457682 0.0049391221 -1.4021474 16711680
-0.17436185 -0.0071986429 -1.4083843 16711680
-0.17194931 -0.0069157891 -1.4057761 16711680
-0.16892949 -0.0059603937 -1.4033707 16711680
-0.12258378 0.0068461876 -1.3972213 16711680
-0.11907774 0.0076935487 -1.3987206 16711680
-0.11612505 0.0088310968 -1.4007767 16711680
-0.17499961 -0.0041329041 -1.4074695 16711680
-0.17284681 -0.0021724366 -1.404909 16711680
-0.16920513 -0.001556376 -1.4022361 16711680
-0.12485751 0.010710475 -1.3963559 16711680
-0.12088028 0.012212828 -1.3980198 16711680
-0.11747573 0.011816537 -1.399857 16711680
-0.17292823 0.0021120775 -1.4039896 16711680
-0.1698568 0.0033151065 -1.4013207 16711680
-0.16739824 0.004207524 -1.3986188 16711680
-0.13018154 0.014405442 -1.3936507 16711680
-0.12698765 0.015219869 -1.3956561 16711680
-0.12314568 0.016043825 -1.3974229 16711680
-0.17047164 0.008054167 -1.4001096 16711680
-0.16788161 0.0082055908 -1.3973616 16711680
-0.13208711 0.018119585 -1.3926073 16711680
-0.12908939 0.019467842 -1.394702 16711680
-0.17135018 0.012668356 -1.398598 16711680
-0.16889536 0.012647673 -1.3958312 16711680
-0.13391882 0.022363756 -1.3911366 16711680
-0.13129972 0.023777675 -1.3931578 16711680
-0.17246331 0.017348263 -1.3966792 16711680
-0.17027655 0.017040221 -1.393972 16711680
-0.13538566 0.026697079 -1.3893514 16711680
-0.1330816 0.028240526 -1.3914547 16711680
-0.17347556 0.02169211 -1.3949008 16711680
-0.17183414 0.021533974 -1.3922281 16711680
-0.13675177 0.031235982 -1.3876336 16711680
-0.13495079 0.032738954 -1.3897266 16711680
-0.17293182 0.026036886 -1.3905094 16711680
-0.13860194 0.035578929 -1.3859499 16711680
-0.17318274 0.030689875 -1.3883498 16711680
-0.17212242 0.03217078 -1.3851488 16711680
-0.14367761 0.040080566 -1.3813689 16711680
-0.14117515 0.039555017 -1.384228 16711680
-0.17321596 0.03467235 -1.3873183 16711680
-0.17245433 0.036186166 -1.3852537 16711680
-0.14538839 0.043667182 -1.3816618 16711680
-0.14344655 0.042842191 -1.3833926 16711680
-0.17147624 0.040547352 -1.3839909 16711680
-0.16969942 0.042884123 -1.3819685 16711680
-0.15185983 0.047811124 -1.3795822 16711680
-0.14875062 0.046859112 -1.3809453 16711680
-0.16787626 0.044836603 -1.3818115 16711680
-0.16382411 0.046851337 -1.3807219 16711680
-0.15903689 0.048178878 -1.3800913 16711680
-0.15439391 0.048564635 -1.3800136 16711680
-0.13990769 -0.034541655 -1.4161917 16711680
-0.13630565 -0.033943161 -1.4153084 16711680
-0.13249739 -0.032888975 -1.4148115 16711680
-0.12930512 -0.031648427 -1.4147309 16711680
-0.15101637 -0.033051487 -1.415387 16711680
-0.14714704 -0.033625189 -1.4142935 16711680
-0.14234318 -0.033831351 -1.4131323 16711680
-0.13745929 -0.03346828 -1.4124335 16711680
-0.13250233 -0.032093551 -1.4117757 16711680
-0.12795538 -0.029850472 -1.4113693 16711680
-0.12396161 -0.027207758 -1.4112322 16711680
-0.12082375 -0.024731684 -1.4114016 16711680
-0.15685919 -0.030243177 -1.4141152 16711680
-0.15308601 -0.031279031 -1.4127865 16711680
-0.14897203 -0.032203171 -1.4112198 16711680
-0.1448094 -0.032883886 -1.4102398 16711680
-0.1272383 -0.028003879 -1.4078944 16711680
-0.12387848 -0.025204234 -1.4078633 16711680
-0.12050717 -0.022273984 -1.4085877 16711680
-0.1178714 -0.019731445 -1.4090148 16711680
-0.15897125 -0.027849209 -1.4119934 16711680
-0.15527543 -0.028665371 -1.4098173 16711680
-0.15172938 -0.030249868 -1.4087647 16711680
-0.12319135 -0.022417817 -1.4050738 16711680
-0.12075315 -0.019057048 -1.4052788 16711680
-0.1176661 -0.016441911 -1.406527 16711680
-0.1644032 -0.023897342 -1.4110518 16711680
-0.16101369 -0.02457175 -1.4094065 16711680
-0.15769482 -0.025024757 -1.4070404 16711680
-0.121341 -0.014939997 -1.4022154 16711680
-0.11818998 -0.01270601 -1.403776 16711680
-0.11539982 -0.010304276 -1.4045346 16711680
-0.16603893 -0.020334998 -1.4089063 16711680
-0.16249931 -0.020641357 -1.4066916 16711680
-0.15992276 -0.020772945 -1.4045882 16711680
-0.12223856 -0.010270711 -1.3995808 16711680
-0.11967133 -0.0087794885 -1.4010093 16711680
-0.11637545 -0.0067250319 -1.4023631 16711680
-0.16757327 -0.016384028 -1.4070778 16711680
-0.16398482 -0.016305778 -1.4045329 16711680
-0.16146854 -0.01645549 -1.4024982 16711680
-0.12367868 -0.0059340838 -1.3974611 16711680
-0.121159 -0.0044583706 -1.3988574 16711680
-0.11755417 -0.00262524 -1.4004502 16711680
-0.16852774 -0.012201941 -1.4053789 16711680
-0.16551271 -0.011757331 -1.4031067 16711680
-0.16264881 -0.011417562 -1.400524 16711680
-0.12569492 -0.0011942117 -1.3956366 16711680
-0.12255834 0.00012897607 -1.3974011 16711680
-0.11927393 0.0013971664 -1.3988513 16711680
-0.1687801 -0.0092216861 -1.404345 16711680
-0.16651659 -0.007103622 -1.4018694 16711680
-0.16330507 -0.006761346 -1.3989508 16711680
-0.12789449 0.0030325479 -1.3942623 16711680
-0.12434759 0.0045229495 -1.3962882 16711680
-0.12082698 0.004132166 -1.3979766 16711680
-0.1668942 -0.0025660712 -1.4005243 16711680
-0.16398378 -0.0020345263 -1.3977365 16711680
-0.16154075 -0.00073853973 -1.3950831 16711680
-0.13332735 0.0070399046 -1.3913562 16711680
-0.13005725 0.0073985979 -1.3932208 16711680
-0.12668553 0.0084012831 -1.3951765 16711680
-0.16709952 0.00086096115 -1.3995371 16711680
-0.16473715 0.0026402781 -1.3967521 16711680
-0.16177332 0.0032190746 -1.3940147 16711680
-0.13551155 0.01050835 -1.3904773 16711680
-0.13196167 0.01174922 -1.392445 16711680
-0.12852524 0.011578836 -1.3943923 16711680
-0.16542801 0.0075436058 -1.3953836 16711680
-0.16210167 0.0077191088 -1.3926243 16711680
-0.15959002 0.0088227727 -1.3904879 16711680
-0.14087525 0.01400487 -1.388033 16711680
-0.1377399 0.014539183 -1.3894057 16711680
-0.13419688 0.016089467 -1.3912839 16711680
-0.16634101 0.012334476 -1.3934983 16711680
-0.16320422 0.012340833 -1.3910203 16711680
-0.16008666 0.012430861 -1.3889827 16711680
-0.14269574 0.017203916 -1.3866875 16711680
-0.1395354 0.018842824 -1.3879212 16711680
-0.13638327 0.020635024 -1.3895233 16711680
-0.16782719 0.016694801 -1.3914398 16711680
-0.16478932 0.016528903 -1.3889556 16711680
-0.16158959 0.016274393 -1.387114 16711680
-0.14385797 0.021163341 -1.3847713 16711680
-0.14093406 0.023130242 -1.3857615 16711680
-0.13785258 0.024978697 -1.3874725 16711680
-0.16944955 0.020884439 -1.3892717 16711680
-0.16674447 0.020467062 -1.3866813 16711680
-0.1631168 0.01874584 -1.3857694 16711680
-0.14416872 0.023952551 -1.3832783 16711680
-0.14181595 0.027376633 -1.3833728 16711680
-0.13915077 0.029272344 -1.3852651 16711680
-0.17070805 0.025043823 -1.3870287 16711680
-0.16875422 0.024548307 -1.3844743 16711680
-0.14275266 0.031761013 -1.3810267 16711680
-0.14076717 0.033315703 -1.3830614 16711680
-0.17164129 0.028877439 -1.3856922 16711680
-0.17051108 0.029339209 -1.382919 16711680
-0.14405946 0.036604755 -1.3794615 16711680
-0.14225547 0.037014462 -1.3818012 16711680
-0.17090169 0.034076888 -1.3813373 16711680
-0.14651956 0.040695481 -1.3780774 16711680
-0.17039892 0.038096063 -1.3796501 16711680
-0.16923478 0.040422946 -1.3778284 16711680
-0.15192868 0.045100998 -1.3755102 16711680
-0.14942496 0.043895002 -1.3768523 16711680
-0.16739145 0.042840105 -1.3772461 16711680
-0.16366744 0.044799682 -1.376217 16711680
-0.15920649 0.046033364 -1.3756238 16711680
-0.15489523 0.046300169 -1.3755864 16711680
-0.14188904 -0.032966726 -1.4095412 16711680
-0.13782212 -0.032556511 -1.4086006 16711680
-0.13356058 -0.03135854 -1.4079847 16711680
-0.13012135 -0.029804926 -1.4079473 16711680
-0.14808263 -0.031392068 -1.407554 16711680
-0.14393798 -0.032117605 -1.4066367 16711680
-0.13901737 -0.031978164 -1.405618 16711680
-0.13365768 -0.030518308 -1.4049574 16711680
-0.12915912 -0.027999286 -1.4047115 16711680
-0.12591942 -0.025203709 -1.4045612 16711680
-0.1536327 -0.02814823 -1.40662 16711680
-0.1507684 -0.029611688 -1.4051194 16711680
-0.14690983 -0.031120587 -1.4036938 16711680
-0.12800658 -0.025878824 -1.4011434 16711680
-0.12524018 -0.022542629 -1.4016831 16711680
-0.12327532 -0.01975479 -1.4025462 16711680
-0.15563284 -0.025272314 -1.4039121 16711680
-0.15326799 -0.02736013 -1.4025644 16711680
-0.12491138 -0.019463118 -1.3987687 16711680
-0.12366185 -0.016324975 -1.3996598 16711680
-0.15805489 -0.021240432 -1.4020618 16711680
-0.12415975 -0.011859862 -1.397578 16711680
-0.15947486 -0.016894329 -1.3999584 16711680
-0.12570694 -0.0075229816 -1.3954724 16711680
-0.16011329 -0.012512222 -1.3980423 16711680
-0.15844978 -0.011404458 -1.394871 16711680
-0.13049948 -0.0036620153 -1.3912489 16711680
-0.127837 -0.0035873409 -1.3937874 16711680
-0.16078629 -0.0077442247 -1.3968192 16711680
-0.1586778 -0.0074653514 -1.3941799 16711680
-0.13258901 -0.00022227131 -1.3906646 16711680
-0.12991035 0.00073198974 -1.3928015 16711680
-0.1612767 -0.00393923 -1.3958942 16711680
-0.1588899 -0.0025685169 -1.393195 16711680
-0.15585959 -0.0013173083 -1.390339 16711680
-0.13895617 0.0032566995 -1.3880479 16711680
-0.13507827 0.0040375027 -1.390039 16711680
-0.13175339 0.0042408127 -1.3919799 16711680
-0.15923364 0.0020924732 -1.3923737 16711680
-0.15572904 0.0027763965 -1.3897848 16711680
-0.15164429 0.0044831792 -1.3876389 16711680
-0.14597477 0.0060441345 -1.3868901 16711680
-0.14121994 0.0067903986 -1.3878649 16711680
-0.13728878 0.0081302328 -1.3894956 16711680
-0.15953523 0.0062476103 -1.3913943 16711680
-0.15690695 0.0076298816 -1.3894414 16711680
-0.15233757 0.0084124086 -1.3874965 16711680
-0.14747293 0.0098361028 -1.3868395 16711680
-0.14274652 0.011637694 -1.387579 16711680
-0.13942695 0.011833012 -1.388736 16711680
-0.15771507 0.01258203 -1.3878517 16711680
-0.15351102 0.013114141 -1.3864625 16711680
-0.14909574 0.014340622 -1.3858764 16711680
-0.14501822 0.016098626 -1.3861665 16711680
-0.15956418 0.017015882 -1.3856962 16711680
-0.15523221 0.017785288 -1.3841847 16711680
-0.15060051 0.019063549 -1.3835726 16711680
-0.14625168 0.020702112 -1.3839298 16711680
-0.1647834 0.021348016 -1.3840452 16711680
-0.16155274 0.020792216 -1.383003 16711680
-0.15690751 0.021490155 -1.3813853 16711680
-0.1517594 0.022904526 -1.3807123 16711680
-0.14713205 0.024808254 -1.381094 16711680
-0.14439113 0.02679101 -1.3815484 16711680
-0.16660784 0.024362069 -1.381938 16711680
-0.16307965 0.024233025 -1.3795702 16711680
-0.15805191 0.024464352 -1.3782861 16711680
-0.15301409 0.025850318 -1.3776431 16711680
-0.14847641 0.028274998 -1.3776388 16711680
-0.14505233 0.030327071 -1.3790812 16711680
-0.16809581 0.028191101 -1.3788987 16711680
-0.16553558 0.026905185 -1.3770918 16711680
-0.14839423 0.031651348 -1.3748251 16711680
-0.14646097 0.034171846 -1.3760639 16711680
-0.16908656 0.032373134 -1.3770722 16711680
-0.16826369 0.032503791 -1.3746393 16711680
-0.14957735 0.037715513 -1.372173 16711680
-0.14824148 0.03815211 -1.3743018 16711680
-0.16936411 0.035890177 -1.3764188 16711680
-0.16826688 0.037643738 -1.3738397 16711680
-0.15236039 0.042053081 -1.3717357 16711680
-0.14986958 0.041175883 -1.3738694 16711680
-0.1668057 0.040765617 -1.3730984 16711680
-0.16396731 0.042110618 -1.3717058 16711680
-0.15869986 0.043567207 -1.3710055 16711680
-0.15540491 0.043946799 -1.3715594 16711680
-0.14362608 -0.03148989 -1.4024301 16711680
-0.1393981 -0.031298164 -1.4013348 16711680
-0.1347302 -0.030002631 -1.4006765 16711680
-0.13083577 -0.027949739 -1.4007443 16711680
-0.14963569 -0.029878881 -1.4006512 16711680
-0.145539 -0.03117381 -1.4001797 16711680
-0.14077047 -0.031321358 -1.398646 16711680
-0.13422789 -0.02951242 -1.3977809 16711680
-0.12996972 -0.026866172 -1.3980986 16711680
-0.12711385 -0.023647275 -1.3976909 16711680
-0.15480816 -0.025817428 -1.3988651 16711680
-0.1528607 -0.027891133 -1.3990585 16711680
-0.1258278 -0.020398835 -1.3954663 16711680
-0.12531792 -0.017865468 -1.3950522 16711680
-0.15645862 -0.023261864 -1.3971806 16711680
-0.1256405 -0.014801508 -1.3930399 16711680
-0.15780769 -0.018695356 -1.3951265 16711680
-0.12735201 -0.010247769 -1.3910561 16711680
-0.15800034 -0.015341543 -1.3942548 16711680
-0.15753375 -0.013566731 -1.3924943 16711680
-0.13080125 -0.0061716158 -1.388947 16711680
-0.12905325 -0.0074055046 -1.3903837 16711680
-0.15650342 -0.0090929866 -1.3908892 16711680
-0.15477201 -0.0072687156 -1.3884619 16711680
-0.13717374 -0.0025083777 -1.3861262 16711680
-0.13431676 -0.0029362803 -1.387944 16711680
-0.15629846 -0.0047880393 -1.390922 16711680
-0.15383644 -0.0035727238 -1.3883495 16711680
-0.15007402 -0.001472557 -1.3859566 16711680
-0.14470951 3.4442171e-05 -1.3852608 16711680
-0.13993071 0.00027817488 -1.3865026 16711680
-0.13642266 0.00035430398 -1.3883184 16711680
-0.15329391 0.00063743256 -1.3883979 16711680
-0.15022123 0.0018717172 -1.3869309 16711680
-0.14595421 0.0031159869 -1.3863958 16711680
-0.1425104 0.0036103949 -1.3869647 16711680
-0.16202244 0.025784835 -1.3766295 16711680
-0.1583498 0.026104044 -1.3759995 16711680
-0.15419427 0.027249889 -1.3754542 16711680
-0.15086839 0.028877493 -1.3751389 16711680
-0.16428258 0.02751665 -1.3738451 16711680
-0.15954575 0.027322564 -1.3728876 16711680
-0.15459201 0.028706282 -1.3721954 16711680
-0.15058611 0.031252276 -1.3720421 16711680
-0.16666712 0.03085614 -1.3716877 16711680
-0.1507968 0.035279617 -1.3695374 16711680
-0.16681272 0.035598665 -1.3697413 16711680
-0.1650155 0.037439093 -1.3669349 16711680
-0.15683605 0.039673541 -1.3656837 16711680
-0.15359396 0.039308071 -1.3679289 16711680
-0.1660147 0.039019246 -1.3695886 16711680
-0.16337143 0.039681558 -1.3677487 16711680
-0.15891935 0.040914867 -1.3671582 16711680
-0.15593226 0.041789848 -1.3682482 16711680
-0.137895 -0.030909114 -1.3977792 16711680
-0.13673702 -0.030558873 -1.3976988 16711680
-0.14957651 -0.03157803 -1.3953364 16711680
-0.14508061 -0.032249808 -1.3958793 16711680
-0.14025906 -0.031987693 -1.3957283 16711680
-0.13499573 -0.03052957 -1.3950391 16711680
-0.13085212 -0.028321445 -1.3939894 16711680
-0.12758361 -0.025496017 -1.3924031 16711680
-0.15503725 -0.028766815 -1.3936032 16711680
-0.15269372 -0.029838938 -1.3950905 16711680
-0.12597196 -0.022460807 -1.391575 16711680
-0.12485909 -0.020387808 -1.3894659 16711680
-0.15728799 -0.02557471 -1.392557 16711680
-0.1249138 -0.016610002 -1.3882684 16711680
-0.1585741 -0.020941358 -1.3904632 16711680
-0.12669593 -0.01211988 -1.3862336 16711680
-0.15864223 -0.017797124 -1.3881731 16711680
-0.1576536 -0.015087858 -1.3882068 16711680
-0.13092598 -0.0077327173 -1.384778 16711680
-0.12885301 -0.0094817411 -1.3842946 16711680
-0.15656967 -0.011725236 -1.3856605 16711680
-0.15468615 -0.0087122247 -1.3855332 16711680
-0.13730296 -0.0038982881 -1.3832289 16711680
-0.13416374 -0.0055444743 -1.3827256 16711680
-0.15602335 -0.009353241 -1.3825049 16711680
-0.15334493 -0.0065262672 -1.383069 16711680
-0.14990503 -0.0036017895 -1.382328 16711680
-0.14464162 -0.0021217708 -1.3817288 16711680
-0.14004721 -0.0028884448 -1.3813727 16711680
-0.13657978 -0.0039734375 -1.3798662 16711680
-0.14908475 -0.0027455576 -1.3793398 16711680
-0.14643873 -0.0020190831 -1.3789936 16711680
-0.16329685 0.027943835 -1.3696755 16711680
-0.15999888 0.027990829 -1.3686249 16711680
-0.15559693 0.029208638 -1.3680295 16711680
-0.15259583 0.030896023 -1.3682768 16711680
-0.16455935 0.029820248 -1.3677338 16711680
-0.16153064 0.02900867 -1.3655031 16711680
-0.15565917 0.030562244 -1.3647842 16711680
-0.15296775 0.033020861 -1.3661728 16711680
-0.16524659 0.033298578 -1.3663275 16711680
-0.16295268 0.034808159 -1.3640203 16711680
-0.15770972 0.036258571 -1.3633183 16711680
-0.15447347 0.036370292 -1.3649578 16711680
-0.16234159 0.038070761 -1.3651947 16711680
-0.15960144 0.038831189 -1.3648294 16711680
-0.14760143 -0.037735116 -1.3908299 16711680
-0.1439859 -0.037125472 -1.3913984 16711680
-0.13930441 -0.036019806 -1.3915535 16711680
-0.1347497 -0.034751311 -1.3909522 16711680
-0.13041785 -0.033365849 -1.3896128 16711680
-0.12728778 -0.032328423 -1.3881063 16711680
-0.15366408 -0.035184968 -1.390011 16711680
-0.15027741 -0.035135526 -1.3916181 16711680
-0.14542073 -0.034886133 -1.3927561 16711680
-0.1402553 -0.033654351 -1.3932433 16711680
-0.13471541 -0.032110628 -1.3925111 16711680
