# .PCD v0.7 - Point Cloud Data file format
VERSION 0.7
FIELDS x y z rgb
SIZE 4 4 4 4
TYPE F F F U
COUNT 1 1 1 1
WIDTH 1308
HEIGHT 1
VIEWPOINT 0 0 0 1 0 0 0
POINTS 1308
DATA ascii
-0.22230101 0.021955701 -1.4125201 65280
-0.220193 0.022019301 -1.41662 65280
-0.221008 0.022380499 -1.43985 65280
-0.21821 0.022380499 -1.43985 65280
-0.21541201 0.022380499 -1.43985 65280
-0.212615 0.022380499 -1.43985 65280
-0.20981701 0.022380499 -1.43985 65280
-0.20702 0.022380499 -1.43985 65280
-0.20422199 0.022380499 -1.43985 65280
-0.201425 0.022380499 -1.43985 65280
-0.198627 0.022380499 -1.43985 65280
-0.195829 0.022380499 -1.43985 65280
-0.193032 0.022380499 -1.43985 65280
-0.19023401 0.022380499 -1.43985 65280
-0.187437 0.022380499 -1.43985 65280
-0.18463901 0.022380499 -1.43985 65280
-0.181842 0.022380499 -1.43985 65280
-0.17904399 0.022380499 -1.43985 65280
-0.176246 0.022380499 -1.43985 65280
-0.17344899 0.022380499 -1.43985 65280
-0.170651 0.022380499 -1.43985 65280
-0.167854 0.022380499 -1.43985 65280
-0.16505601 0.022380499 -1.43985 65280
-0.162259 0.022380499 -1.43985 65280
-0.15946101 0.022380499 -1.43985 65280
-0.156664 0.022380499 -1.43985 65280
-0.15386599 0.022380499 -1.43985 65280
-0.151068 0.022380499 -1.43985 65280
-0.14827099 0.022380499 -1.43985 65280
-0.145473 0.022380499 -1.43985 65280
-0.142676 0.022380499 -1.43985 65280
-0.139878 0.022380499 -1.43985 65280
-0.137081 0.022380499 -1.43985 65280
-0.13428301 0.022380499 -1.43985 65280
-0.131485 0.022380499 -1.43985 65280
-0.12868799 0.022380499 -1.43985 65280
-0.12589 0.022380499 -1.43985 65280
-0.123093 0.022380499 -1.43985 65280
-0.120295 0.022380499 -1.43985 65280
-0.117498 0.022380499 -1.43985 65280
-0.1147 0.022380499 -1.43985 65280
-0.111903 0.022380499 -1.43985 65280
-0.109105 0.022380499 -1.43985 65280
-0.106307 0.022380499 -1.43985 65280
-0.10351 0.022380499 -1.43985 65280
-0.100712 0.022380499 -1.43985 65280
-0.097914703 0.022380499 -1.43985 65280
-0.095117196 0.022380499 -1.43985 65280
-0.0923196 0.022380499 -1.43985 65280
-0.089521997 0.022380499 -1.43985 65280
-0.086724497 0.022380499 -1.43985 65280
-0.083926901 0.022380499 -1.43985 65280
-0.081129298 0.022380499 -1.43985 65280
-0.078331798 0.022380499 -1.43985 65280
-0.075534202 0.022380499 -1.43985 65280
-0.072736703 0.022380499 -1.43985 65280
-0.069939099 0.022380499 -1.43985 65280
-0.067141503 0.022380499 -1.43985 65280
-0.064343996 0.022380499 -1.43985 65280
-0.0615464 0.022380499 -1.43985 65280
-0.0587488 0.022380499 -1.43985 65280
-0.055951301 0.022380499 -1.43985 65280
-0.053153701 0.022380499 -1.43985 65280
-0.050356101 0.022380499 -1.43985 65280
-0.047558598 0.022380499 -1.43985 65280
-0.044760998 0.022380499 -1.43985 65280
-0.041963499 0.022380499 -1.43985 65280
-0.039165899 0.022380499 -1.43985 65280
-0.036368299 0.022380499 -1.43985 65280
-0.0335708 0.022380499 -1.43985 65280
-0.0307732 0.022380499 -1.43985 65280
-0.0279756 0.022380499 -1.43985 65280
-0.025178101 0.022380499 -1.43985 65280
-0.022380499 0.022380499 -1.43985 65280
-0.019582899 0.022380499 -1.43985 65280
-0.0167854 0.022380499 -1.43985 65280
-0.0139878 0.022380499 -1.43985 65280
-0.0111903 0.022380499 -1.43985 65280
-0.0083926897 0.022380499 -1.43985 65280
-0.0055951299 0.022380499 -1.43985 65280
-0.0027975601 0.022380499 -1.43985 65280
0 0.022380499 -1.43985 65280
0.0027975601 0.022380499 -1.43985 65280
0.0055951299 0.022380499 -1.43985 65280
0.0083926897 0.022380499 -1.43985 65280
0.0111903 0.022380499 -1.43985 65280
0.0139878 0.022380499 -1.43985 65280
0.0167854 0.022380499 -1.43985 65280
0.019582899 0.022380499 -1.43985 65280
0.022380499 0.022380499 -1.43985 65280
0.025178101 0.022380499 -1.43985 65280
0.0279756 0.022380499 -1.43985 65280
0.0307732 0.022380499 -1.43985 65280
0.0335708 0.022380499 -1.43985 65280
0.036368299 0.022380499 -1.43985 65280
0.039165899 0.022380499 -1.43985 65280
0.041963499 0.022380499 -1.43985 65280
0.044760998 0.022380499 -1.43985 65280
0.047558598 0.022380499 -1.43985 65280
0.050356101 0.022380499 -1.43985 65280
0.053153701 0.022380499 -1.43985 65280
0.055951301 0.022380499 -1.43985 65280
0.0587488 0.022380499 -1.43985 65280
0.0615464 0.022380499 -1.43985 65280
0.064343996 0.022380499 -1.43985 65280
0.067141503 0.022380499 -1.43985 65280
0.069939099 0.022380499 -1.43985 65280
0.072736703 0.022380499 -1.43985 65280
0.075534202 0.022380499 -1.43985 65280
0.078331798 0.022380499 -1.43985 65280
0.081129298 0.022380499 -1.43985 65280
0.083926901 0.022380499 -1.43985 65280
0.086724497 0.022380499 -1.43985 65280
0.089521997 0.022380499 -1.43985 65280
0.0923196 0.022380499 -1.43985 65280
0.095117196 0.022380499 -1.43985 65280
0.097914703 0.022380499 -1.43985 65280
0.100712 0.022380499 -1.43985 65280
0.10351 0.022380499 -1.43985 65280
0.106307 0.022380499 -1.43985 65280
0.109105 0.022380499 -1.43985 65280
0.111903 0.022380499 -1.43985 65280
0.1147 0.022380499 -1.43985 65280
0.117498 0.022380499 -1.43985 65280
0.120295 0.022380499 -1.43985 65280
0.123093 0.022380499 -1.43985 65280
0.12589 0.022380499 -1.43985 65280
0.12868799 0.022380499 -1.43985 65280
0.131485 0.022380499 -1.43985 65280
0.13428301 0.022380499 -1.43985 65280
0.137081 0.022380499 -1.43985 65280
0.139878 0.022380499 -1.43985 65280
0.142676 0.022380499 -1.43985 65280
0.145473 0.022380499 -1.43985 65280
0.14827099 0.022380499 -1.43985 65280
0.151068 0.022380499 -1.43985 65280
0.15386599 0.022380499 -1.43985 65280
0.156664 0.022380499 -1.43985 65280
0.15946101 0.022380499 -1.43985 65280
0.162259 0.022380499 -1.43985 65280
0.16505601 0.022380499 -1.43985 65280
0.167854 0.022380499 -1.43985 65280
0.170651 0.022380499 -1.43985 65280
0.17344899 0.022380499 -1.43985 65280
0.176246 0.022380499 -1.43985 65280
0.17904399 0.022380499 -1.43985 65280
0.181842 0.022380499 -1.43985 65280
0.18463901 0.022380499 -1.43985 65280
0.187437 0.022380499 -1.43985 65280
0.19023401 0.022380499 -1.43985 65280
0.193032 0.022380499 -1.43985 65280
0.195829 0.022380499 -1.43985 65280
0.198627 0.022380499 -1.43985 65280
0.201425 0.022380499 -1.43985 65280
0.20422199 0.022380499 -1.43985 65280
0.20702 0.022380499 -1.43985 65280
0.20981701 0.022380499 -1.43985 65280
0.212615 0.022380499 -1.43985 65280
0.21541201 0.022380499 -1.43985 65280
0.21821 0.022380499 -1.43985 65280
0.221008 0.022380499 -1.43985 65280
0.223805 0.022380499 -1.43985 65280
0.226603 0.022380499 -1.43985 65280
0.22939999 0.022380499 -1.43985 65280
0.232198 0.022380499 -1.43985 65280
0.23499499 0.022380499 -1.43985 65280
0.237793 0.022380499 -1.43985 65280
0.24059001 0.022380499 -1.43985 65280
0.243388 0.022380499 -1.43985 65280
0.246186 0.022380499 -1.43985 65280
0.248983 0.022380499 -1.43985 65280
0.25178099 0.022380499 -1.43985 65280
0.25457799 0.022380499 -1.43985 65280
0.25737599 0.022380499 -1.43985 65280
0.26017299 0.022380499 -1.43985 65280
0.26297101 0.022380499 -1.43985 65280
0.265769 0.022380499 -1.43985 65280
0.26856601 0.022380499 -1.43985 65280
0.271364 0.022380499 -1.43985 65280
0.27416101 0.022380499 -1.43985 65280
0.276959 0.022380499 -1.43985 65280
0.27975601 0.022380499 -1.43985 65280
0.282554 0.022380499 -1.43985 65280
0.28535101 0.022380499 -1.43985 65280
0.288149 0.022380499 -1.43985 65280
0.29094699 0.022380499 -1.43985 65280
0.293744 0.022380499 -1.43985 65280
0.29654199 0.022380499 -1.43985 65280
0.299339 0.022380499 -1.43985 65280
0.30213699 0.022380499 -1.43985 65280
0.304934 0.022380499 -1.43985 65280
0.30773199 0.022380499 -1.43985 65280
0.31053001 0.022380499 -1.43985 65280
0.31332701 0.022380499 -1.43985 65280
0.31612501 0.022380499 -1.43985 65280
0.31892201 0.022380499 -1.43985 65280
0.32172 0.022380499 -1.43985 65280
0.32451701 0.022380499 -1.43985 65280
0.327315 0.022380499 -1.43985 65280
0.33011201 0.022380499 -1.43985 65280
0.33291 0.022380499 -1.43985 65280
0.33570799 0.022380499 -1.43985 65280
0.338505 0.022380499 -1.43985 65280
0.34130299 0.022380499 -1.43985 65280
0.3441 0.022380499 -1.43985 65280
0.34689799 0.022380499 -1.43985 65280
0.349695 0.022380499 -1.43985 65280
0.35249299 0.022380499 -1.43985 65280
0.35529101 0.022380499 -1.43985 65280
0.35808799 0.022380499 -1.43985 65280
0.36088601 0.022380499 -1.43985 65280
0.36368299 0.022380499 -1.43985 65280
0.36648101 0.022380499 -1.43985 65280
0.36927801 0.022380499 -1.43985 65280
0.372076 0.022380499 -1.43985 65280
0.37487301 0.022380499 -1.43985 65280
0.377671 0.022380499 -1.43985 65280
0.38046899 0.022380499 -1.43985 65280
0.383266 0.022380499 -1.43985 65280
0.38606399 0.022380499 -1.43985 65280
0.388861 0.022380499 -1.43985 65280
0.39165899 0.022380499 -1.43985 65280
0.394456 0.022380499 -1.43985 65280
0.39725399 0.022380499 -1.43985 65280
-0.399692 0.0251555 -1.43856 65280
-0.39689699 0.0251555 -1.43856 65280
-0.39410201 0.0251555 -1.43856 65280
-0.391307 0.0251555 -1.43856 65280
-0.38851199 0.0251555 -1.43856 65280
-0.385717 0.0251555 -1.43856 65280
-0.38292199 0.0251555 -1.43856 65280
-0.38012701 0.0251555 -1.43856 65280
-0.377332 0.0251555 -1.43856 65280
-0.37453699 0.0251555 -1.43856 65280
-0.37174201 0.0251555 -1.43856 65280
-0.368947 0.0251555 -1.43856 65280
-0.36615199 0.0251555 -1.43856 65280
-0.36335701 0.0251555 -1.43856 65280
-0.360562 0.0251555 -1.43856 65280
-0.35776699 0.0251555 -1.43856 65280
-0.35497099 0.0251555 -1.43856 65280
-0.35217601 0.0251555 -1.43856 65280
-0.349381 0.0251555 -1.43856 65280
-0.34658599 0.0251555 -1.43856 65280
-0.34379101 0.0251555 -1.43856 65280
-0.340996 0.0251555 -1.43856 65280
-0.33820099 0.0251555 -1.43856 65280
-0.33540601 0.0251555 -1.43856 65280
-0.33261099 0.0251555 -1.43856 65280
-0.32981601 0.0251555 -1.43856 65280
-0.327021 0.0251555 -1.43856 65280
-0.32422599 0.0251555 -1.43856 65280
-0.32143101 0.0251555 -1.43856 65280
-0.318636 0.0251555 -1.43856 65280
-0.31584099 0.0251555 -1.43856 65280
-0.31304601 0.0251555 -1.43856 65280
-0.310251 0.0251555 -1.43856 65280
-0.30745599 0.0251555 -1.43856 65280
-0.30466101 0.0251555 -1.43856 65280
-0.30186501 0.0251555 -1.43856 65280
-0.29907 0.0251555 -1.43856 65280
-0.29627499 0.0251555 -1.43856 65280
-0.29348001 0.0251555 -1.43856 65280
-0.290685 0.0251555 -1.43856 65280
-0.28788999 0.0251555 -1.43856 65280
-0.28509501 0.0251555 -1.43856 65280
-0.2823 0.0251555 -1.43856 65280
-0.27950501 0.0251555 -1.43856 65280
-0.27671 0.0251555 -1.43856 65280
-0.27391499 0.0251555 -1.43856 65280
-0.27112001 0.0251555 -1.43856 65280
-0.268325 0.0251555 -1.43856 65280
-0.26156101 0.0247795 -1.41706 65280
-0.25767699 0.024671201 -1.41087 65280
-0.25443199 0.024622399 -1.40808 65280
-0.25134 0.0245876 -1.40609 65280
-0.248374 0.024564501 -1.40477 65280
-0.245515 0.0245515 -1.40402 65280
-0.24281301 0.0245541 -1.40417 65280
-0.24018499 0.0245643 -1.40476 65280
-0.23755901 0.024575099 -1.40537 65280
-0.23497801 0.024590701 -1.40626 65280
-0.23243099 0.0246104 -1.40739 65280
-0.229931 0.024635499 -1.40883 65280
-0.227507 0.024669399 -1.4107701 65280
-0.22521999 0.024719199 -1.41361 65280
-0.22312801 0.024792001 -1.41777 65280
-0.22360399 0.0251555 -1.43856 65280
-0.220809 0.0251555 -1.43856 65280
-0.218014 0.0251555 -1.43856 65280
-0.21521901 0.0251555 -1.43856 65280
-0.212424 0.0251555 -1.43856 65280
-0.209629 0.0251555 -1.43856 65280
-0.206834 0.0251555 -1.43856 65280
-0.20403901 0.0251555 -1.43856 65280
-0.201244 0.0251555 -1.43856 65280
-0.198449 0.0251555 -1.43856 65280
-0.195654 0.0251555 -1.43856 65280
-0.19285899 0.0251555 -1.43856 65280
-0.190063 0.0251555 -1.43856 65280
-0.187268 0.0251555 -1.43856 65280
-0.18447299 0.0251555 -1.43856 65280
-0.181678 0.0251555 -1.43856 65280
-0.178883 0.0251555 -1.43856 65280
-0.17608801 0.0251555 -1.43856 65280
-0.17329299 0.0251555 -1.43856 65280
-0.170498 0.0251555 -1.43856 65280
-0.167703 0.0251555 -1.43856 65280
-0.16490801 0.0251555 -1.43856 65280
-0.162113 0.0251555 -1.43856 65280
-0.159318 0.0251555 -1.43856 65280
-0.156523 0.0251555 -1.43856 65280
-0.15372799 0.0251555 -1.43856 65280
-0.150933 0.0251555 -1.43856 65280
-0.148138 0.0251555 -1.43856 65280
-0.14534301 0.0251555 -1.43856 65280
-0.14254799 0.0251555 -1.43856 65280
-0.139753 0.0251555 -1.43856 65280
-0.136957 0.0251555 -1.43856 65280
-0.13416199 0.0251555 -1.43856 65280
-0.131367 0.0251555 -1.43856 65280
-0.128572 0.0251555 -1.43856 65280
-0.12577701 0.0251555 -1.43856 65280
-0.122982 0.0251555 -1.43856 65280
-0.120187 0.0251555 -1.43856 65280
-0.117392 0.0251555 -1.43856 65280
-0.114597 0.0251555 -1.43856 65280
-0.111802 0.0251555 -1.43856 65280
-0.109007 0.0251555 -1.43856 65280
-0.106212 0.0251555 -1.43856 65280
-0.103417 0.0251555 -1.43856 65280
-0.100622 0.0251555 -1.43856 65280
-0.097826801 0.0251555 -1.43856 65280
-0.095031701 0.0251555 -1.43856 65280
-0.092236698 0.0251555 -1.43856 65280
-0.089441597 0.0251555 -1.43856 65280
-0.086646602 0.0251555 -1.43856 65280
-0.083851501 0.0251555 -1.43856 65280
-0.081056498 0.0251555 -1.43856 65280
-0.078261398 0.0251555 -1.43856 65280
-0.075466402 0.0251555 -1.43856 65280
-0.072671302 0.0251555 -1.43856 65280
-0.069876298 0.0251555 -1.43856 65280
-0.067081198 0.0251555 -1.43856 65280
-0.064286202 0.0251555 -1.43856 65280
-0.061491098 0.0251555 -1.43856 65280
-0.058696099 0.0251555 -1.43856 65280
-0.055900998 0.0251555 -1.43856 65280
-0.053105999 0.0251555 -1.43856 65280
-0.050310899 0.0251555 -1.43856 65280
-0.047515899 0.0251555 -1.43856 65280
-0.044720799 0.0251555 -1.43856 65280
-0.041925799 0.0251555 -1.43856 65280
-0.039130699 0.0251555 -1.43856 65280
-0.036335699 0.0251555 -1.43856 65280
-0.033540599 0.0251555 -1.43856 65280
-0.030745599 0.0251555 -1.43856 65280
-0.027950499 0.0251555 -1.43856 65280
-0.0251555 0.0251555 -1.43856 65280
-0.022360399 0.0251555 -1.43856 65280
-0.0195654 0.0251555 -1.43856 65280
-0.0167703 0.0251555 -1.43856 65280
-0.0139753 0.0251555 -1.43856 65280
-0.0111802 0.0251555 -1.43856 65280
-0.0083851498 0.0251555 -1.43856 65280
-0.0055900998 0.0251555 -1.43856 65280
-0.0027950499 0.0251555 -1.43856 65280
0 0.0251555 -1.43856 65280
0.0027950499 0.0251555 -1.43856 65280
0.0055900998 0.0251555 -1.43856 65280
0.0083851498 0.0251555 -1.43856 65280
0.0111802 0.0251555 -1.43856 65280
0.0139753 0.0251555 -1.43856 65280
0.0167703 0.0251555 -1.43856 65280
0.0195654 0.0251555 -1.43856 65280
0.022360399 0.0251555 -1.43856 65280
0.0251555 0.0251555 -1.43856 65280
0.027950499 0.0251555 -1.43856 65280
0.030745599 0.0251555 -1.43856 65280
0.033540599 0.0251555 -1.43856 65280
0.036335699 0.0251555 -1.43856 65280
0.039130699 0.0251555 -1.43856 65280
0.041925799 0.0251555 -1.43856 65280
0.044720799 0.0251555 -1.43856 65280
0.047515899 0.0251555 -1.43856 65280
0.050310899 0.0251555 -1.43856 65280
0.053105999 0.0251555 -1.43856 65280
0.055900998 0.0251555 -1.43856 65280
0.058696099 0.0251555 -1.43856 65280
0.061491098 0.0251555 -1.43856 65280
0.064286202 0.0251555 -1.43856 65280
0.067081198 0.0251555 -1.43856 65280
0.069876298 0.0251555 -1.43856 65280
0.072671302 0.0251555 -1.43856 65280
0.075466402 0.0251555 -1.43856 65280
0.078261398 0.0251555 -1.43856 65280
0.081056498 0.0251555 -1.43856 65280
0.083851501 0.0251555 -1.43856 65280
0.086646602 0.0251555 -1.43856 65280
0.089441597 0.0251555 -1.43856 65280
0.092236698 0.0251555 -1.43856 65280
0.095031701 0.0251555 -1.43856 65280
0.097826801 0.0251555 -1.43856 65280
0.100622 0.0251555 -1.43856 65280
0.103417 0.0251555 -1.43856 65280
0.106212 0.0251555 -1.43856 65280
0.109007 0.0251555 -1.43856 65280
0.111802 0.0251555 -1.43856 65280
0.114597 0.0251555 -1.43856 65280
0.117392 0.0251555 -1.43856 65280
0.120187 0.0251555 -1.43856 65280
0.122982 0.0251555 -1.43856 65280
0.12577701 0.0251555 -1.43856 65280
0.128572 0.0251555 -1.43856 65280
0.131367 0.0251555 -1.43856 65280
0.13416199 0.0251555 -1.43856 65280
0.136957 0.0251555 -1.43856 65280
0.139753 0.0251555 -1.43856 65280
0.14254799 0.0251555 -1.43856 65280
0.14534301 0.0251555 -1.43856 65280
0.148138 0.0251555 -1.43856 65280
0.150933 0.0251555 -1.43856 65280
0.15372799 0.0251555 -1.43856 65280
0.156523 0.0251555 -1.43856 65280
0.159318 0.0251555 -1.43856 65280
0.162113 0.0251555 -1.43856 65280
0.16490801 0.0251555 -1.43856 65280
0.167703 0.0251555 -1.43856 65280
0.170498 0.0251555 -1.43856 65280
0.17329299 0.0251555 -1.43856 65280
0.17608801 0.0251555 -1.43856 65280
0.178883 0.0251555 -1.43856 65280
0.181678 0.0251555 -1.43856 65280
0.18447299 0.0251555 -1.43856 65280
0.187268 0.0251555 -1.43856 65280
0.190063 0.0251555 -1.43856 65280
0.19285899 0.0251555 -1.43856 65280
0.195654 0.0251555 -1.43856 65280
0.198449 0.0251555 -1.43856 65280
0.201244 0.0251555 -1.43856 65280
0.20403901 0.0251555 -1.43856 65280
0.206834 0.0251555 -1.43856 65280
0.209629 0.0251555 -1.43856 65280
0.212424 0.0251555 -1.43856 65280
0.21521901 0.0251555 -1.43856 65280
0.218014 0.0251555 -1.43856 65280
0.220809 0.0251555 -1.43856 65280
0.22360399 0.0251555 -1.43856 65280
0.226399 0.0251555 -1.43856 65280
0.229194 0.0251555 -1.43856 65280
0.231989 0.0251555 -1.43856 65280
0.23478401 0.0251555 -1.43856 65280
0.237579 0.0251555 -1.43856 65280
0.240374 0.0251555 -1.43856 65280
0.24316899 0.0251555 -1.43856 65280
0.24596401 0.0251555 -1.43856 65280
0.24876 0.0251555 -1.43856 65280
0.251555 0.0251555 -1.43856 65280
0.25435001 0.0251555 -1.43856 65280
0.25714499 0.0251555 -1.43856 65280
0.25994 0.0251555 -1.43856 65280
0.26273501 0.0251555 -1.43856 65280
0.26552999 0.0251555 -1.43856 65280
0.268325 0.0251555 -1.43856 65280
0.27112001 0.0251555 -1.43856 65280
0.27391499 0.0251555 -1.43856 65280
0.27671 0.0251555 -1.43856 65280
0.27950501 0.0251555 -1.43856 65280
0.2823 0.0251555 -1.43856 65280
0.28509501 0.0251555 -1.43856 65280
0.28788999 0.0251555 -1.43856 65280
0.290685 0.0251555 -1.43856 65280
0.29348001 0.0251555 -1.43856 65280
0.29627499 0.0251555 -1.43856 65280
0.29907 0.0251555 -1.43856 65280
0.30186501 0.0251555 -1.43856 65280
0.30466101 0.0251555 -1.43856 65280
0.30745599 0.0251555 -1.43856 65280
0.310251 0.0251555 -1.43856 65280
0.31304601 0.0251555 -1.43856 65280
0.31584099 0.0251555 -1.43856 65280
0.318636 0.0251555 -1.43856 65280
0.32143101 0.0251555 -1.43856 65280
0.32422599 0.0251555 -1.43856 65280
0.327021 0.0251555 -1.43856 65280
0.32981601 0.0251555 -1.43856 65280
0.33261099 0.0251555 -1.43856 65280
0.33540601 0.0251555 -1.43856 65280
0.33820099 0.0251555 -1.43856 65280
0.340996 0.0251555 -1.43856 65280
0.34379101 0.0251555 -1.43856 65280
0.34658599 0.0251555 -1.43856 65280
0.349381 0.0251555 -1.43856 65280
0.35217601 0.0251555 -1.43856 65280
0.35497099 0.0251555 -1.43856 65280
0.35776699 0.0251555 -1.43856 65280
0.360562 0.0251555 -1.43856 65280
0.36335701 0.0251555 -1.43856 65280
0.36615199 0.0251555 -1.43856 65280
0.368947 0.0251555 -1.43856 65280
0.37174201 0.0251555 -1.43856 65280
0.37453699 0.0251555 -1.43856 65280
0.377332 0.0251555 -1.43856 65280
0.38012701 0.0251555 -1.43856 65280
0.38292199 0.0251555 -1.43856 65280
0.385717 0.0251555 -1.43856 65280
0.38851199 0.0251555 -1.43856 65280
0.391307 0.0251555 -1.43856 65280
0.39410201 0.0251555 -1.43856 65280
0.39689699 0.0251555 -1.43856 65280
-0.39933401 0.0279254 -1.43727 65280
-0.396541 0.0279254 -1.43727 65280
-0.393749 0.0279254 -1.43727 65280
-0.39095601 0.0279254 -1.43727 65280
-0.388163 0.0279254 -1.43727 65280
-0.385371 0.0279254 -1.43727 65280
-0.38257799 0.0279254 -1.43727 65280
-0.37978601 0.0279254 -1.43727 65280
-0.376993 0.0279254 -1.43727 65280
-0.374201 0.0279254 -1.43727 65280
-0.37140799 0.0279254 -1.43727 65280
-0.36861601 0.0279254 -1.43727 65280
-0.365823 0.0279254 -1.43727 65280
-0.363031 0.0279254 -1.43727 65280
-0.36023799 0.0279254 -1.43727 65280
-0.357445 0.0279254 -1.43727 65280
-0.354653 0.0279254 -1.43727 65280
-0.35185999 0.0279254 -1.43727 65280
-0.34906799 0.0279254 -1.43727 65280
-0.346275 0.0279254 -1.43727 65280
-0.343483 0.0279254 -1.43727 65280
-0.34068999 0.0279254 -1.43727 65280
-0.33789799 0.0279254 -1.43727 65280
-0.335105 0.0279254 -1.43727 65280
-0.332313 0.0279254 -1.43727 65280
-0.32951999 0.0279254 -1.43727 65280
-0.32672799 0.0279254 -1.43727 65280
-0.323935 0.0279254 -1.43727 65280
-0.32114199 0.0279254 -1.43727 65280
-0.31834999 0.0279254 -1.43727 65280
-0.315557 0.0279254 -1.43727 65280
-0.312765 0.0279254 -1.43727 65280
-0.30997199 0.0279254 -1.43727 65280
-0.30717999 0.0279254 -1.43727 65280
-0.304387 0.0279254 -1.43727 65280
-0.301595 0.0279254 -1.43727 65280
-0.29880199 0.0279254 -1.43727 65280
-0.29600999 0.0279254 -1.43727 65280
-0.293217 0.0279254 -1.43727 65280
-0.29042399 0.0279254 -1.43727 65280
-0.28763199 0.0279254 -1.43727 65280
-0.284839 0.0279254 -1.43727 65280
-0.282047 0.0279254 -1.43727 65280
-0.27925399 0.0279254 -1.43727 65280
-0.27646199 0.0279254 -1.43727 65280
-0.273669 0.0279254 -1.43727 65280
-0.270877 0.0279254 -1.43727 65280
-0.26808399 0.0279254 -1.43727 65280
-0.26529199 0.0279254 -1.43727 65280
-0.262499 0.0279254 -1.43727 65280
-0.255705 0.027495099 -1.41512 65280
-0.25216001 0.0274087 -1.41067 65280
-0.249024 0.0273652 -1.40844 65280
-0.24607299 0.027341399 -1.40721 65280
-0.243324 0.027339799 -1.40713 65280
-0.24070001 0.027352201 -1.40777 65280
-0.238124 0.0273706 -1.40871 65280
-0.23556399 0.027391201 -1.40978 65280
-0.233061 0.0274189 -1.4112 65280
-0.230635 0.0274566 -1.4131401 65280
-0.228387 0.027516499 -1.4162199 65280
-0.22898901 0.0279254 -1.43727 65280
-0.22619601 0.0279254 -1.43727 65280
-0.22340301 0.0279254 -1.43727 65280
-0.22061101 0.0279254 -1.43727 65280
-0.21781801 0.0279254 -1.43727 65280
-0.21502601 0.0279254 -1.43727 65280
-0.21223301 0.0279254 -1.43727 65280
-0.20944101 0.0279254 -1.43727 65280
-0.20664801 0.0279254 -1.43727 65280
-0.20385601 0.0279254 -1.43727 65280
-0.20106301 0.0279254 -1.43727 65280
-0.19827101 0.0279254 -1.43727 65280
-0.19547801 0.0279254 -1.43727 65280
-0.19268499 0.0279254 -1.43727 65280
-0.18989301 0.0279254 -1.43727 65280
-0.18709999 0.0279254 -1.43727 65280
-0.18430801 0.0279254 -1.43727 65280
-0.18151499 0.0279254 -1.43727 65280
-0.17872301 0.0279254 -1.43727 65280
-0.17592999 0.0279254 -1.43727 65280
-0.17313799 0.0279254 -1.43727 65280
-0.17034499 0.0279254 -1.43727 65280
-0.16755299 0.0279254 -1.43727 65280
-0.16475999 0.0279254 -1.43727 65280
-0.16196699 0.0279254 -1.43727 65280
-0.15917499 0.0279254 -1.43727 65280
-0.15638199 0.0279254 -1.43727 65280
-0.15358999 0.0279254 -1.43727 65280
-0.15079699 0.0279254 -1.43727 65280
-0.14800499 0.0279254 -1.43727 65280
-0.14521199 0.0279254 -1.43727 65280
-0.14241999 0.0279254 -1.43727 65280
-0.13962699 0.0279254 -1.43727 65280
-0.13683499 0.0279254 -1.43727 65280
-0.13404199 0.0279254 -1.43727 65280
-0.13124999 0.0279254 -1.43727 65280
-0.12845699 0.0279254 -1.43727 65280
-0.125664 0.0279254 -1.43727 65280
-0.122872 0.0279254 -1.43727 65280
-0.120079 0.0279254 -1.43727 65280
-0.117287 0.0279254 -1.43727 65280
-0.114494 0.0279254 -1.43727 65280
-0.111702 0.0279254 -1.43727 65280
-0.108909 0.0279254 -1.43727 65280
-0.106117 0.0279254 -1.43727 65280
-0.103324 0.0279254 -1.43727 65280
-0.100532 0.0279254 -1.43727 65280
-0.097739004 0.0279254 -1.43727 65280
-0.094946504 0.0279254 -1.43727 65280
-0.092153899 0.0279254 -1.43727 65280
-0.089361399 0.0279254 -1.43727 65280
-0.086568803 0.0279254 -1.43727 65280
-0.083776303 0.0279254 -1.43727 65280
-0.080983698 0.0279254 -1.43727 65280
-0.078191198 0.0279254 -1.43727 65280
-0.075398698 0.0279254 -1.43727 65280
-0.072606102 0.0279254 -1.43727 65280
-0.069813602 0.0279254 -1.43727 65280
-0.067020997 0.0279254 -1.43727 65280
-0.064228497 0.0279254 -1.43727 65280
-0.061435901 0.0279254 -1.43727 65280
-0.058643401 0.0279254 -1.43727 65280
-0.055850901 0.0279254 -1.43727 65280
-0.0530583 0.0279254 -1.43727 65280
-0.0502658 0.0279254 -1.43727 65280
-0.0474732 0.0279254 -1.43727 65280
-0.0446807 0.0279254 -1.43727 65280
-0.041888099 0.0279254 -1.43727 65280
-0.039095599 0.0279254 -1.43727 65280
-0.036303099 0.0279254 -1.43727 65280
-0.033510499 0.0279254 -1.43727 65280
-0.030718001 0.0279254 -1.43727 65280
-0.0279254 0.0279254 -1.43727 65280
-0.0251329 0.0279254 -1.43727 65280
-0.0223403 0.0279254 -1.43727 65280
-0.0195478 0.0279254 -1.43727 65280
-0.0167553 0.0279254 -1.43727 65280
-0.0139627 0.0279254 -1.43727 65280
-0.0111702 0.0279254 -1.43727 65280
-0.0083776303 0.0279254 -1.43727 65280
-0.0055850898 0.0279254 -1.43727 65280
-0.00279254 0.0279254 -1.43727 65280
0 0.0279254 -1.43727 65280
0.00279254 0.0279254 -1.43727 65280
0.0055850898 0.0279254 -1.43727 65280
0.0083776303 0.0279254 -1.43727 65280
0.0111702 0.0279254 -1.43727 65280
0.0139627 0.0279254 -1.43727 65280
0.0167553 0.0279254 -1.43727 65280
0.0195478 0.0279254 -1.43727 65280
0.0223403 0.0279254 -1.43727 65280
0.0251329 0.0279254 -1.43727 65280
0.0279254 0.0279254 -1.43727 65280
0.030718001 0.0279254 -1.43727 65280
0.033510499 0.0279254 -1.43727 65280
0.036303099 0.0279254 -1.43727 65280
0.039095599 0.0279254 -1.43727 65280
0.041888099 0.0279254 -1.43727 65280
0.0446807 0.0279254 -1.43727 65280
0.0474732 0.0279254 -1.43727 65280
0.0502658 0.0279254 -1.43727 65280
0.0530583 0.0279254 -1.43727 65280
0.055850901 0.0279254 -1.43727 65280
0.058643401 0.0279254 -1.43727 65280
0.061435901 0.0279254 -1.43727 65280
0.064228497 0.0279254 -1.43727 65280
0.067020997 0.0279254 -1.43727 65280
0.069813602 0.0279254 -1.43727 65280
0.072606102 0.0279254 -1.43727 65280
0.075398698 0.0279254 -1.43727 65280
0.078191198 0.0279254 -1.43727 65280
0.080983698 0.0279254 -1.43727 65280
0.083776303 0.0279254 -1.43727 65280
0.086568803 0.0279254 -1.43727 65280
0.089361399 0.0279254 -1.43727 65280
0.092153899 0.0279254 -1.43727 65280
0.094946504 0.0279254 -1.43727 65280
0.097739004 0.0279254 -1.43727 65280
0.100532 0.0279254 -1.43727 65280
0.103324 0.0279254 -1.43727 65280
0.106117 0.0279254 -1.43727 65280
0.108909 0.0279254 -1.43727 65280
0.111702 0.0279254 -1.43727 65280
0.114494 0.0279254 -1.43727 65280
0.117287 0.0279254 -1.43727 65280
0.120079 0.0279254 -1.43727 65280
0.122872 0.0279254 -1.43727 65280
0.125664 0.0279254 -1.43727 65280
0.12845699 0.0279254 -1.43727 65280
0.13124999 0.0279254 -1.43727 65280
0.13404199 0.0279254 -1.43727 65280
0.13683499 0.0279254 -1.43727 65280
0.13962699 0.0279254 -1.43727 65280
0.14241999 0.0279254 -1.43727 65280
0.14521199 0.0279254 -1.43727 65280
0.14800499 0.0279254 -1.43727 65280
0.15079699 0.0279254 -1.43727 65280
0.15358999 0.0279254 -1.43727 65280
0.15638199 0.0279254 -1.43727 65280
0.15917499 0.0279254 -1.43727 65280
0.16196699 0.0279254 -1.43727 65280
0.16475999 0.0279254 -1.43727 65280
0.16755299 0.0279254 -1.43727 65280
0.17034499 0.0279254 -1.43727 65280
0.17313799 0.0279254 -1.43727 65280
0.17592999 0.0279254 -1.43727 65280
0.17872301 0.0279254 -1.43727 65280
0.18151499 0.0279254 -1.43727 65280
0.18430801 0.0279254 -1.43727 65280
0.18709999 0.0279254 -1.43727 65280
0.18989301 0.0279254 -1.43727 65280
0.19268499 0.0279254 -1.43727 65280
0.19547801 0.0279254 -1.43727 65280
0.19827101 0.0279254 -1.43727 65280
0.20106301 0.0279254 -1.43727 65280
0.20385601 0.0279254 -1.43727 65280
0.20664801 0.0279254 -1.43727 65280
0.20944101 0.0279254 -1.43727 65280
0.21223301 0.0279254 -1.43727 65280
0.21502601 0.0279254 -1.43727 65280
0.21781801 0.0279254 -1.43727 65280
0.22061101 0.0279254 -1.43727 65280
0.22340301 0.0279254 -1.43727 65280
0.22619601 0.0279254 -1.43727 65280
0.22898901 0.0279254 -1.43727 65280
0.23178101 0.0279254 -1.43727 65280
0.23457401 0.0279254 -1.43727 65280
0.23736601 0.0279254 -1.43727 65280
0.240159 0.0279254 -1.43727 65280
0.24295101 0.0279254 -1.43727 65280
0.245744 0.0279254 -1.43727 65280
0.24853601 0.0279254 -1.43727 65280
0.251329 0.0279254 -1.43727 65280
0.25412101 0.0279254 -1.43727 65280
0.25691399 0.0279254 -1.43727 65280
0.25970599 0.0279254 -1.43727 65280
0.262499 0.0279254 -1.43727 65280
0.26529199 0.0279254 -1.43727 65280
0.26808399 0.0279254 -1.43727 65280
0.270877 0.0279254 -1.43727 65280
0.273669 0.0279254 -1.43727 65280
0.27646199 0.0279254 -1.43727 65280
0.27925399 0.0279254 -1.43727 65280
0.282047 0.0279254 -1.43727 65280
0.284839 0.0279254 -1.43727 65280
0.28763199 0.0279254 -1.43727 65280
0.29042399 0.0279254 -1.43727 65280
0.293217 0.0279254 -1.43727 65280
0.29600999 0.0279254 -1.43727 65280
0.29880199 0.0279254 -1.43727 65280
0.301595 0.0279254 -1.43727 65280
0.304387 0.0279254 -1.43727 65280
0.30717999 0.0279254 -1.43727 65280
0.30997199 0.0279254 -1.43727 65280
0.312765 0.0279254 -1.43727 65280
0.315557 0.0279254 -1.43727 65280
0.31834999 0.0279254 -1.43727 65280
0.32114199 0.0279254 -1.43727 65280
0.323935 0.0279254 -1.43727 65280
0.32672799 0.0279254 -1.43727 65280
0.32951999 0.0279254 -1.43727 65280
0.332313 0.0279254 -1.43727 65280
0.335105 0.0279254 -1.43727 65280
0.33789799 0.0279254 -1.43727 65280
0.34068999 0.0279254 -1.43727 65280
0.343483 0.0279254 -1.43727 65280
0.346275 0.0279254 -1.43727 65280
0.34906799 0.0279254 -1.43727 65280
0.35185999 0.0279254 -1.43727 65280
0.354653 0.0279254 -1.43727 65280
0.357445 0.0279254 -1.43727 65280
0.36023799 0.0279254 -1.43727 65280
0.363031 0.0279254 -1.43727 65280
0.365823 0.0279254 -1.43727 65280
0.36861601 0.0279254 -1.43727 65280
0.37140799 0.0279254 -1.43727 65280
0.374201 0.0279254 -1.43727 65280
0.376993 0.0279254 -1.43727 65280
0.37978601 0.0279254 -1.43727 65280
0.38257799 0.0279254 -1.43727 65280
0.385371 0.0279254 -1.43727 65280
0.388163 0.0279254 -1.43727 65280
0.39095601 0.0279254 -1.43727 65280
0.393749 0.0279254 -1.43727 65280
0.396541 0.0279254 -1.43727 65280
-0.39897501 0.0306904 -1.43598 65280
-0.39618501 0.0306904 -1.43598 65280
-0.39339501 0.0306904 -1.43598 65280
-0.390605 0.0306904 -1.43598 65280
-0.387815 0.0306904 -1.43598 65280
-0.38502499 0.0306904 -1.43598 65280
-0.38223499 0.0306904 -1.43598 65280
-0.37944499 0.0306904 -1.43598 65280
-0.37665501 0.0306904 -1.43598 65280
-0.37386501 0.0306904 -1.43598 65280
-0.371075 0.0306904 -1.43598 65280
-0.368285 0.0306904 -1.43598 65280
-0.365495 0.0306904 -1.43598 65280
-0.36270499 0.0306904 -1.43598 65280
-0.35991499 0.0306904 -1.43598 65280
-0.35712501 0.0306904 -1.43598 65280
-0.35433501 0.0306904 -1.43598 65280
-0.35154501 0.0306904 -1.43598 65280
-0.348755 0.0306904 -1.43598 65280
-0.345965 0.0306904 -1.43598 65280
-0.34317499 0.0306904 -1.43598 65280
-0.34038499 0.0306904 -1.43598 65280
-0.337594 0.0306904 -1.43598 65280
-0.334804 0.0306904 -1.43598 65280
-0.33201399 0.0306904 -1.43598 65280
-0.32922399 0.0306904 -1.43598 65280
-0.32643399 0.0306904 -1.43598 65280
-0.32364401 0.0306904 -1.43598 65280
-0.32085401 0.0306904 -1.43598 65280
-0.318064 0.0306904 -1.43598 65280
-0.315274 0.0306904 -1.43598 65280
-0.312484 0.0306904 -1.43598 65280
-0.30969399 0.0306904 -1.43598 65280
-0.30690399 0.0306904 -1.43598 65280
-0.30411401 0.0306904 -1.43598 65280
-0.30132401 0.0306904 -1.43598 65280
-0.29853401 0.0306904 -1.43598 65280
-0.295744 0.0306904 -1.43598 65280
-0.292954 0.0306904 -1.43598 65280
-0.29016399 0.0306904 -1.43598 65280
-0.28737399 0.0306904 -1.43598 65280
-0.28458399 0.0306904 -1.43598 65280
-0.28179401 0.0306904 -1.43598 65280
-0.27900401 0.0306904 -1.43598 65280
-0.276214 0.0306904 -1.43598 65280
-0.273424 0.0306904 -1.43598 65280
-0.270634 0.0306904 -1.43598 65280
-0.26784399 0.0306904 -1.43598 65280
-0.26505399 0.0306904 -1.43598 65280
-0.262263 0.0306904 -1.43598 65280
-0.259473 0.0306904 -1.43598 65280
-0.25668299 0.0306904 -1.43598 65280
-0.25043499 0.030272299 -1.41642 65280
-0.247072 0.0301977 -1.41293 65280
-0.244177 0.030179201 -1.41206 65280
-0.241567 0.030195899 -1.41284 65280
-0.239079 0.0302283 -1.41436 65280
-0.236671 0.030271901 -1.4164 65280
-0.234679 0.0303702 -1.421 65280
-0.234363 0.0306904 -1.43598 65280
-0.231573 0.0306904 -1.43598 65280
-0.228783 0.0306904 -1.43598 65280
-0.22599301 0.0306904 -1.43598 65280
-0.223203 0.0306904 -1.43598 65280
-0.220413 0.0306904 -1.43598 65280
-0.217623 0.0306904 -1.43598 65280
-0.21483301 0.0306904 -1.43598 65280
-0.212043 0.0306904 -1.43598 65280
-0.209253 0.0306904 -1.43598 65280
-0.20646299 0.0306904 -1.43598 65280
-0.20367301 0.0306904 -1.43598 65280
-0.200883 0.0306904 -1.43598 65280
-0.198093 0.0306904 -1.43598 65280
-0.19530299 0.0306904 -1.43598 65280
-0.192513 0.0306904 -1.43598 65280
-0.189723 0.0306904 -1.43598 65280
-0.186932 0.0306904 -1.43598 65280
-0.18414199 0.0306904 -1.43598 65280
-0.181352 0.0306904 -1.43598 65280
-0.178562 0.0306904 -1.43598 65280
-0.175772 0.0306904 -1.43598 65280
-0.17298201 0.0306904 -1.43598 65280
-0.170192 0.0306904 -1.43598 65280
-0.167402 0.0306904 -1.43598 65280
-0.164612 0.0306904 -1.43598 65280
-0.16182201 0.0306904 -1.43598 65280
-0.159032 0.0306904 -1.43598 65280
-0.156242 0.0306904 -1.43598 65280
-0.15345199 0.0306904 -1.43598 65280
-0.150662 0.0306904 -1.43598 65280
-0.147872 0.0306904 -1.43598 65280
-0.145082 0.0306904 -1.43598 65280
-0.14229199 0.0306904 -1.43598 65280
-0.139502 0.0306904 -1.43598 65280
-0.136712 0.0306904 -1.43598 65280
-0.133922 0.0306904 -1.43598 65280
-0.13113201 0.0306904 -1.43598 65280
-0.128342 0.0306904 -1.43598 65280
-0.125552 0.0306904 -1.43598 65280
-0.122762 0.0306904 -1.43598 65280
-0.119972 0.0306904 -1.43598 65280
-0.117182 0.0306904 -1.43598 65280
-0.114392 0.0306904 -1.43598 65280
-0.111601 0.0306904 -1.43598 65280
-0.108811 0.0306904 -1.43598 65280
-0.106021 0.0306904 -1.43598 65280
-0.103231 0.0306904 -1.43598 65280
-0.100441 0.0306904 -1.43598 65280
-0.097651303 0.0306904 -1.43598 65280
-0.094861299 0.0306904 -1.43598 65280
-0.092071198 0.0306904 -1.43598 65280
-0.089281201 0.0306904 -1.43598 65280
-0.0864911 0.0306904 -1.43598 65280
-0.083701096 0.0306904 -1.43598 65280
-0.0809111 0.0306904 -1.43598 65280
-0.078120999 0.0306904 -1.43598 65280
-0.075331002 0.0306904 -1.43598 65280
-0.072540998 0.0306904 -1.43598 65280
-0.069750898 0.0306904 -1.43598 65280
-0.066960901 0.0306904 -1.43598 65280
-0.064170897 0.0306904 -1.43598 65280
-0.0613808 0.0306904 -1.43598 65280
-0.0585908 0.0306904 -1.43598 65280
-0.055800699 0.0306904 -1.43598 65280
-0.053010698 0.0306904 -1.43598 65280
-0.050220702 0.0306904 -1.43598 65280
-0.047430601 0.0306904 -1.43598 65280
-0.044640601 0.0306904 -1.43598 65280
-0.0418506 0.0306904 -1.43598 65280
-0.0390605 0.0306904 -1.43598 65280
-0.036270499 0.0306904 -1.43598 65280
-0.033480398 0.0306904 -1.43598 65280
-0.0306904 0.0306904 -1.43598 65280
-0.0279004 0.0306904 -1.43598 65280
-0.025110301 0.0306904 -1.43598 65280
-0.0223203 0.0306904 -1.43598 65280
-0.0195303 0.0306904 -1.43598 65280
-0.016740199 0.0306904 -1.43598 65280
-0.0139502 0.0306904 -1.43598 65280
-0.0111601 0.0306904 -1.43598 65280
-0.0083701098 0.0306904 -1.43598 65280
-0.00558007 0.0306904 -1.43598 65280
-0.0027900401 0.0306904 -1.43598 65280
0 0.0306904 -1.43598 65280
0.0027900401 0.0306904 -1.43598 65280
0.00558007 0.0306904 -1.43598 65280
0.0083701098 0.0306904 -1.43598 65280
0.0111601 0.0306904 -1.43598 65280
0.0139502 0.0306904 -1.43598 65280
0.016740199 0.0306904 -1.43598 65280
0.0195303 0.0306904 -1.43598 65280
0.0223203 0.0306904 -1.43598 65280
0.025110301 0.0306904 -1.43598 65280
0.0279004 0.0306904 -1.43598 65280
0.0306904 0.0306904 -1.43598 65280
0.033480398 0.0306904 -1.43598 65280
0.036270499 0.0306904 -1.43598 65280
0.0390605 0.0306904 -1.43598 65280
0.0418506 0.0306904 -1.43598 65280
0.044640601 0.0306904 -1.43598 65280
0.047430601 0.0306904 -1.43598 65280
0.050220702 0.0306904 -1.43598 65280
0.053010698 0.0306904 -1.43598 65280
0.055800699 0.0306904 -1.43598 65280
0.0585908 0.0306904 -1.43598 65280
0.0613808 0.0306904 -1.43598 65280
0.064170897 0.0306904 -1.43598 65280
0.066960901 0.0306904 -1.43598 65280
0.069750898 0.0306904 -1.43598 65280
0.072540998 0.0306904 -1.43598 65280
0.075331002 0.0306904 -1.43598 65280
0.078120999 0.0306904 -1.43598 65280
0.0809111 0.0306904 -1.43598 65280
0.083701096 0.0306904 -1.43598 65280
0.0864911 0.0306904 -1.43598 65280
0.089281201 0.0306904 -1.43598 65280
0.092071198 0.0306904 -1.43598 65280
0.094861299 0.0306904 -1.43598 65280
0.097651303 0.0306904 -1.43598 65280
0.100441 0.0306904 -1.43598 65280
0.103231 0.0306904 -1.43598 65280
0.106021 0.0306904 -1.43598 65280
0.108811 0.0306904 -1.43598 65280
0.111601 0.0306904 -1.43598 65280
0.114392 0.0306904 -1.43598 65280
0.117182 0.0306904 -1.43598 65280
0.119972 0.0306904 -1.43598 65280
0.122762 0.0306904 -1.43598 65280
0.125552 0.0306904 -1.43598 65280
0.128342 0.0306904 -1.43598 65280
0.13113201 0.0306904 -1.43598 65280
0.133922 0.0306904 -1.43598 65280
0.136712 0.0306904 -1.43598 65280
0.139502 0.0306904 -1.43598 65280
0.14229199 0.0306904 -1.43598 65280
0.145082 0.0306904 -1.43598 65280
0.147872 0.0306904 -1.43598 65280
0.150662 0.0306904 -1.43598 65280
0.15345199 0.0306904 -1.43598 65280
0.156242 0.0306904 -1.43598 65280
0.159032 0.0306904 -1.43598 65280
0.16182201 0.0306904 -1.43598 65280
0.164612 0.0306904 -1.43598 65280
0.167402 0.0306904 -1.43598 65280
0.170192 0.0306904 -1.43598 65280
0.17298201 0.0306904 -1.43598 65280
0.175772 0.0306904 -1.43598 65280
0.178562 0.0306904 -1.43598 65280
0.181352 0.0306904 -1.43598 65280
0.18414199 0.0306904 -1.43598 65280
0.186932 0.0306904 -1.43598 65280
0.189723 0.0306904 -1.43598 65280
0.192513 0.0306904 -1.43598 65280
0.19530299 0.0306904 -1.43598 65280
0.198093 0.0306904 -1.43598 65280
0.200883 0.0306904 -1.43598 65280
0.20367301 0.0306904 -1.43598 65280
0.20646299 0.0306904 -1.43598 65280
0.209253 0.0306904 -1.43598 65280
0.212043 0.0306904 -1.43598 65280
0.21483301 0.0306904 -1.43598 65280
0.217623 0.0306904 -1.43598 65280
0.220413 0.0306904 -1.43598 65280
0.223203 0.0306904 -1.43598 65280
0.22599301 0.0306904 -1.43598 65280
0.228783 0.0306904 -1.43598 65280
0.231573 0.0306904 -1.43598 65280
0.234363 0.0306904 -1.43598 65280
0.23715299 0.0306904 -1.43598 65280
0.239943 0.0306904 -1.43598 65280
0.242733 0.0306904 -1.43598 65280
0.24552301 0.0306904 -1.43598 65280
0.24831299 0.0306904 -1.43598 65280
0.25110301 0.0306904 -1.43598 65280
0.25389299 0.0306904 -1.43598 65280
0.25668299 0.0306904 -1.43598 65280
0.259473 0.0306904 -1.43598 65280
0.262263 0.0306904 -1.43598 65280
0.26505399 0.0306904 -1.43598 65280
0.26784399 0.0306904 -1.43598 65280
0.270634 0.0306904 -1.43598 65280
0.273424 0.0306904 -1.43598 65280
0.276214 0.0306904 -1.43598 65280
0.27900401 0.0306904 -1.43598 65280
0.28179401 0.0306904 -1.43598 65280
0.28458399 0.0306904 -1.43598 65280
0.28737399 0.0306904 -1.43598 65280
0.29016399 0.0306904 -1.43598 65280
0.292954 0.0306904 -1.43598 65280
0.295744 0.0306904 -1.43598 65280
0.29853401 0.0306904 -1.43598 65280
0.30132401 0.0306904 -1.43598 65280
0.30411401 0.0306904 -1.43598 65280
0.30690399 0.0306904 -1.43598 65280
0.30969399 0.0306904 -1.43598 65280
0.312484 0.0306904 -1.43598 65280
0.315274 0.0306904 -1.43598 65280
0.318064 0.0306904 -1.43598 65280
0.32085401 0.0306904 -1.43598 65280
0.32364401 0.0306904 -1.43598 65280
0.32643399 0.0306904 -1.43598 65280
0.32922399 0.0306904 -1.43598 65280
0.33201399 0.0306904 -1.43598 65280
0.334804 0.0306904 -1.43598 65280
0.337594 0.0306904 -1.43598 65280
0.34038499 0.0306904 -1.43598 65280
0.34317499 0.0306904 -1.43598 65280
0.345965 0.0306904 -1.43598 65280
0.348755 0.0306904 -1.43598 65280
0.35154501 0.0306904 -1.43598 65280
0.35433501 0.0306904 -1.43598 65280
0.35712501 0.0306904 -1.43598 65280
0.35991499 0.0306904 -1.43598 65280
0.36270499 0.0306904 -1.43598 65280
0.365495 0.0306904 -1.43598 65280
0.368285 0.0306904 -1.43598 65280
0.371075 0.0306904 -1.43598 65280
0.37386501 0.0306904 -1.43598 65280
0.37665501 0.0306904 -1.43598 65280
0.37944499 0.0306904 -1.43598 65280
0.38223499 0.0306904 -1.43598 65280
0.38502499 0.0306904 -1.43598 65280
0.387815 0.0306904 -1.43598 65280
0.390605 0.0306904 -1.43598 65280
0.39339501 0.0306904 -1.43598 65280
0.39618501 0.0306904 -1.43598 65280
-0.39861801 0.033450499 -1.43469 65280
-0.39583001 0.033450499 -1.43469 65280
-0.39304301 0.033450499 -1.43469 65280
-0.390255 0.033450499 -1.43469 65280
-0.38746801 0.033450499 -1.43469 65280
-0.38468 0.033450499 -1.43469 65280
-0.38189301 0.033450499 -1.43469 65280
-0.379105 0.033450499 -1.43469 65280
-0.37631801 0.033450499 -1.43469 65280
-0.37353 0.033450499 -1.43469 65280
-0.37074301 0.033450499 -1.43469 65280
-0.367955 0.033450499 -1.43469 65280
-0.36516699 0.033450499 -1.43469 65280
-0.36238 0.033450499 -1.43469 65280
-0.35959199 0.033450499 -1.43469 65280
-0.356805 0.033450499 -1.43469 65280
-0.35401699 0.033450499 -1.43469 65280
-0.35123 0.033450499 -1.43469 65280
-0.34844199 0.033450499 -1.43469 65280
-0.34565499 0.033450499 -1.43469 65280
-0.34286699 0.033450499 -1.43469 65280
-0.34007999 0.033450499 -1.43469 65280
-0.33729199 0.033450499 -1.43469 65280
-0.33450499 0.033450499 -1.43469 65280
-0.33171701 0.033450499 -1.43469 65280
-0.32892901 0.033450499 -1.43469 65280
-0.32614201 0.033450499 -1.43469 65280
-0.32335401 0.033450499 -1.43469 65280
-0.32056701 0.033450499 -1.43469 65280
-0.317779 0.033450499 -1.43469 65280
-0.31499201 0.033450499 -1.43469 65280
-0.312204 0.033450499 -1.43469 65280
-0.30941701 0.033450499 -1.43469 65280
-0.306629 0.033450499 -1.43469 65280
-0.30384201 0.033450499 -1.43469 65280
-0.301054 0.033450499 -1.43469 65280
-0.29826701 0.033450499 -1.43469 65280
-0.295479 0.033450499 -1.43469 65280
-0.29269099 0.033450499 -1.43469 65280
-0.289904 0.033450499 -1.43469 65280
-0.28711599 0.033450499 -1.43469 65280
-0.284329 0.033450499 -1.43469 65280
-0.28154099 0.033450499 -1.43469 65280
-0.278754 0.033450499 -1.43469 65280
-0.27596599 0.033450499 -1.43469 65280
-0.27317899 0.033450499 -1.43469 65280
-0.27039099 0.033450499 -1.43469 65280
-0.26760399 0.033450499 -1.43469 65280
-0.26481599 0.033450499 -1.43469 65280
-0.26202899 0.033450499 -1.43469 65280
-0.25924101 0.033450499 -1.43469 65280
-0.25645301 0.033450499 -1.43469 65280
-0.25366601 0.033450499 -1.43469 65280
-0.25087801 0.033450499 -1.43469 65280
-0.248091 0.033450499 -1.43469 65280
-0.245303 0.033450499 -1.43469 65280
-0.242516 0.033450499 -1.43469 65280
-0.239728 0.033450499 -1.43469 65280
-0.23694099 0.033450499 -1.43469 65280
-0.234153 0.033450499 -1.43469 65280
-0.23136599 0.033450499 -1.43469 65280
-0.228578 0.033450499 -1.43469 65280
-0.22579101 0.033450499 -1.43469 65280
-0.223003 0.033450499 -1.43469 65280
-0.22021499 0.033450499 -1.43469 65280
-0.217428 0.033450499 -1.43469 65280
-0.21464001 0.033450499 -1.43469 65280
-0.211853 0.033450499 -1.43469 65280
-0.20906501 0.033450499 -1.43469 65280
-0.206278 0.033450499 -1.43469 65280
-0.20349 0.033450499 -1.43469 65280
-0.200703 0.033450499 -1.43469 65280
-0.197915 0.033450499 -1.43469 65280
-0.19512799 0.033450499 -1.43469 65280
-0.19234 0.033450499 -1.43469 65280
-0.18955299 0.033450499 -1.43469 65280
-0.186765 0.033450499 -1.43469 65280
-0.18397699 0.033450499 -1.43469 65280
-0.18119 0.033450499 -1.43469 65280
-0.17840201 0.033450499 -1.43469 65280
-0.175615 0.033450499 -1.43469 65280
-0.17282701 0.033450499 -1.43469 65280
-0.17004 0.033450499 -1.43469 65280
-0.167252 0.033450499 -1.43469 65280
-0.164465 0.033450499 -1.43469 65280
-0.161677 0.033450499 -1.43469 65280
-0.15888999 0.033450499 -1.43469 65280
-0.156102 0.033450499 -1.43469 65280
-0.15331499 0.033450499 -1.43469 65280
-0.150527 0.033450499 -1.43469 65280
-0.14774001 0.033450499 -1.43469 65280
-0.144952 0.033450499 -1.43469 65280
-0.14216401 0.033450499 -1.43469 65280
-0.139377 0.033450499 -1.43469 65280
-0.13658901 0.033450499 -1.43469 65280
-0.133802 0.033450499 -1.43469 65280
-0.131014 0.033450499 -1.43469 65280
-0.128227 0.033450499 -1.43469 65280
-0.125439 0.033450499 -1.43469 65280
-0.122652 0.033450499 -1.43469 65280
-0.119864 0.033450499 -1.43469 65280
-0.117077 0.033450499 -1.43469 65280
-0.114289 0.033450499 -1.43469 65280
-0.111502 0.033450499 -1.43469 65280
-0.108714 0.033450499 -1.43469 65280
-0.105926 0.033450499 -1.43469 65280
-0.103139 0.033450499 -1.43469 65280
-0.100351 0.033450499 -1.43469 65280
-0.097563803 0.033450499 -1.43469 65280
-0.094776303 0.033450499 -1.43469 65280
-0.091988698 0.033450499 -1.43469 65280
-0.089201197 0.033450499 -1.43469 65280
-0.086413696 0.033450499 -1.43469 65280
-0.083626099 0.033450499 -1.43469 65280
-0.080838598 0.033450499 -1.43469 65280
-0.078051098 0.033450499 -1.43469 65280
-0.0752635 0.033450499 -1.43469 65280
-0.072476 0.033450499 -1.43469 65280
-0.069688402 0.033450499 -1.43469 65280
-0.066900901 0.033450499 -1.43469 65280
-0.064113401 0.033450499 -1.43469 65280
-0.0613258 0.033450499 -1.43469 65280
-0.058538299 0.033450499 -1.43469 65280
-0.055750798 0.033450499 -1.43469 65280
-0.052963201 0.033450499 -1.43469 65280
-0.0501757 0.033450499 -1.43469 65280
-0.047388099 0.033450499 -1.43469 65280
-0.044600599 0.033450499 -1.43469 65280
-0.041813102 0.033450499 -1.43469 65280
-0.0390255 0.033450499 -1.43469 65280
-0.036238 0.033450499 -1.43469 65280
-0.033450499 0.033450499 -1.43469 65280
-0.0306629 0.033450499 -1.43469 65280
-0.027875399 0.033450499 -1.43469 65280
-0.0250878 0.033450499 -1.43469 65280
-0.022300299 0.033450499 -1.43469 65280
-0.0195128 0.033450499 -1.43469 65280
-0.016725199 0.033450499 -1.43469 65280
-0.0139377 0.033450499 -1.43469 65280
-0.0111502 0.033450499 -1.43469 65280
-0.0083626099 0.033450499 -1.43469 65280
-0.0055750799 0.033450499 -1.43469 65280
-0.00278754 0.033450499 -1.43469 65280
0 0.033450499 -1.43469 65280
0.00278754 0.033450499 -1.43469 65280
0.0055750799 0.033450499 -1.43469 65280
0.0083626099 0.033450499 -1.43469 65280
0.0111502 0.033450499 -1.43469 65280
0.0139377 0.033450499 -1.43469 65280
0.016725199 0.033450499 -1.43469 65280
0.0195128 0.033450499 -1.43469 65280
0.022300299 0.033450499 -1.43469 65280
0.0250878 0.033450499 -1.43469 65280
0.027875399 0.033450499 -1.43469 65280
0.0306629 0.033450499 -1.43469 65280
0.033450499 0.033450499 -1.43469 65280
0.036238 0.033450499 -1.43469 65280
0.0390255 0.033450499 -1.43469 65280
0.041813102 0.033450499 -1.43469 65280
0.044600599 0.033450499 -1.43469 65280
0.047388099 0.033450499 -1.43469 65280
0.0501757 0.033450499 -1.43469 65280
0.052963201 0.033450499 -1.43469 65280
0.055750798 0.033450499 -1.43469 65280
0.058538299 0.033450499 -1.43469 65280
0.0613258 0.033450499 -1.43469 65280
0.064113401 0.033450499 -1.43469 65280
0.066900901 0.033450499 -1.43469 65280
0.069688402 0.033450499 -1.43469 65280
0.072476 0.033450499 -1.43469 65280
0.0752635 0.033450499 -1.43469 65280
0.078051098 0.033450499 -1.43469 65280
0.080838598 0.033450499 -1.43469 65280
0.083626099 0.033450499 -1.43469 65280
0.086413696 0.033450499 -1.43469 65280
0.089201197 0.033450499 -1.43469 65280
0.091988698 0.033450499 -1.43469 65280
0.094776303 0.033450499 -1.43469 65280
0.097563803 0.033450499 -1.43469 65280
0.100351 0.033450499 -1.43469 65280
0.103139 0.033450499 -1.43469 65280
0.105926 0.033450499 -1.43469 65280
0.108714 0.033450499 -1.43469 65280
0.111502 0.033450499 -1.43469 65280
0.114289 0.033450499 -1.43469 65280
0.117077 0.033450499 -1.43469 65280
0.119864 0.033450499 -1.43469 65280
0.122652 0.033450499 -1.43469 65280
0.125439 0.033450499 -1.43469 65280
0.128227 0.033450499 -1.43469 65280
0.131014 0.033450499 -1.43469 65280
0.133802 0.033450499 -1.43469 65280
0.13658901 0.033450499 -1.43469 65280
0.139377 0.033450499 -1.43469 65280
0.14216401 0.033450499 -1.43469 65280
0.144952 0.033450499 -1.43469 65280
0.14774001 0.033450499 -1.43469 65280
0.150527 0.033450499 -1.43469 65280
0.15331499 0.033450499 -1.43469 65280
0.156102 0.033450499 -1.43469 65280
0.15888999 0.033450499 -1.43469 65280
0.161677 0.033450499 -1.43469 65280
0.164465 0.033450499 -1.43469 65280
0.167252 0.033450499 -1.43469 65280
0.17004 0.033450499 -1.43469 65280
0.17282701 0.033450499 -1.43469 65280
0.175615 0.033450499 -1.43469 65280
0.17840201 0.033450499 -1.43469 65280
0.18119 0.033450499 -1.43469 65280
0.18397699 0.033450499 -1.43469 65280
0.186765 0.033450499 -1.43469 65280
0.18955299 0.033450499 -1.43469 65280
0.19234 0.033450499 -1.43469 65280
0.19512799 0.033450499 -1.43469 65280
0.197915 0.033450499 -1.43469 65280
0.200703 0.033450499 -1.43469 65280
0.20349 0.033450499 -1.43469 65280
0.206278 0.033450499 -1.43469 65280
0.20906501 0.033450499 -1.43469 65280
0.211853 0.033450499 -1.43469 65280
0.21464001 0.033450499 -1.43469 65280
0.217428 0.033450499 -1.43469 65280
0.22021499 0.033450499 -1.43469 65280
0.223003 0.033450499 -1.43469 65280
0.22579101 0.033450499 -1.43469 65280
0.228578 0.033450499 -1.43469 65280
