# .PCD v0.7 - Point Cloud Data file format
VERSION 0.7
FIELDS x y z rgb
SIZE 4 4 4 4
TYPE F F F U
COUNT 1 1 1 1
WIDTH 1095
HEIGHT 1
VIEWPOINT 0 0 0 1 0 0 0
POINTS 1095
DATA ascii
-0.28645706 0.11244719 -1.3777893 16711680
-0.28232566 0.1140265 -1.3788199 16711680
-0.26459971 0.11427213 -1.3788972 16711680
-0.26039296 0.11279937 -1.3779464 16711680
-0.25634661 0.11055319 -1.3782707 16711680
-0.25330728 0.10827913 -1.3771411 16711680
-0.28467539 0.11318672 -1.3755351 16711680
-0.280772 0.11434983 -1.3762374 16711680
-0.27596748 0.11507921 -1.3764384 16711680
-0.2709752 0.11514835 -1.3764524 16711680
-0.2661151 0.11454908 -1.3763913 16711680
-0.26223025 0.11350732 -1.3756504 16711680
-0.28767917 0.029639836 -1.410975 16711680
-0.28492725 0.029179033 -1.4119387 16711680
-0.28008881 0.028228786 -1.4124069 16711680
-0.27492839 0.027820464 -1.4126948 16711680
-0.26993561 0.027890958 -1.4127208 16711680
-0.26479888 0.028434217 -1.4124696 16711680
-0.2600016 0.029543191 -1.4120997 16711680
-0.25723836 0.030075245 -1.4111568 16711680
-0.29447946 0.033200119 -1.4098154 16711680
-0.29026729 0.030999023 -1.4109741 16711680
-0.28732458 0.030788902 -1.4130435 16711680
-0.25762063 0.031210095 -1.4131922 16711680
-0.25469899 0.031533074 -1.4112298 16711680
-0.25063896 0.033804398 -1.4101831 16711680
-0.29966363 0.036884665 -1.4078912 16711680
-0.29689768 0.035162017 -1.409562 16711680
-0.24823624 0.035734795 -1.4097725 16711680
-0.24542202 0.037680916 -1.4082234 16711680
-0.30411038 0.041109476 -1.4057758 16711680
-0.30216265 0.039432731 -1.4074842 16711680
-0.24298912 0.040281344 -1.4078017 16711680
-0.24107483 0.042065527 -1.4062002 16711680
-0.3062523 0.045341291 -1.4039233 16711680
-0.23899804 0.046432767 -1.4042811 16711680
-0.30788174 0.050561719 -1.4006008 16711680
-0.30739802 0.049536813 -1.4023198 16711680
-0.23797354 0.050572589 -1.4026537 16711680
-0.23750405 0.051677987 -1.40098 16711680
-0.3085345 0.054518428 -1.3992629 16711680
-0.30774432 0.053363431 -1.4026796 16711680
-0.23696893 0.05552211 -1.3996744 16711680
-0.30904225 0.059057832 -1.3975732 16711680
-0.23655546 0.060094558 -1.3979135 16711680
-0.30948579 0.063499317 -1.3948723 16711680
-0.23623407 0.064525917 -1.3953742 16711680
-0.30963117 0.067808479 -1.3926078 16711680
-0.2361695 0.068840854 -1.3930024 16711680
-0.30946776 0.072521649 -1.3908056 16711680
-0.23644853 0.07355886 -1.3911977 16711680
-0.30911213 0.077046856 -1.3887724 16711680
-0.23691583 0.078138299 -1.3890998 16711680
-0.30853513 0.08113122 -1.3863399 16711680
-0.30797476 0.083518401 -1.3871446 16711680
-0.23820999 0.084497429 -1.3875073 16711680
-0.23757511 0.082127862 -1.3867118 16711680
-0.30808833 0.083308756 -1.3842188 16711680
-0.307289 0.086156592 -1.384222 16711680
-0.23893094 0.087088034 -1.3845475 16711680
-0.23805919 0.084299676 -1.3846433 16711680
-0.30570221 0.090633295 -1.3820736 16711680
-0.24063458 0.091559455 -1.3824048 16711680
-0.30402136 0.094464593 -1.3802763 16711680
-0.3029612 0.096549258 -1.3792189 16711680
-0.24351844 0.09740185 -1.3795162 16711680
-0.2424088 0.095337316 -1.3805496 16711680
-0.30090269 0.099733733 -1.3777004 16711680
-0.24563839 0.10050941 -1.3779936 16711680
-0.29869026 0.10216114 -1.3765419 16711680
-0.2962648 0.10444719 -1.375573 16711680
-0.25036544 0.10508436 -1.3758656 16711680
-0.24791919 0.10289405 -1.3768302 16711680
-0.29390711 0.1065912 -1.3737687 16711680
-0.29103965 0.10916238 -1.3733785 16711680
-0.28792524 0.11148477 -1.3737413 16711680
-0.25893837 0.11191826 -1.3739066 16711680
-0.25572813 0.10967036 -1.3735828 16711680
-0.25284857 0.10720173 -1.3739141 16711680
-0.28856909 0.11065213 -1.3713017 16711680
-0.28578854 0.11224565 -1.3717551 16711680
-0.28101116 0.11377224 -1.3712355 16711680
-0.27594182 0.11452314 -1.3710169 16711680
-0.27094236 0.11459529 -1.371051 16711680
-0.26584804 0.11398681 -1.3713189 16711680
-0.26102996 0.11259881 -1.3719143 16711680
-0.25820634 0.11108182 -1.3714763 16711680
-0.28763556 0.027992386 -1.4075477 16711680
-0.28485304 0.026974913 -1.4073627 16711680
-0.2799904 0.026005067 -1.4078375 16711680
-0.27487704 0.025606781 -1.4082065 16711680
-0.26988062 0.025673486 -1.4082224 16711680
-0.26477894 0.026224829 -1.4079323 16711680
-0.25993919 0.027330797 -1.4075024 16711680
-0.25714922 0.028601408 -1.4081436 16711680
-0.29431742 0.030979093 -1.4053301 16711680
-0.29020041 0.028842404 -1.4064651 16711680
-0.28719079 0.027132731 -1.4054277 16711680
-0.2575812 0.027543232 -1.4055496 16711680
-0.25462392 0.029324517 -1.4065704 16711680
-0.25053319 0.031658731 -1.4056494 16711680
-0.29973769 0.034840029 -1.4034773 16711680
-0.29677135 0.032404535 -1.4039555 16711680
-0.24816608 0.033117186 -1.4043771 16711680
-0.24524684 0.035608441 -1.4037756 16711680
-0.30406511 0.038944393 -1.4014972 16711680
-0.30210727 0.036628753 -1.402092 16711680
-0.24273208 0.03763067 -1.4023095 16711680
-0.24103341 0.039779618 -1.4017636 16711680
-0.30626619 0.043131024 -1.3991725 16711680
-0.23890236 0.044093199 -1.3995402 16711680
-0.30790058 0.048565827 -1.3969687 16711680
-0.30740097 0.046622731 -1.3972312 16711680
-0.2378588 0.047570854 -1.3976105 16711680
-0.23739953 0.049571741 -1.3973441 16711680
-0.30867994 0.052318059 -1.3949097 16711680
-0.23670699 0.053333748 -1.3952942 16711680
-0.3093335 0.056771379 -1.3927525 16711680
-0.23615623 0.057811324 -1.3931596 16711680
-0.30972332 0.061434057 -1.390812 16711680
-0.23587894 0.062493607 -1.391202 16711680
-0.30979323 0.065772332 -1.3883978 16711680
-0.23590565 0.066879176 -1.3887832 16711680
-0.30956036 0.070280164 -1.386242 16711680
-0.23624408 0.071317583 -1.3866302 16711680
-0.30899563 0.074759468 -1.3839872 16711680
-0.30785465 0.075742841 -1.3810161 16711680
-0.23807305 0.076897956 -1.3813581 16711680
-0.23691198 0.07586436 -1.3843952 16711680
-0.30838767 0.079109721 -1.3828114 16711680
-0.3074789 0.079647936 -1.3807154 16711680
-0.23855546 0.080667071 -1.3810396 16711680
-0.23762779 0.080119565 -1.3831989 16711680
-0.30644974 0.083770037 -1.3794827 16711680
-0.23964708 0.084723808 -1.3798686 16711680
-0.30489075 0.088297658 -1.3776164 16711680
-0.30298537 0.089315295 -1.3745737 16711680
-0.24323933 0.090268187 -1.3749007 16711680
-0.24131142 0.089115925 -1.3779641 16711680
-0.30366397 0.092149287 -1.3766407 16711680
-0.30231348 0.093201935 -1.3746052 16711680
-0.24400964 0.09404929 -1.3749331 16711680
-0.24265587 0.093005128 -1.3769631 16711680
-0.3002224 0.097318187 -1.373438 16711680
-0.29775813 0.098853432 -1.371397 16711680
-0.24870062 0.099531151 -1.3716333 16711680
-0.24621208 0.098093763 -1.3737282 16711680
-0.29844531 0.10059435 -1.3736918 16711680
-0.29588187 0.10196444 -1.3710538 16711680
-0.25063029 0.10262015 -1.3713429 16711680
-0.24811254 0.10129086 -1.3739009 16711680
-0.29376113 0.10509815 -1.370224 16711680
-0.29151067 0.10709111 -1.3686788 16711680
-0.25518212 0.10767138 -1.3688953 16711680
-0.25280771 0.10563081 -1.3704485 16711680
-0.28899983 0.10918106 -1.3673998 16711680
-0.2859143 0.11107518 -1.3669151 16711680
-0.28104186 0.11278469 -1.3661935 16711680
-0.27603853 0.11374129 -1.3667862 16711680
-0.27073583 0.11381283 -1.3668077 16711680
-0.26571187 0.11300208 -1.3662982 16711680
-0.26088613 0.11146026 -1.3670374 16711680
-0.25764742 0.10961047 -1.3676387 16711680
-0.27901587 0.11273825 -1.3640296 16711680
-0.27572715 0.11329868 -1.3646814 16711680
-0.27104986 0.1133631 -1.3646978 16711680
-0.2677471 0.11289974 -1.3640909 16711680
-0.28394637 0.025637954 -1.4034582 16711680
-0.27982011 0.024684034 -1.4030133 16711680
-0.27497783 0.024214864 -1.4032553 16711680
-0.2696881 0.024290465 -1.4032881 16711680
-0.26484334 0.024898842 -1.4030932 16711680
-0.26076013 0.025967196 -1.4035789 16711680
-0.29358181 0.029602934 -1.4011104 16711680
-0.28995317 0.027621761 -1.4014595 16711680
-0.28562674 0.025862709 -1.4016333 16711680
-0.28212899 0.024709299 -1.4002869 16711680
-0.26243225 0.025012959 -1.4004229 16711680
-0.25894916 0.026286215 -1.4018213 16711680
-0.25482035 0.028101001 -1.4016143 16711680
-0.2512112 0.030214503 -1.4013723 16711680
-0.29887173 0.033378083 -1.3990791 16711680
-0.2957235 0.030962244 -1.3993201 16711680
-0.24910313 0.031620186 -1.399577 16711680
-0.24602181 0.034125902 -1.3993622 16711680
-0.30351904 0.03773427 -1.396939 16711680
-0.30125326 0.035342041 -1.3971314 16711680
-0.24370302 0.036130466 -1.397382 16711680
-0.24150723 0.038568117 -1.3972629 16711680
-0.30512059 0.041068919 -1.3947519 16711680
-0.23993564 0.042033255 -1.3950543 16711680
-0.30766535 0.048226841 -1.3934884 16711680
-0.30652943 0.04547308 -1.3925453 16711680
-0.23866063 0.046319973 -1.3929844 16711680
-0.23758556 0.049218655 -1.3939025 16711680
-0.30802807 0.0509836 -1.3911259 16711680
-0.30715883 0.049224846 -1.3897058 16711680
-0.23810849 0.050220996 -1.3899658 16711680
-0.23728059 0.051990647 -1.3915012 16711680
-0.30839905 0.054839648 -1.3885684 16711680
-0.30748481 0.053370513 -1.3867677 16711680
-0.23784658 0.05434338 -1.3871442 16711680
-0.23699161 0.055844855 -1.3889573 16711680
-0.30860335 0.059105664 -1.3862219 16711680
-0.30758646 0.058147356 -1.3840735 16711680
-0.23785278 0.05918742 -1.3844173 16711680
-0.23689067 0.060236849 -1.3865311 16711680
-0.30862918 0.0636454 -1.3842487 16711680
-0.30756259 0.06321276 -1.3820469 16711680
-0.23799857 0.064228609 -1.3824062 16711680
-0.23696586 0.064672433 -1.3846269 16711680
-0.30849373 0.068350449 -1.3827744 16711680
-0.30716884 0.067987874 -1.3804392 16711680
-0.23846984 0.068926267 -1.3808728 16711680
-0.23721686 0.069343165 -1.3831587 16711680
-0.30813003 0.0729727 -1.3815528 16711680
-0.30646569 0.072675444 -1.379097 16711680
-0.23934279 0.073690444 -1.3794379 16711680
-0.23766673 0.073606491 -1.3819839 16711680
-0.30522957 0.077189386 -1.3774306 16711680
-0.30274528 0.077696249 -1.374674 16711680
-0.24314964 0.078555033 -1.3749855 16711680
-0.24060436 0.078080982 -1.3778589 16711680
-0.304286 0.081814609 -1.3761171 16711680
-0.30211297 0.081517838 -1.3736335 16711680
-0.24382769 0.082236804 -1.3739996 16711680
-0.24173349 0.082619332 -1.3764539 16711680
-0.30347353 0.085916966 -1.3750217 16711680
-0.30147463 0.086306415 -1.3725245 16711680
-0.24457687 0.087091528 -1.3728994 16711680
-0.24258883 0.086794041 -1.3754352 16711680
-0.3001996 0.090749905 -1.3709935 16711680
-0.29764456 0.091686979 -1.3682619 16711680
-0.24848318 0.092101805 -1.3685806 16711680
-0.24597432 0.091464773 -1.3713304 16711680
-0.2990517 0.094722375 -1.3703625 16711680
-0.29647326 0.095653355 -1.3682249 16711680
-0.24982369 0.096256942 -1.3684907 16711680
-0.24727274 0.095473006 -1.3706472 16711680
-0.29448655 0.099586874 -1.3670552 16711680
-0.29285437 0.10082138 -1.3647333 16711680
-0.25357965 0.10140219 -1.3649539 16711680
-0.25194344 0.10022151 -1.3672854 16711680
-0.29333955 0.10294474 -1.3669583 16711680
-0.29115418 0.10449173 -1.3643842 16711680
-0.25538218 0.10502727 -1.3645874 16711680
-0.25317368 0.10356902 -1.3672222 16711680
-0.28885794 0.1073829 -1.3634708 16711680
-0.28584108 0.10932326 -1.3621031 16711680
-0.28203419 0.11123542 -1.361761 16711680
-0.26466089 0.11148358 -1.3618565 16711680
-0.26079732 0.10967548 -1.3622384 16711680
-0.25773755 0.10782427 -1.3636519 16711680
-0.28010097 0.11155326 -1.3609382 16711680
-0.27595848 0.11218887 -1.360774 16711680
-0.2707521 0.11226252 -1.3608017 16711680
-0.26659507 0.11175053 -1.3610218 16711680
-0.27934656 0.024173446 -1.3997347 16711680
-0.27465954 0.023700148 -1.3994945 16711680
-0.26996592 0.023761883 -1.3994486 16711680
-0.26528317 0.024372205 -1.3998166 16711680
-0.29252598 0.028797835 -1.3979064 16711680
-0.28915346 0.0270859 -1.3969007 16711680
-0.28484473 0.025443256 -1.3969399 16711680
-0.28004441 0.024238069 -1.3971397 16711680
-0.27480283 0.023620244 -1.3965662 16711680
-0.26978457 0.023691151 -1.396596 16711680
-0.26462683 0.024440162 -1.3972746 16711680
-0.25975591 0.025810037 -1.3971088 16711680
-0.25549051 0.027581971 -1.3970979 16711680
-0.25225323 0.029346447 -1.3980553 16711680
-0.29792094 0.03274959 -1.3955257 16711680
-0.29465297 0.030528933 -1.3947484 16711680
-0.29090533 0.028236616 -1.3943262 16711680
-0.25378686 0.02875036 -1.3946041 16711680
-0.25007832 0.031175718 -1.3950349 16711680
-0.246907 0.033473238 -1.3958277 16711680
-0.30259857 0.037081912 -1.3937453 16711680
-0.29970193 0.034787059 -1.3925195 16711680
-0.29648039 0.032464154 -1.3917789 16711680
-0.2483041 0.0331503 -1.3920267 16711680
-0.24514011 0.035557054 -1.3928705 16711680
-0.24233854 0.038160257 -1.3933616 16711680
-0.30344415 0.039783768 -1.3908331 16711680
-0.30165151 0.037830453 -1.389449 16711680
-0.2432439 0.038691737 -1.3897682 16711680
-0.24154112 0.040662915 -1.3911606 16711680
-0.3043378 0.043641709 -1.3881176 16711680
-0.30238995 0.04090007 -1.3867579 16711680
-0.24256542 0.041783296 -1.3870772 16711680
-0.24074389 0.044488478 -1.3884776 16711680
-0.30527103 0.048043407 -1.3859574 16711680
-0.23994195 0.048896283 -1.3862733 16711680
-0.30570811 0.052430935 -1.3836185 16711680
-0.23952776 0.053330351 -1.3840623 16711680
-0.3058266 0.056972295 -1.3814598 16711680
-0.23954058 0.057911284 -1.3818289 16711680
-0.30540919 0.061511405 -1.3793236 16711680
-0.24003667 0.062464587 -1.3797122 16711680
-0.30464655 0.065978274 -1.3775471 16711680
-0.3022202 0.065893456 -1.3751644 16711680
-0.24335974 0.066751763 -1.3754605 16711680
-0.24088486 0.066975147 -1.3779386 16711680
-0.30400449 0.070581943 -1.3764125 16711680
-0.30092791 0.070273012 -1.3739524 16711680
-0.29751143 0.07144551 -1.3721349 16711680
-0.24817026 0.072127134 -1.3723996 16711680
-0.24471265 0.071050435 -1.374274 16711680
-0.24169511 0.071470439 -1.376752 16711680
-0.30333555 0.074531198 -1.3754905 16711680
-0.30040148 0.075048916 -1.3732103 16711680
-0.29685286 0.074848101 -1.3712507 16711680
-0.24891379 0.075524114 -1.3715085 16711680
-0.24536006 0.075891912 -1.3735224 16711680
-0.24249753 0.075428165 -1.3757902 16711680
-0.29983857 0.079955384 -1.371956 16711680
-0.29620656 0.079277337 -1.369746 16711680
-0.24963123 0.079994276 -1.3700178 16711680
-0.24608998 0.080686882 -1.372249 16711680
-0.29901299 0.084689833 -1.3702784 16711680
-0.29599038 0.08404085 -1.3681852 16711680
-0.25006148 0.084739991 -1.3683515 16711680
-0.24704486 0.08542899 -1.3705428 16711680
-0.29851782 0.088328741 -1.3691773 16711680
-0.29545906 0.088757738 -1.3665375 16711680
-0.25064117 0.089364894 -1.3667864 16711680
-0.24781726 0.089298159 -1.3692466 16711680
-0.2942538 0.093138903 -1.3648899 16711680
-0.29274085 0.093220606 -1.3624434 16711680
-0.2534568 0.093750983 -1.3626398 16711680
-0.25195527 0.093704015 -1.3651255 16711680
-0.29350275 0.096950762 -1.3642975 16711680
-0.29186493 0.097914219 -1.3617707 16711680
-0.25444931 0.098397955 -1.3619615 16711680
-0.25281152 0.0975191 -1.3645172 16711680
-0.28984037 0.10212502 -1.3601117 16711680
-0.28800878 0.10319219 -1.3574684 16711680
-0.25835642 0.1038892 -1.3579313 16711680
-0.25655502 0.10262145 -1.3603508 16711680
-0.28843078 0.10520584 -1.3598298 16711680
-0.28587702 0.10679534 -1.3577464 16711680
-0.28276837 0.10908274 -1.357163 16711680
-0.2638028 0.10933737 -1.3572372 16711680
-0.26062566 0.1071399 -1.3578845 16711680
-0.25807482 0.10562696 -1.359978 16711680
-0.28039601 0.10974309 -1.3564302 16711680
-0.27580068 0.11058307 -1.3561203 16711680
-0.27080926 0.11065425 -1.356145 16711680
-0.26613161 0.10995321 -1.3565737 16711680
-0.28760937 0.026685499 -1.3934189 16711680
-0.28422984 0.02559438 -1.3928815 16711680
-0.27963072 0.024528567 -1.3922675 16711680
-0.27476466 0.023921542 -1.3921521 16711680
-0.26977387 0.023992479 -1.3921734 16711680
-0.2648994 0.024744965 -1.3923196 16711680
-0.26031983 0.025954314 -1.3929381 16711680
-0.25700966 0.027118593 -1.3936155 16711680
-0.29320291 0.030419514 -1.390871 16711680
-0.28949863 0.028451536 -1.3903327 16711680
-0.28533173 0.026610211 -1.3899899 16711680
-0.28091165 0.025335509 -1.3892854 16711680
-0.26363245 0.02557921 -1.3893865 16711680
-0.25925726 0.02698797 -1.3901147 16711680
-0.25514397 0.028938845 -1.3905323 16711680
-0.25153384 0.030898575 -1.3914093 16711680
-0.29800379 0.034559265 -1.389081 16711680
-0.29472488 0.032619197 -1.3881706 16711680
-0.29111385 0.03062284 -1.387064 16711680
-0.25356901 0.031160597 -1.3872482 16711680
-0.25001684 0.033256125 -1.3884187 16711680
-0.24658999 0.035501178 -1.3892571 16711680
-0.29943687 0.037430268 -1.3861719 16711680
-0.29604784 0.0356047 -1.3847451 16711680
-0.24876057 0.03626018 -1.3850114 16711680
-0.24546684 0.038187575 -1.3864166 16711680
-0.30270624 0.042877067 -1.3853662 16711680
-0.30046374 0.041166514 -1.3834376 16711680
-0.29725134 0.038488895 -1.3824246 16711680
-0.2476103 0.039168019 -1.3827114 16711680
-0.24454021 0.041995704 -1.3836249 16711680
-0.242323 0.043730285 -1.3856623 16711680
-0.3031894 0.046781067 -1.3829774 16711680
-0.30102274 0.045416027 -1.380762 16711680
-0.24403208 0.046216197 -1.3810451 16711680
-0.24191236 0.047674477 -1.3832841 16711680
-0.30329123 0.051025309 -1.380439 16711680
-0.30121961 0.049852625 -1.3783909 16711680
-0.24391773 0.050667368 -1.3786966 16711680
-0.24190193 0.051893454 -1.3807685 16711680
-0.30345452 0.055556238 -1.3786178 16711680
-0.30082965 0.054579012 -1.3761787 16711680
-0.24435228 0.055361785 -1.3765377 16711680
-0.24189235 0.056286633 -1.3789396 16711680
-0.30309349 0.059636109 -1.3769698 16711680
-0.30036351 0.059243418 -1.3747122 16711680
-0.29690927 0.059354823 -1.3727437 16711680
-0.24843891 0.060014892 -1.3730016 16711680
-0.24506292 0.059994951 -1.3749666 16711680
-0.24221848 0.060407769 -1.3774118 16711680
-0.3028143 0.0627409 -1.3760079 16711680
-0.29991865 0.064038187 -1.3737792 16711680
-0.29591784 0.063659161 -1.3716258 16711680
-0.24953461 0.064302869 -1.3718767 16711680
-0.24556419 0.064803138 -1.3740745 16711680
-0.24264245 0.063612953 -1.3763484 16711680
-0.29879948 0.068183519 -1.3728993 16711680
-0.29519871 0.068515331 -1.3706791 16711680
-0.29225919 0.068698898 -1.3683408 16711680
-0.25335398 0.069144905 -1.3685173 16711680
-0.25035265 0.069183424 -1.3709416 16711680
-0.24669583 0.069063328 -1.3732164 16711680
-0.29443833 0.073226929 -1.3694432 16711680
-0.29155263 0.072659254 -1.3670695 16711680
-0.25411075 0.073191188 -1.367264 16711680
-0.25117534 0.073797643 -1.3697555 16711680
-0.29392231 0.077876292 -1.3678726 16711680
-0.29120699 0.077175364 -1.3654605 16711680
-0.25460705 0.077721685 -1.3656025 16711680
-0.2520085 0.078484572 -1.3679711 16711680
-0.2935608 0.082638025 -1.3658677 16711680
-0.29118255 0.081727415 -1.363476 16711680
-0.2546894 0.082239613 -1.3636791 16711680
-0.25237131 0.083208643 -1.3660879 16711680
-0.29320553 0.087052666 -1.3640124 16711680
-0.29131714 0.086424328 -1.3615829 16711680
-0.25463253 0.086933002 -1.3618381 16711680
-0.25280562 0.087988369 -1.3641689 16711680
-0.29101175 0.091015741 -1.3597767 16711680
-0.25509349 0.091558546 -1.3599639 16711680
-0.28979832 0.095530011 -1.3576488 16711680
-0.28798574 0.096620686 -1.3546339 16711680
-0.25822371 0.097073786 -1.3547871 16711680
-0.25633481 0.096008822 -1.3579512 16711680
-0.2886939 0.099368207 -1.3566616 16711680
-0.28731003 0.100593 -1.3547329 16711680
-0.25900275 0.10098036 -1.3548828 16711680
-0.25757709 0.099738322 -1.3568506 16711680
-0.28511021 0.10453932 -1.3536559 16711680
-0.28255188 0.10630792 -1.3519136 16711680
-0.26389259 0.10655905 -1.3519937 16711680
-0.26133072 0.10489327 -1.3537527 16711680
-0.28029278 0.10773824 -1.3520221 16711680
-0.2757571 0.10864891 -1.3515066 16711680
-0.27074984 0.10872176 -1.3515378 16711680
-0.26619056 0.10793246 -1.3520882 16711680
-0.27795273 0.024744324 -1.389065 16711680
-0.27423143 0.024401646 -1.3886795 16711680
-0.27024925 0.024457891 -1.3887091 16711680
-0.26686612 0.024858639 -1.3890703 16711680
-0.28812426 0.028944559 -1.3867903 16711680
-0.28441304 0.027395297 -1.3862208 16711680
-0.27970448 0.025966514 -1.3857133 16711680
-0.27483758 0.025079954 -1.3856806 16711680
-0.26965213 0.025155384 -1.3857081 16711680
-0.26467517 0.026179951 -1.3859383 16711680
-0.26016402 0.027736202 -1.3863648 16711680
-0.25655606 0.029352579 -1.3869785 16711680
-0.29285356 0.033092834 -1.3847728 16711680
-0.2893194 0.031114548 -1.3839529 16711680
-0.28539887 0.029153429 -1.382944 16711680
-0.2814483 0.027430009 -1.3825253 16711680
-0.26306364 0.027703766 -1.3826094 16711680
-0.25913507 0.029572986 -1.3830574 16711680
-0.25526279 0.031584106 -1.384257 16711680
-0.25215375 0.033396602 -1.3850592 16711680
-0.29399681 0.035886664 -1.3824102 16711680
-0.29036942 0.034119815 -1.3807423 16711680
-0.28722733 0.031673945 -1.3801601 16711680
-0.25740719 0.032030657 -1.3804131 16711680
-0.25425279 0.034679186 -1.3809768 16711680
-0.25080159 0.036469057 -1.3826541 16711680
-0.29808885 0.041047171 -1.3807863 16711680
-0.29478994 0.039507002 -1.3796048 16711680
-0.29140764 0.038181294 -1.3777014 16711680
-0.25337723 0.038736984 -1.3779027 16711680
-0.25000173 0.040149502 -1.3798945 16711680
-0.24682391 0.041795149 -1.3810445 16711680
-0.29847896 0.044852298 -1.3784758 16711680
-0.29486826 0.043617032 -1.3767536 16711680
-0.29215193 0.042794425 -1.3750143 16711680
-0.25271684 0.043417171 -1.3752177 16711680
-0.2500701 0.044253465 -1.3769927 16711680
-0.24657334 0.045450971 -1.3787969 16711680
-0.29871628 0.049015947 -1.3764967 16711680
-0.29491848 0.048132747 -1.3744577 16711680
-0.29227358 0.047309332 -1.3727782 16711680
-0.25272843 0.047923498 -1.3729664 16711680
-0.2501269 0.048755888 -1.3747029 16711680
-0.24642113 0.04966772 -1.3767835 16711680
-0.29835674 0.053261481 -1.3747262 16711680
-0.29505295 0.052882895 -1.372884 16711680
-0.29187927 0.052433066 -1.3707129 16711680
-0.25323036 0.052971359 -1.3709342 16711680
-0.25012434 0.053510815 -1.373117 16711680
-0.24684875 0.053952448 -1.3750077 16711680
-0.2977137 0.056184284 -1.3736972 16711680
-0.29468355 0.0576085 -1.3715689 16711680
-0.29113141 0.057066038 -1.3691117 16711680
-0.25409654 0.057579309 -1.3693186 16711680
-0.25058973 0.058184385 -1.3718172 16711680
-0.24753562 0.056966905 -1.3739594 16711680
-0.2937285 0.06206248 -1.37023 16711680
-0.29043493 0.061781686 -1.3678639 16711680
-0.28741539 0.062360957 -1.3655754 16711680
-0.25791526 0.062746063 -1.3657488 16711680
-0.25493655 0.062320963 -1.3680391 16711680
-0.25171086 0.06249604 -1.3704398 16711680
-0.29293442 0.065407127 -1.3692579 16711680
-0.28985351 0.066471227 -1.3668332 16711680
-0.28650352 0.066224031 -1.3645245 16711680
-0.25902265 0.066628173 -1.3646185 16711680
-0.25556791 0.066989549 -1.3670573 16711680
-0.25257349 0.06601274 -1.3694469 16711680
-0.28910393 0.071357012 -1.3654325 16711680
-0.28550461 0.070628278 -1.3631469 16711680
-0.28253612 0.071016788 -1.3613781 16711680
-0.26296446 0.071294375 -1.3615105 16711680
-0.26000571 0.071061015 -1.3632971 16711680
-0.25646803 0.071721435 -1.3656492 16711680
-0.2885271 0.076176941 -1.3634889 16711680
-0.2851893 0.075338699 -1.3614548 16711680
-0.28190729 0.074596941 -1.3598554 16711680
-0.26372889 0.07481344 -1.3599641 16711680
-0.26045051 0.07563968 -1.3616272 16711680
-0.25719035 0.076625295 -1.3636557 16711680
-0.28858504 0.08071921 -1.3612925 16711680
-0.28538448 0.079738811 -1.3592373 16711680
-0.28213614 0.07864777 -1.3578398 16711680
-0.26359567 0.078890115 -1.3579483 16711680
-0.26042941 0.080087043 -1.3593414 16711680
-0.25723732 0.081147425 -1.361469 16711680
-0.28880185 0.085127644 -1.3589673 16711680
-0.2859695 0.08398445 -1.3567598 16711680
-0.28280208 0.081389248 -1.3563266 16711680
-0.26299575 0.081631444 -1.3564545 16711680
-0.25989273 0.084359929 -1.3568978 16711680
-0.257112 0.08557453 -1.3591497 16711680
-0.28866744 0.089414008 -1.3566166 16711680
-0.28657982 0.088383868 -1.3543432 16711680
-0.25937963 0.088781126 -1.3544904 16711680
-0.25735509 0.089839026 -1.3567886 16711680
-0.288423 0.093325719 -1.3552047 16711680
-0.28685591 0.093422815 -1.3526131 16711680
-0.25920957 0.093758464 -1.3528117 16711680
-0.25768688 0.093760818 -1.3553764 16711680
-0.28583172 0.098068021 -1.35104 16711680
-0.26035839 0.09829963 -1.3511499 16711680
-0.28411725 0.10179181 -1.3494751 16711680
-0.28217557 0.1037089 -1.3478494 16711680
-0.2640993 0.10385409 -1.3479229 16711680
-0.26217899 0.10209332 -1.3495772 16711680
-0.27972415 0.10557365 -1.3475438 16711680
-0.27552494 0.10651442 -1.3470435 16711680
-0.27085906 0.1065789 -1.347067 16711680
-0.26665306 0.10575838 -1.3476118 16711680
-0.2785762 0.02660273 -1.3822246 16711680
-0.27444881 0.025960185 -1.3818427 16711680
-0.2699801 0.026039399 -1.3818167 16711680
-0.2662873 0.026682492 -1.3822569 16711680
-0.28385672 0.0296272 -1.379439 16711680
-0.27994296 0.027866408 -1.3790796 16711680
-0.27505457 0.026746437 -1.3787323 16711680
-0.26946121 0.026803505 -1.3788122 16711680
-0.26448265 0.028111175 -1.3791975 16711680
-0.26065448 0.0300036 -1.3795112 16711680
-0.28824076 0.034132067 -1.3777999 16711680
-0.28566265 0.031962935 -1.3766834 16711680
-0.2821525 0.029503062 -1.375774 16711680
-0.26237249 0.02978896 -1.3758377 16711680
-0.25895387 0.032339767 -1.3767767 16711680
-0.25648436 0.034568027 -1.3779234 16711680
-0.28907806 0.0373502 -1.3748763 16711680
-0.28715587 0.034705296 -1.3738379 16711680
-0.25747949 0.035167694 -1.3739634 16711680
-0.25561172 0.037914559 -1.3750451 16711680
-0.2901434 0.041813582 -1.3727571 16711680
-0.25469258 0.042310618 -1.3729594 16711680
-0.29013547 0.046324443 -1.3705249 16711680
-0.25480866 0.046844304 -1.3707078 16711680
-0.2893939 0.050679307 -1.3685837 16711680
-0.28710049 0.051258706 -1.3656756 16711680
-0.25787556 0.051677287 -1.365917 16711680
-0.25564009 0.051145535 -1.3687907 16711680
-0.2886804 0.055433165 -1.3673282 16711680
-0.28623888 0.055111885 -1.3649989 16711680
-0.2589384 0.055515092 -1.3650911 16711680
-0.25641346 0.055820964 -1.3675778 16711680
-0.28807303 0.059216447 -1.3663831 16711680
-0.28508267 0.059881009 -1.3640426 16711680
-0.28148443 0.060265191 -1.361632 16711680
-0.26382399 0.060410999 -1.3616772 16711680
-0.26017329 0.060245596 -1.3641788 16711680
-0.25719118 0.059658252 -1.3665506 16711680
-0.28413355 0.06445872 -1.3632284 16711680
-0.28025827 0.064181693 -1.3611406 16711680
-0.27562866 0.064760476 -1.3595798 16711680
-0.26970112 0.064835802 -1.3596145 16711680
-0.26508352 0.064393051 -1.3612266 16711680
-0.26119369 0.064746723 -1.3633837 16711680
-0.28325003 0.0685324 -1.3622583 16711680
-0.28012404 0.069165893 -1.3606899 16711680
-0.27528834 0.068733729 -1.3593842 16711680
-0.27017921 0.068879656 -1.3594006 16711680
-0.26529282 0.069459826 -1.3607858 16711680
-0.26221395 0.068847045 -1.3623803 16711680
-0.27944535 0.074122883 -1.3590548 16711680
-0.27509645 0.07355316 -1.3582482 16711680
-0.27047712 0.073622249 -1.3582726 16711680
-0.26616433 0.074311554 -1.359125 16711680
-0.27982 0.078824714 -1.3567141 16711680
-0.27527264 0.078449734 -1.3558059 16711680
-0.27042934 0.078514203 -1.3558341 16711680
-0.26589528 0.079021692 -1.3567883 16711680
-0.28351861 0.084282897 -1.3544198 16711680
-0.28042215 0.082911894 -1.3538156 16711680
-0.27557826 0.082386829 -1.3528434 16711680
-0.27019754 0.082452461 -1.3528819 16711680
-0.26533309 0.083147585 -1.3539004 16711680
-0.26226735 0.084392607 -1.3547385 16711680
-0.28423235 0.087605402 -1.3521163 16711680
-0.28056782 0.086540915 -1.3502427 16711680
-0.27551848 0.085476652 -1.349648 16711680
-0.27025461 0.085543096 -1.3497012 16711680
-0.26529425 0.086755529 -1.3503304 16711680
-0.26168692 0.08792083 -1.3522397 16711680
-0.28429541 0.091610029 -1.3489426 16711680
-0.28192371 0.089681342 -1.3474833 16711680
-0.26399517 0.0899349 -1.3475864 16711680
-0.26167288 0.091921404 -1.3490986 16711680
-0.28395373 0.095861487 -1.3470408 16711680
-0.28280953 0.095723175 -1.3447417 16711680
-0.26325619 0.096036263 -1.3448591 16711680
-0.26214769 0.096176565 -1.3471524 16711680
-0.28325054 0.099319413 -1.3463906 16711680
-0.28141654 0.10067989 -1.3439997 16711680
-0.2647782 0.10092009 -1.3440948 16711680
-0.26289263 0.099500045 -1.346535 16711680
-0.27913359 0.10331847 -1.343492 16711680
-0.27588972 0.10387695 -1.3425066 16711680
-0.27038035 0.10395295 -1.3425345 16711680
-0.26719892 0.10351005 -1.3435298 16711680
-0.27892897 0.028293926 -1.3749592 16711680
-0.27468148 0.027395867 -1.3744437 16711680
-0.269793 0.027466886 -1.3744313 16711680
-0.26555234 0.028482016 -1.3750417 16711680
-0.28405154 0.031312641 -1.3724053 16711680
-0.28038576 0.029023506 -1.3724756 16711680
-0.27564701 0.027651254 -1.3715949 16711680
-0.26880464 0.027745519 -1.3716342 16711680
-0.26409933 0.029250126 -1.3725471 16711680
-0.26049888 0.031642027 -1.3725584 16711680
-0.28775537 0.036493845 -1.3699806 16711680
-0.28643405 0.034004353 -1.3704134 16711680
-0.25815558 0.034410894 -1.3705587 16711680
-0.25697589 0.036725596 -1.3702418 16711680
-0.28847337 0.039339304 -1.3681148 16711680
-0.25624955 0.039723225 -1.3682348 16711680
-0.28834864 0.044046983 -1.3659431 16711680
-0.2564849 0.044510864 -1.3660837 16711680
-0.28757608 0.047320388 -1.3650866 16711680
-0.28644994 0.048878968 -1.3634222 16711680
-0.25848982 0.049267627 -1.3635707 16711680
-0.25731373 0.047671109 -1.365217 16711680
-0.28412634 0.052912865 -1.3620141 16711680
-0.2816866 0.05418691 -1.3598595 16711680
-0.26330721 0.054338276 -1.3599557 16711680
-0.26091591 0.053253919 -1.3621365 16711680
-0.28285363 0.057029493 -1.3621165 16711680
-0.27984691 0.0575279 -1.3599101 16711680
-0.27539492 0.058562055 -1.3580651 16711680
-0.26978043 0.058662698 -1.358111 16711680
-0.26530135 0.057734001 -1.3599857 16711680
-0.26215893 0.056974713 -1.362257 16711680
-0.27827632 0.061468747 -1.3600724 16711680
-0.27482575 0.061859675 -1.3590436 16711680
-0.27035087 0.061984293 -1.3590987 16711680
-0.26699984 0.061615672 -1.3601298 16711680
-0.27877492 0.087707318 -1.3474861 16711680
-0.27508959 0.087082796 -1.3473582 16711680
-0.27074498 0.08713977 -1.3473874 16711680
-0.26710546 0.087876074 -1.3475376 16711680
-0.28013855 0.089881137 -1.3444405 16711680
-0.27551824 0.088485755 -1.3441261 16711680
-0.27032903 0.08856985 -1.3441191 16711680
-0.26582843 0.090029046 -1.3445303 16711680
-0.28130105 0.093657471 -1.3420151 16711680
-0.26468772 0.093919277 -1.3420599 16711680
-0.2799924 0.098237261 -1.3401138 16711680
-0.27743527 0.099501282 -1.3375924 16711680
-0.26886532 0.099588826 -1.3374732 16711680
-0.26614568 0.098478988 -1.3401299 16711680
-0.27834839 0.10134506 -1.3401033 16711680
-0.27540374 0.10128064 -1.3386416 16711680
-0.2707468 0.10134704 -1.3386667 16711680
-0.26780728 0.10147364 -1.3401567 16711680
-0.2726714 0.027310349 -1.3711263 16711680
-0.27146244 0.027357906 -1.3712056 16711680
-0.2837171 0.029524095 -1.36713 16711680
-0.27964649 0.027762972 -1.3682653 16711680
-0.2749373 0.026807573 -1.368766 16711680
-0.26943293 0.026886351 -1.3688042 16711680
-0.26476631 0.027962323 -1.3683425 16711680
-0.26071274 0.029841576 -1.3672374 16711680
-0.28801817 0.033568464 -1.3647068 16711680
-0.28623709 0.031980857 -1.3664846 16711680
-0.25829577 0.032356538 -1.3666631 16711680
-0.25642887 0.034033712 -1.3647432 16711680
-0.28923658 0.037195653 -1.3633991 16711680
-0.25537443 0.037675135 -1.3635864 16711680
-0.28902945 0.041951321 -1.3611974 16711680
-0.2556867 0.042417608 -1.3613749 16711680
-0.28800213 0.044956297 -1.3589499 16711680
-0.28637859 0.04733244 -1.3591427 16711680
-0.2584489 0.047686502 -1.3594077 16711680
-0.25683606 0.045463491 -1.3591899 16711680
-0.28415781 0.050254554 -1.3567983 16711680
-0.28157857 0.05269707 -1.3569548 16711680
-0.26339611 0.052954853 -1.3570536 16711680
-0.26073238 0.050564319 -1.3569604 16711680
-0.28262046 0.052337393 -1.3537681 16711680
-0.27941728 0.054417878 -1.3547146 16711680
-0.27528653 0.056370676 -1.3544712 16711680
-0.26978853 0.056472823 -1.354599 16711680
-0.26552817 0.054573391 -1.3548558 16711680
-0.26227599 0.052619673 -1.3538181 16711680
-0.27388909 0.056921862 -1.3516288 16711680
-0.27112362 0.056955129 -1.3516483 16711680
-0.27853367 0.08994697 -1.3404455 16711680
-0.27522025 0.089142427 -1.3398479 16711680
-0.27061462 0.089206226 -1.3398612 16711680
-0.26734608 0.090095259 -1.340526 16711680
-0.27901605 0.092031799 -1.3383703 16711680
-0.27601993 0.090434842 -1.3365587 16711680
-0.26990455 0.09045326 -1.3366504 16711680
-0.26689062 0.092193954 -1.338412 16711680
-0.27861565 0.095536411 -1.3369187 16711680
-0.27573141 0.096368119 -1.3349556 16711680
-0.27024683 0.096444227 -1.3349783 16711680
-0.26733276 0.09578307 -1.3370389 16711680
-0.27448213 0.099401966 -1.3362334 16711680
-0.2716153 0.099444091 -1.336247 16711680
-0.2827715 0.022961006 -1.3628693 16711680
-0.27922684 0.022660989 -1.3639243 16711680
-0.27448079 0.022564575 -1.3647177 16711680
-0.26971519 0.022639103 -1.3647461 16711680
-0.26503614 0.022864655 -1.3640144 16711680
-0.26157469 0.023049727 -1.3629524 16711680
-0.2878364 0.02692534 -1.3612685 16711680
-0.28478944 0.026165508 -1.3633164 16711680
-0.28022054 0.025220297 -1.3650988 16711680
-0.27502277 0.025133029 -1.3662876 16711680
-0.26922604 0.025224485 -1.3663214 16711680
-0.26410624 0.025521174 -1.3652446 16711680
-0.25950423 0.026525334 -1.3634527 16711680
-0.25644559 0.027379185 -1.3614323 16711680
-0.28937048 0.030649405 -1.3610418 16711680
-0.28672618 0.029723018 -1.3638693 16711680
-0.25765008 0.030200154 -1.3640376 16711680
-0.25498891 0.031208154 -1.3611915 16711680
-0.29232457 0.034746177 -1.3566175 16711680
-0.29106107 0.035149097 -1.3591988 16711680
-0.25345883 0.035711318 -1.3594202 16711680
-0.25212857 0.035663001 -1.3567369 16711680
-0.29236996 0.038134538 -1.3549955 16711680
-0.29103097 0.039817072 -1.3570457 16711680
-0.25358582 0.040349711 -1.3572478 16711680
-0.25218347 0.038747944 -1.3551959 16711680
-0.28972748 0.044261277 -1.354645 16711680
-0.28717309 0.047205269 -1.3557698 16711680
-0.25760153 0.047590546 -1.3559158 16711680
-0.25493503 0.044687316 -1.354812 16711680
-0.28852141 0.047693498 -1.3518149 16711680
-0.28593013 0.049796753 -1.3530011 16711680
-0.25893176 0.050171915 -1.3531778 16711680
-0.25625515 0.048137605 -1.3520026 16711680
-0.28760558 0.050208405 -1.3492237 16711680
-0.28444037 0.052574366 -1.350003 16711680
-0.28070176 0.05465968 -1.3509831 16711680
-0.27618256 0.056499228 -1.3514677 16711680
-0.26883456 0.05659106 -1.3515418 16711680
-0.26430377 0.054914355 -1.3510685 16711680
-0.26045811 0.052913241 -1.3501343 16711680
-0.25720626 0.050619908 -1.3494 16711680
-0.28289047 0.055009034 -1.3472065 16711680
-0.27947131 0.056526385 -1.3477484 16711680
-0.27499366 0.057784311 -1.3481627 16711680
-0.27005103 0.057857398 -1.3481923 16711680
-0.26557434 0.056720078 -1.3479044 16711680
-0.26203883 0.055309664 -1.3473102 16711680
-0.2724683 0.059134848 -1.3449019 16711680
-0.27440038 0.091253623 -1.3346642 16711680
-0.27128816 0.091416284 -1.3345995 16711680
-0.27418396 0.093383729 -1.3337083 16711680
-0.27169794 0.09342318 -1.333721 16711680
-0.27383721 0.011822075 -1.3621739 16711680
-0.27051276 0.011869289 -1.3622135 16711680
-0.2825267 0.016016327 -1.3605388 16711680
-0.27912992 0.015113428 -1.3616806 16711680
-0.27448827 0.015115991 -1.3624429 16711680
-0.26943144 0.015147187 -1.3624616 16711680
-0.26479983 0.015387539 -1.3617581 16711680
-0.2614418 0.016338393 -1.3606541 16711680
-0.2873261 0.020783279 -1.3586025 16711680
-0.28432742 0.019749433 -1.3606153 16711680
-0.27975446 0.019173793 -1.3623897 16711680
-0.2748633 0.019060791 -1.3631793 16711680
-0.2692658 0.019080333 -1.3631912 16711680
-0.26434097 0.019387051 -1.3624734 16711680
-0.25971884 0.020086858 -1.3607186 16711680
-0.2567628 0.021232191 -1.3587742 16711680
-0.28906178 0.024120908 -1.3585328 16711680
-0.2860823 0.023095317 -1.3609573 16711680
-0.2581847 0.023649491 -1.3612485 16711680
-0.25514632 0.024608113 -1.3587476 16711680
-0.29271033 0.02889958 -1.3553768 16711680
-0.29120901 0.028143376 -1.3576014 16711680
-0.25307399 0.028726146 -1.357805 16711680
-0.25158772 0.029482327 -1.3556118 16711680
-0.29340029 0.032892928 -1.3543237 16711680
-0.2920936 0.032548428 -1.3572265 16711680
-0.25231522 0.0330709 -1.3574373 16711680
-0.25098068 0.033478148 -1.3545251 16711680
-0.29358295 0.037416145 -1.3521997 16711680
-0.29222474 0.040370815 -1.3535464 16711680
-0.25238484 0.041002896 -1.3537288 16711680
-0.25091377 0.038040675 -1.3524182 16711680
-0.29318097 0.041475974 -1.3497223 16711680
-0.29176009 0.043350417 -1.3512083 16711680
-0.2528702 0.043818999 -1.3514749 16711680
-0.25137633 0.042043425 -1.3499032 16711680
-0.29272264 0.044356555 -1.3472238 16711680
-0.29074785 0.046932019 -1.3482829 16711680
-0.25391951 0.047406144 -1.3484201 16711680
-0.25192404 0.044969924 -1.3473965 16711680
-0.28899077 0.050352115 -1.3455999 16711680
-0.28627676 0.052665297 -1.3465357 16711680
-0.25859791 0.053054489 -1.3467091 16711680
-0.25581518 0.050855502 -1.3457341 16711680
-0.28768083 0.052615099 -1.3426524 16711680
-0.28449026 0.054870874 -1.343606 16711680
-0.28058565 0.057073209 -1.3438616 16711680
-0.27540717 0.058671214 -1.3446008 16711680
-0.26961496 0.058759764 -1.3446125 16711680
-0.26441914 0.057321858 -1.3439463 16711680
-0.26041853 0.055208497 -1.3437824 16711680
-0.25712651 0.053030767 -1.3428512 16711680
-0.2790834 0.05815313 -1.3412828 16711680
-0.27483121 0.059159242 -1.3417324 16711680
-0.27018172 0.059225872 -1.3417808 16711680
-0.26587123 0.058334686 -1.3413891 16711680
-0.27823409 0.0047595352 -1.3612849 16711680
-0.27425888 0.0037008673 -1.3623238 16711680
-0.2694332 0.0037988052 -1.3623623 16711680
-0.26542181 0.0049532726 -1.361359 16711680
-0.28256553 0.0090366751 -1.3590807 16711680
-0.27955198 0.0085576139 -1.3609213 16711680
-0.27438822 0.0088962093 -1.3620801 16711680
-0.26937741 0.0089582652 -1.3621068 16711680
-0.26417115 0.0087030083 -1.3610003 16711680
-0.26119328 0.0093478933 -1.3591967 16711680
-0.28374746 0.013086725 -1.358193 16711680
-0.28030133 0.012471553 -1.3608992 16711680
-0.27606592 0.011938296 -1.3619817 16711680
-0.26772499 0.012030765 -1.3620148 16711680
-0.26356524 0.012726337 -1.3609898 16711680
-0.26013288 0.013367072 -1.3583404 16711680
-0.28771082 0.018549584 -1.3557374 16711680
-0.28583416 0.016432639 -1.3572196 16711680
-0.25804994 0.016833857 -1.3572812 16711680
-0.2562809 0.018968333 -1.3558681 16711680
-0.29002184 0.021736272 -1.3543354 16711680
-0.25407428 0.022266559 -1.354654 16711680
-0.29333881 0.026371747 -1.35207 16711680
-0.29198784 0.024187833 -1.3532759 16711680
-0.25214851 0.024760306 -1.3534578 16711680
-0.25084212 0.026966896 -1.3522992 16711680
-0.2948038 0.030818112 -1.3499464 16711680
-0.24947709 0.031422805 -1.3501669 16711680
-0.29509759 0.03525994 -1.3477145 16711680
-0.24928844 0.035905868 -1.3479562 16711680
-0.29459342 0.039783876 -1.3457096 16711680
-0.24990143 0.040447809 -1.3459011 16711680
-0.29348397 0.044000044 -1.3434869 16711680
-0.29213166 0.046760898 -1.3442923 16711680
-0.25253049 0.047295727 -1.3445091 16711680
-0.25111276 0.044624083 -1.3436354 16711680
-0.2924664 0.046628028 -1.3408673 16711680
-0.2906929 0.049238883 -1.3413565 16711680
-0.2540215 0.04975275 -1.3415902 16711680
-0.25212556 0.047101364 -1.3411468 16711680
-0.28844038 0.052034982 -1.3392349 16711680
-0.28567222 0.054406591 -1.3391528 16711680
-0.28230205 0.056712613 -1.3402977 16711680
-0.26261893 0.05699636 -1.3404114 16711680
-0.25912061 0.05475089 -1.3393222 16711680
-0.25636357 0.052522235 -1.3394454 16711680
-0.2834591 0.055965859 -1.3372068 16711680
-0.28006828 0.057668574 -1.3373096 16711680
-0.27496767 0.059090294 -1.3366021 16711680
-0.26996958 0.059160054 -1.3366207 16711680
-0.26494443 0.057931334 -1.3374394 16711680
-0.26141843 0.056293104 -1.3373321 16711680
-0.28220329 0.0028819591 -1.3556795 16711680
-0.27864927 0.0037120655 -1.358778 16711680
-0.2741231 0.0033458397 -1.3598312 16711680
-0.26952279 0.0034303293 -1.3598365 16711680
-0.2649824 0.0039073974 -1.3588409 16711680
-0.26135626 0.0031641424 -1.3557982 16711680
-0.28386104 0.0065858811 -1.3560941 16711680
-0.27932093 0.0064965039 -1.3565755 16711680
-0.27449393 0.0066694692 -1.3562125 16711680
-0.26916248 0.0067434385 -1.3562436 16711680
-0.26433674 0.0067115501 -1.3566574 16711680
-0.2597954 0.0069242939 -1.3562258 16711680
-0.28740063 0.011600822 -1.3534628 16711680
-0.28519443 0.010684744 -1.3552775 16711680
-0.28016254 0.0098216981 -1.356421 16711680
-0.2635926 0.010059986 -1.3565303 16711680
-0.25856772 0.011056639 -1.3554261 16711680
-0.25636908 0.012129825 -1.3537076 16711680
-0.28853297 0.015143864 -1.3520901 16711680
-0.28588799 0.014948912 -1.3547077 16711680
-0.25797933 0.015341863 -1.354856 16711680
-0.25526723 0.01565975 -1.3521677 16711680
-0.29011843 0.019705467 -1.3499944 16711680
-0.25384933 0.020341583 -1.3502223 16711680
-0.29323882 0.024494596 -1.3475877 16711680
-0.29161951 0.022152491 -1.3478777 16711680
-0.25250491 0.022564288 -1.3480328 16711680
-0.25084391 0.025089946 -1.3477939 16711680
-0.29473844 0.028685585 -1.3454711 16711680
-0.24943563 0.029338215 -1.3457155 16711680
-0.29513142 0.033031564 -1.3432311 16711680
-0.24914557 0.033705845 -1.343493 16711680
-0.29490414 0.037456676 -1.3413583 16711680
-0.24947974 0.038112964 -1.3415977 16711680
-0.29384199 0.042202652 -1.3389096 16711680
-0.2506364 0.042774018 -1.3391461 16711680
-0.29264164 0.045233324 -1.3374773 16711680
-0.29143262 0.04745622 -1.336542 16711680
-0.25318724 0.048016526 -1.3367532 16711680
-0.25191996 0.045809329 -1.3376839 16711680
-0.28894222 0.050485164 -1.3349384 16711680
-0.28639618 0.052906699 -1.3340336 16711680
-0.25828972 0.05328859 -1.3342794 16711680
-0.2557416 0.050964136 -1.3351214 16711680
-0.28405425 0.054484576 -1.3329276 16711680
-0.27988991 0.056694239 -1.3322085 16711680
-0.27541766 0.058108807 -1.3320123 16711680
-0.26944879 0.05819346 -1.3320394 16711680
-0.26490313 0.056878448 -1.3322482 16711680
-0.26071385 0.054816127 -1.3330562 16711680
-0.27393872 0.058005646 -1.3307599 16711680
-0.27091983 0.058051057 -1.3307751 16711680
-0.28208688 0.0019218251 -1.3541034 16711680
-0.27931818 0.00040199608 -1.353534 16711680
-0.27428916 -0.00016137958 -1.3528256 16711680
-0.26910165 -1.8142164e-05 -1.3528748 16711680
-0.26410872 0.00059397519 -1.3535515 16711680
-0.26141772 0.0022143126 -1.3542144 16711680
-0.28310466 0.0044351369 -1.3525466 16711680
-0.28005776 0.0033822209 -1.3513862 16711680
-0.27418029 0.0036383942 -1.3536896 16711680
-0.26929706 0.0037046671 -1.3537235 16711680
-0.26352561 0.0037063733 -1.3514262 16711680
-0.26045883 0.0047679096 -1.3526509 16711680
-0.28706807 0.01144848 -1.3507847 16711680
-0.28416115 0.0089060515 -1.3501478 16711680
-0.28056514 0.0077954307 -1.3481158 16711680
-0.26300493 0.0079925805 -1.3482698 16711680
-0.25943565 0.0092810094 -1.350319 16711680
-0.25677106 0.011604145 -1.3511915 16711680
-0.2879931 0.013969384 -1.3485509 16711680
-0.28443995 0.012648605 -1.3469017 16711680
-0.28124702 0.011128154 -1.3461399 16711680
-0.26240399 0.011430692 -1.3462315 16711680
-0.25924167 0.012950871 -1.3471309 16711680
-0.25579637 0.014477044 -1.3486433 16711680
-0.28893432 0.017703399 -1.3453343 16711680
-0.28602105 0.015393421 -1.3445952 16711680
-0.25777316 0.015797898 -1.3447528 16711680
-0.25492752 0.018145651 -1.3455504 16711680
-0.29258102 0.023363248 -1.3432503 16711680
-0.29099327 0.021071151 -1.3429492 16711680
-0.2529456 0.021601565 -1.3431718 16711680
-0.25141516 0.023955602 -1.3434741 16711680
-0.29352683 0.026447192 -1.3410056 16711680
-0.29188609 0.023245953 -1.3398328 16711680
-0.25201285 0.023955211 -1.339981 16711680
-0.25053933 0.027027745 -1.341273 16711680
-0.2940731 0.030883491 -1.3388375 16711680
-0.2500954 0.031562857 -1.3390309 16711680
-0.29399639 0.035584621 -1.3366256 16711680
-0.25025424 0.036171738 -1.3369627 16711680
-0.29320338 0.039841115 -1.3345133 16711680
-0.29203087 0.040945373 -1.3316154 16711680
-0.25227401 0.041864045 -1.3321462 16711680
-0.25116926 0.040441491 -1.3347533 16711680
-0.29240635 0.043193139 -1.3339187 16711680
-0.29105684 0.044780862 -1.3319756 16711680
-0.25341505 0.045301154 -1.332203 16711680
-0.25205278 0.043776114 -1.3341578 16711680
-0.28862336 0.048335075 -1.3306298 16711680
-0.2863642 0.050319836 -1.3291672 16711680
-0.25825611 0.050681822 -1.3292521 16711680
-0.25589514 0.04876408 -1.3308593 16711680
-0.28383371 0.05245734 -1.3286318 16711680
-0.27987358 0.054499686 -1.3274083 16711680
-0.27627218 0.055725291 -1.3267012 16711680
-0.26835269 0.055887349 -1.3268713 16711680
-0.26475686 0.054741871 -1.3276081 16711680
-0.26075834 0.052792288 -1.3288647 16711680
-0.27424765 0.056284189 -1.3269467 16711680
-0.27050641 0.056343917 -1.3269776 16711680
-0.27818629 -0.0012426227 -1.3504114 16711680
-0.27392802 -0.0024816021 -1.3497854 16711680
-0.26942864 -0.0024600625 -1.3498179 16711680
-0.26519477 -0.0010637641 -1.350477 16711680
-0.2783041 0.0024700537 -1.3489594 16711680
-0.27428466 0.0021062866 -1.3479718 16711680
-0.26914468 0.0021902025 -1.3479972 16711680
-0.26516226 0.0026752204 -1.3490245 16711680
-0.27814707 0.0073276423 -1.3468034 16711680
-0.27427727 0.0068863556 -1.3457042 16711680
-0.26929423 0.0069478452 -1.345735 16711680
-0.26545957 0.007557109 -1.3468227 16711680
-0.2830078 0.013344228 -1.3433287 16711680
-0.27917501 0.011766743 -1.3435279 16711680
-0.27439958 0.01084175 -1.3423539 16711680
-0.26922628 0.01092203 -1.3423762 16711680
-0.26449865 0.01201826 -1.3435762 16711680
-0.26079494 0.0136206 -1.343261 16711680
-0.28751886 0.017311204 -1.3412079 16711680
-0.28486228 0.014831044 -1.3407177 16711680
-0.27959344 0.012933403 -1.3402877 16711680
-0.27538311 0.01238342 -1.3398418 16711680
-0.2687529 0.0124202 -1.3398579 16711680
-0.26410705 0.013164043 -1.3403242 16711680
-0.2588411 0.015216507 -1.3408512 16711680
-0.25624925 0.017795362 -1.3414875 16711680
-0.28931603 0.019866168 -1.338614 16711680
-0.28669727 0.017303221 -1.3377502 16711680
-0.25703323 0.017716616 -1.3379862 16711680
-0.25456005 0.020332705 -1.3387848 16711680
-0.29244718 0.025466509 -1.3371367 16711680
-0.29122707 0.023394343 -1.3360615 16711680
-0.25271809 0.023933299 -1.3362042 16711680
-0.25151566 0.026077539 -1.3374709 16711680
-0.29274529 0.028983574 -1.3345636 16711680
-0.2918438 0.027610552 -1.3326511 16711680
-0.25216967 0.028164107 -1.3328577 16711680
-0.25131434 0.02953982 -1.334837 16711680
-0.29276499 0.033383902 -1.3326769 16711680
-0.29185495 0.032904893 -1.3303553 16711680
-0.25225371 0.033774868 -1.3306086 16711680
-0.25139475 0.03401402 -1.3329298 16711680
-0.29241773 0.037493005 -1.3315969 16711680
-0.2912685 0.037933722 -1.3292586 16711680
-0.25296184 0.038479734 -1.3295289 16711680
-0.25186259 0.038064286 -1.3318021 16711680
-0.28953794 0.042488683 -1.3277665 16711680
-0.28707516 0.043465011 -1.3247319 16711680
-0.25730607 0.043782528 -1.3248327 16711680
-0.25479639 0.042954996 -1.3280114 16711680
-0.28789794 0.045718171 -1.3270411 16711680
-0.2852892 0.047256567 -1.3250583 16711680
-0.28201523 0.048045237 -1.3225547 16711680
-0.26243499 0.048372973 -1.3227097 16711680
-0.25924283 0.047720149 -1.3252085 16711680
-0.25660029 0.046126373 -1.3271235 16711680
-0.28314811 0.050038751 -1.3250531 16711680
-0.27985281 0.051353149 -1.3235916 16711680
-0.27500072 0.052805606 -1.3225354 16711680
-0.26955086 0.052903 -1.3226032 16711680
-0.26470384 0.05155798 -1.323671 16711680
-0.26149881 0.050360307 -1.3250967 16711680
-0.27342233 0.054753333 -1.324183 16711680
-0.27161151 0.054733314 -1.3240314 16711680
-0.27271065 0.012175731 -1.3397142 16711680
-0.27084956 0.012197249 -1.3397475 16711680
-0.28356546 0.014982991 -1.3367869 16711680
-0.27927324 0.013611205 -1.3364288 16711680
-0.27439472 0.012767471 -1.3364421 16711680
-0.26926115 0.012828231 -1.3365148 16711680
-0.26441073 0.013819702 -1.3364842 16711680
-0.26013064 0.015295081 -1.3369602 16711680
-0.28773549 0.019386854 -1.3351622 16711680
-0.28477177 0.017228879 -1.3340201 16711680
-0.2808173 0.015164673 -1.3332598 16711680
-0.26286 0.015411478 -1.333362 16711680
-0.25895858 0.017611116 -1.3341104 16711680
-0.25610739 0.019839924 -1.3352314 16711680
-0.28884584 0.022500794 -1.3322134 16711680
-0.28614676 0.020447873 -1.3308102 16711680
-0.25765368 0.020827819 -1.3309677 16711680
