# .PCD v0.7 - Point Cloud Data file format
VERSION 0.7
FIELDS x y z rgb
SIZE 4 4 4 4
TYPE F F F U
COUNT 1 1 1 1
WIDTH 1072
HEIGHT 1
VIEWPOINT 0 0 0 1 0 0 0
POINTS 1072
DATA ascii
-0.038712665 0.0029820241 -1.4057508 16711680
-0.042619832 0.00023390725 -1.4079428 16711680
-0.045737728 -0.0032298304 -1.4099203 16711680
-0.048197068 -0.0064483564 -1.4121398 16711680
-0.050097667 -0.0084380116 -1.4147739 16711680
-0.011053516 0.013407547 -1.4046831 16711680
-0.014650974 0.012149103 -1.4033831 16711680
-0.018765895 0.010901637 -1.4023885 16711680
-0.048263982 -0.0096478881 -1.4116448 16711680
-0.050045796 -0.012574842 -1.4144871 16711680
-0.051563464 -0.014897631 -1.4173621 16711680
-0.0045088693 0.012685809 -1.4053665 16711680
-0.0077285715 0.011363391 -1.4036217 16711680
-0.011353547 0.010204904 -1.4022651 16711680
-0.049598582 -0.016552567 -1.4142152 16711680
-0.051065527 -0.018889356 -1.4171989 16711680
-0.052042387 -0.021360725 -1.4199926 16711680
-0.0016011652 0.0098679289 -1.4050484 16711680
-0.0037118215 0.0088823177 -1.4031726 16711680
-0.050068371 -0.023559045 -1.417694 16711680
-0.050747059 -0.024506031 -1.420408 16711680
0.0019124392 0.0066512991 -1.405653 16711680
-0.00075187627 0.0059777182 -1.403285 16711680
-0.048230372 -0.027256388 -1.4181541 16711680
-0.048612498 -0.028618244 -1.4214092 16711680
0.0056002894 0.0035710279 -1.4070039 16711680
-0.046297811 -0.032689381 -1.4231414 16711680
0.0089315772 0.000102235 -1.4083393 16711680
-0.043657042 -0.036563605 -1.4247961 16711680
0.012042079 -0.0034942906 -1.4099789 16711680
-0.040589795 -0.040288404 -1.4264369 16711680
0.014716558 -0.0073703267 -1.4117581 16711680
-0.037182029 -0.04365373 -1.4280249 16711680
0.016979508 -0.0111576 -1.4138141 16711680
0.015632259 -0.014074806 -1.4126976 16711680
-0.031082001 -0.046780437 -1.4273072 16711680
-0.033607572 -0.046570972 -1.4297349 16711680
0.019240065 -0.014508425 -1.4163746 16711680
0.017273031 -0.017728724 -1.4152029 16711680
0.015656313 -0.021416245 -1.4155747 16711680
-0.023527741 -0.04880305 -1.4278066 16711680
-0.027374974 -0.048917729 -1.4291532 16711680
-0.030229202 -0.049103022 -1.4318442 16711680
0.021070892 -0.017413151 -1.4186341 16711680
0.019613119 -0.020832259 -1.4181235 16711680
0.017192079 -0.024025356 -1.4174793 16711680
-0.020871274 -0.050640203 -1.4293735 16711680
-0.02405796 -0.051411465 -1.4318372 16711680
-0.027205849 -0.051226735 -1.4337369 16711680
0.02213156 -0.024367079 -1.4207932 16711680
0.019454999 -0.027545664 -1.4196674 16711680
-0.01749905 -0.053417884 -1.4312795 16711680
-0.020559814 -0.05419169 -1.4341134 16711680
0.024461148 -0.028251274 -1.4231166 16711680
0.022256417 -0.031028124 -1.4219475 16711680
-0.014161605 -0.05660665 -1.4333235 16711680
-0.016793856 -0.057116173 -1.4360046 16711680
0.026312625 -0.031031746 -1.4249982 16711680
0.024804005 -0.034721099 -1.4242101 16711680
-0.010796613 -0.059585702 -1.4353181 16711680
-0.013752259 -0.059440885 -1.4376148 16711680
0.026632247 -0.038623769 -1.4263985 16711680
0.02612224 -0.041160502 -1.4251394 16711680
-0.0050777611 -0.062968925 -1.4348598 16711680
-0.0069716154 -0.062086273 -1.4368773 16711680
0.02823521 -0.041283529 -1.4288073 16711680
0.028119871 -0.044370003 -1.4281327 16711680
-0.0016086418 -0.065128326 -1.4373783 16711680
-0.0040765675 -0.063871197 -1.4389001 16711680
0.029204259 -0.048650306 -1.4303877 16711680
0.029020833 -0.051973153 -1.4297506 16711680
0.0055451309 -0.068364128 -1.437508 16711680
0.0027742339 -0.067101866 -1.438706 16711680
0.029804824 -0.051109295 -1.4326572 16711680
0.029173488 -0.054702897 -1.4329333 16711680
0.028069878 -0.057921 -1.4348469 16711680
0.013011916 -0.068463013 -1.4395247 16711680
0.0091171991 -0.068714701 -1.4391922 16711680
0.0057026828 -0.067969203 -1.4401739 16711680
0.026722686 -0.060047667 -1.4353601 16711680
0.023579663 -0.063200951 -1.436808 16711680
0.01961752 -0.065973952 -1.4380455 16711680
0.015383692 -0.0679259 -1.438951 16711680
-0.021991611 0.0092156306 -1.4014693 16711680
-0.02513672 0.0075124782 -1.4011407 16711680
-0.029223491 0.0050717201 -1.4010633 16711680
-0.033411581 0.002600627 -1.4017066 16711680
-0.037372462 -0.0001741387 -1.4029416 16711680
-0.040908173 -0.0031293705 -1.4047059 16711680
-0.044089615 -0.005821798 -1.4070396 16711680
-0.046295382 -0.0077516446 -1.4090846 16711680
-0.014829065 0.0087672956 -1.4009998 16711680
-0.018704168 0.0073080771 -1.40014 16711680
-0.022933951 0.0056651309 -1.39961 16711680
-0.026965268 0.0033628494 -1.3992846 16711680
-0.040687032 -0.0062247179 -1.4035773 16711680
-0.043627381 -0.0088262446 -1.406076 16711680
-0.04598403 -0.011756239 -1.408676 16711680
-0.048056662 -0.014100596 -1.4114779 16711680
-0.0082864966 0.0082000382 -1.4015144 16711680
-0.011706406 0.0067094564 -1.4003202 16711680
-0.015369569 0.0049293861 -1.3990309 16711680
-0.045170762 -0.015930843 -1.4083399 16711680
-0.047202945 -0.018109519 -1.4114225 16711680
-0.048965484 -0.020516887 -1.4143524 16711680
-0.0048188404 0.0056269132 -1.4011776 16711680
-0.0081267739 0.0036692247 -1.3997357 16711680
-0.045681946 -0.022570036 -1.4114686 16711680
-0.047660545 -0.024365297 -1.4145346 16711680
0.00093531143 0.0042511355 -1.4036281 16711680
-0.0012589218 0.0025299415 -1.4016541 16711680
-0.0049936869 0.0013627689 -1.3998638 16711680
-0.044424973 -0.026173271 -1.4121795 16711680
-0.045609683 -0.028614337 -1.41548 16711680
-0.047000065 -0.029292664 -1.4185916 16711680
0.0040574856 0.0010075737 -1.4045841 16711680
0.0021862555 -0.0010336004 -1.4026355 16711680
-0.04305961 -0.03268785 -1.4167571 16711680
-0.04457435 -0.033041753 -1.4197924 16711680
0.0070971679 -0.0027124509 -1.4057628 16711680
0.0053603221 -0.004680587 -1.404039 16711680
-0.040132836 -0.036498301 -1.4182594 16711680
-0.041644134 -0.0367961 -1.4209956 16711680
0.010147383 -0.0060500316 -1.4076152 16711680
0.0081775971 -0.0086835511 -1.4058896 16711680
-0.03668727 -0.039994523 -1.4199306 16711680
-0.038804106 -0.040167682 -1.422788 16711680
0.012489516 -0.0093411542 -1.4093969 16711680
0.010700556 -0.012192078 -1.4082242 16711680
0.0085249357 -0.015490094 -1.4077677 16711680
-0.029972121 -0.042390388 -1.4197756 16711680
-0.033211447 -0.042909373 -1.4218961 16711680
-0.035922237 -0.043017898 -1.4245191 16711680
0.014189968 -0.011649739 -1.4109533 16711680
0.013167299 -0.015389489 -1.4110084 16711680
0.010340881 -0.018877739 -1.4102145 16711680
-0.026493147 -0.044622704 -1.4217167 16711680
-0.029991493 -0.045563191 -1.4244953 16711680
-0.033578105 -0.045055799 -1.4259106 16711680
0.014731826 -0.018609026 -1.4135377 16711680
0.012624737 -0.022265431 -1.4130962 16711680
0.010998912 -0.025565406 -1.4123162 16711680
-0.019937908 -0.047137402 -1.4218758 16711680
-0.022969387 -0.047165811 -1.4242623 16711680
-0.026570322 -0.047580883 -1.4265909 16711680
0.014875686 -0.025802551 -1.4156899 16711680
0.012899391 -0.028733674 -1.4143536 16711680
-0.016825307 -0.049527206 -1.4236414 16711680
-0.019517424 -0.049748063 -1.4264513 16711680
0.017378578 -0.029402006 -1.4179549 16711680
0.015477447 -0.032200783 -1.41646 16711680
-0.013551773 -0.052572232 -1.4255244 16711680
-0.015857447 -0.052766308 -1.4282794 16711680
0.020181976 -0.033265568 -1.4199647 16711680
0.018432595 -0.035763096 -1.4182596 16711680
-0.010545908 -0.056017522 -1.427317 16711680
-0.012527408 -0.056129102 -1.4301764 16711680
0.022764025 -0.036856323 -1.4218349 16711680
0.021568136 -0.039245527 -1.4201844 16711680
-0.0075794375 -0.059568554 -1.4293199 16711680
-0.0091006272 -0.059503764 -1.4320704 16711680
0.024271736 -0.042860772 -1.4221989 16711680
-0.0042260918 -0.062823534 -1.4311316 16711680
0.026293753 -0.047158584 -1.4241533 16711680
0.026237866 -0.050734669 -1.4232744 16711680
0.002626705 -0.067278728 -1.4306772 16711680
-0.00030522514 -0.065657064 -1.4325445 16711680
0.027734166 -0.050294489 -1.4263935 16711680
0.027801665 -0.05296078 -1.4262484 16711680
0.0053200694 -0.068672195 -1.4332622 16711680
0.0029848842 -0.067521885 -1.4340813 16711680
0.028447656 -0.056814525 -1.4287593 16711680
0.027817195 -0.060265474 -1.4293933 16711680
0.013000786 -0.070632681 -1.4340008 16711680
0.0095851868 -0.070046499 -1.434651 16711680
0.026747825 -0.062130265 -1.430987 16711680
0.023745665 -0.065424457 -1.4323294 16711680
0.019769967 -0.06820257 -1.4335763 16711680
0.015550828 -0.069963828 -1.4344761 16711680
-0.029590724 0.0018655099 -1.3994195 16711680
-0.032648522 -0.00028498098 -1.3997924 16711680
-0.035812508 -0.0024902858 -1.4007862 16711680
-0.038401365 -0.0043062028 -1.402104 16711680
-0.018588459 0.0039044246 -1.3983846 16711680
-0.022236103 0.0022178367 -1.3977948 16711680
-0.026633775 -3.5405159e-05 -1.397565 16711680
-0.030994654 -0.0023157243 -1.3980715 16711680
-0.035110574 -0.0051958822 -1.3993595 16711680
-0.038604852 -0.0082822246 -1.4013934 16711680
-0.041493908 -0.011234972 -1.4038199 16711680
-0.043678321 -0.013591042 -1.406204 16711680
-0.012037531 0.0031390525 -1.3987666 16711680
-0.015706446 0.0015874095 -1.3976675 16711680
-0.019624576 -0.0003141053 -1.3965421 16711680
-0.023597669 -0.0019461773 -1.3959911 16711680
-0.038183246 -0.012169988 -1.4005525 16711680
-0.040444054 -0.014937924 -1.4030734 16711680
-0.042785428 -0.017232731 -1.4061927 16711680
-0.044516042 -0.019280102 -1.4087241 16711680
-0.0089898268 0.00081442297 -1.3988175 16711680
-0.012392312 -0.0014669336 -1.3973076 16711680
-0.016062168 -0.0024145972 -1.3959554 16711680
-0.039798308 -0.018876325 -1.4033734 16711680
-0.041052677 -0.021514941 -1.4063308 16711680
-0.043304071 -0.023145832 -1.4095243 16711680
-0.0025114231 -0.00052461214 -1.4003183 16711680
-0.005660044 -0.0024037845 -1.3992202 16711680
-0.0085665518 -0.0049231313 -1.397797 16711680
-0.038751241 -0.026048364 -1.4072441 16711680
-0.041228883 -0.027241427 -1.4103736 16711680
-0.043197393 -0.029009884 -1.4130431 16711680
0.00046221633 -0.0037184786 -1.4012811 16711680
-0.0026271697 -0.0062845163 -1.400098 16711680
-0.00477495 -0.0085679898 -1.3989785 16711680
-0.036048129 -0.03049965 -1.4088031 16711680
-0.038193662 -0.031159079 -1.4112149 16711680
-0.040833376 -0.032442417 -1.4140961 16711680
0.0034169685 -0.0069448436 -1.4027543 16711680
0.00045178551 -0.0099995919 -1.4016421 16711680
-0.0016553178 -0.012202593 -1.4005463 16711680
-0.033017091 -0.034201197 -1.4103804 16711680
-0.035118222 -0.034859881 -1.4127526 16711680
-0.038152575 -0.035932828 -1.4156739 16711680
0.0058820816 -0.010398549 -1.4045665 16711680
0.0035300739 -0.013290823 -1.4038219 16711680
0.0013322188 -0.016300302 -1.4027729 16711680
-0.02936204 -0.037744954 -1.4123667 16711680
-0.032143727 -0.038237367 -1.4149595 16711680
-0.035035186 -0.038974546 -1.4173249 16711680
0.0072117783 -0.012865591 -1.4060366 16711680
0.0061226077 -0.016672634 -1.4062797 16711680
0.0036490662 -0.020040696 -1.4050599 16711680
-0.025763338 -0.040592015 -1.4142479 16711680
-0.028915279 -0.041122854 -1.4171958 16711680
-0.032587074 -0.040764868 -1.4185332 16711680
0.0081072543 -0.020262685 -1.4086705 16711680
0.005956497 -0.023552537 -1.4076334 16711680
0.0044655716 -0.02705414 -1.4071801 16711680
-0.018977921 -0.043407053 -1.4144881 16711680
-0.022204075 -0.043289825 -1.4164572 16711680
-0.025335483 -0.043524127 -1.4189748 16711680
0.0095270723 -0.02297827 -1.410507 16711680
0.008283725 -0.02684075 -1.4103101 16711680
0.0060904212 -0.030138947 -1.4093488 16711680
-0.015705898 -0.04544029 -1.416142 16711680
-0.018930856 -0.0458652 -1.4188682 16711680
-0.022492168 -0.045422599 -1.420527 16711680
0.010680957 -0.030567998 -1.4129095 16711680
0.0080236997 -0.033755437 -1.4116892 16711680
0.0063317381 -0.03678355 -1.4114467 16711680
-0.0092144748 -0.047631655 -1.4163224 16711680
-0.012186578 -0.047938343 -1.4180753 16711680
-0.015294241 -0.048612457 -1.4209688 16711680
0.013326844 -0.034536924 -1.4150519 16711680
0.010752531 -0.037356135 -1.4138663 16711680
0.0081579313 -0.039895877 -1.4130311 16711680
-0.0062999208 -0.049961444 -1.4175214 16711680
-0.0089261662 -0.051040731 -1.419998 16711680
-0.011550441 -0.051938761 -1.4228302 16711680
0.016399538 -0.038193028 -1.4166806 16711680
0.013864454 -0.040882096 -1.41535 16711680
0.011055226 -0.043097235 -1.4144032 16711680
-0.003678428 -0.053375307 -1.4189961 16711680
-0.0059436546 -0.054755256 -1.4215186 16711680
-0.0084999613 -0.055584501 -1.4244542 16711680
0.019562088 -0.041784115 -1.4180915 16711680
0.017275143 -0.044294726 -1.4164579 16711680
0.013464933 -0.045082964 -1.41511 16711680
-0.0022868607 -0.056046549 -1.4200132 16711680
-0.0034249197 -0.058777243 -1.4229317 16711680
-0.0056026927 -0.059369609 -1.4259623 16711680
0.022384992 -0.045527477 -1.4194829 16711680
0.02077231 -0.047726467 -1.4177077 16711680
-0.00081745535 -0.062833354 -1.4244666 16711680
-0.002486689 -0.062900975 -1.427243 16711680
0.024666904 -0.048512653 -1.4212822 16711680
0.024160786 -0.051185343 -1.4199473 16711680
0.0021672472 -0.066473916 -1.4268034 16711680
0.000261751 -0.065573201 -1.4289137 16711680
0.026255557 -0.055065077 -1.4223268 16711680
0.0059686713 -0.069164023 -1.4285403 16711680
0.027301488 -0.05887476 -1.4242367 16711680
0.027212748 -0.061977927 -1.4249083 16711680
0.012807786 -0.071976483 -1.4293011 16711680
0.0098826922 -0.071061499 -1.4296634 16711680
0.02633371 -0.064440183 -1.4265649 16711680
0.023612848 -0.067552879 -1.4278595 16711680
0.019907869 -0.070143715 -1.4290152 16711680
0.015956188 -0.071698785 -1.4298067 16711680
-0.02625875 -0.0033360608 -1.3958874 16711680
-0.029803351 -0.005563207 -1.3961508 16711680
-0.033329364 -0.0080859307 -1.3972366 16711680
-0.036057182 -0.01013632 -1.3988487 16711680
-0.01966349 -0.0037756599 -1.3948381 16711680
-0.023643069 -0.0053291172 -1.3942931 16711680
-0.028061969 -0.0077219913 -1.3944285 16711680
-0.032528132 -0.010782988 -1.3958352 16711680
-0.035913467 -0.013901643 -1.3981713 16711680
-0.03804547 -0.016716501 -1.4005932 16711680
-0.013299093 -0.0046469364 -1.3958063 16711680
-0.016225802 -0.0057800487 -1.3941482 16711680
-0.020109884 -0.0071462942 -1.3926494 16711680
-0.035799913 -0.018160135 -1.3975327 16711680
-0.037418865 -0.020642389 -1.400741 16711680
-0.038507152 -0.022303846 -1.4036449 16711680
-0.01011796 -0.0077267373 -1.3958395 16711680
-0.012796124 -0.0082145743 -1.3937519 16711680
-0.036326289 -0.024734722 -1.401122 16711680
-0.036637504 -0.026358802 -1.4041992 16711680
-0.0063023139 -0.010736031 -1.3972299 16711680
-0.034454741 -0.0304083 -1.4060317 16711680
-0.0032895706 -0.01443763 -1.3988279 16711680
-0.03132534 -0.034065604 -1.4076031 16711680
-0.0010256395 -0.018271022 -1.4006889 16711680
-0.0017691785 -0.021792818 -1.399642 16711680
-0.024992784 -0.037963808 -1.4069551 16711680
-0.027838081 -0.036988385 -1.4090744 16711680
0.0012907507 -0.021815989 -1.4032876 16711680
-0.00020988192 -0.024590878 -1.4020478 16711680
-0.021861864 -0.039793447 -1.4087965 16711680
-0.024385523 -0.039645739 -1.4112989 16711680
0.0030880542 -0.024622267 -1.4054019 16711680
0.0016801534 -0.028184298 -1.4049652 16711680
-0.00034568366 -0.031994075 -1.4044292 16711680
-0.014409998 -0.041782659 -1.4087056 16711680
-0.018091202 -0.042018451 -1.4111562 16711680
-0.021428991 -0.041769274 -1.4130695 16711680
0.0035950532 -0.031474337 -1.4077986 16711680
0.00090621691 -0.034898102 -1.4070907 16711680
-0.0020685587 -0.038793892 -1.4075117 16711680
-0.0067802183 -0.042078782 -1.4089787 16711680
-0.011145048 -0.043318529 -1.410857 16711680
-0.014646668 -0.044171259 -1.4134876 16711680
0.0053339126 -0.034590483 -1.4101616 16711680
0.0035936367 -0.037687901 -1.4102623 16711680
-0.00015684124 -0.041035436 -1.4102066 16711680
-0.004170869 -0.043915112 -1.4115179 16711680
-0.0081411721 -0.045951799 -1.414012 16711680
-0.011361329 -0.046271965 -1.4153994 16711680
0.006148709 -0.04156968 -1.4127343 16711680
0.0025799582 -0.044242933 -1.4128098 16711680
-0.0010855189 -0.046809733 -1.4139584 16711680
-0.0043952814 -0.048944518 -1.4160296 16711680
0.0095991045 -0.045226071 -1.4143004 16711680
0.0060033333 -0.048172023 -1.4144881 16711680
0.00215514 -0.050857622 -1.4156885 16711680
-0.0014565289 -0.052957542 -1.4177554 16711680
0.016102389 -0.047381695 -1.4156415 16711680
0.013051555 -0.048838738 -1.4150071 16711680
0.0091551784 -0.051919281 -1.4151168 16711680
0.0048748339 -0.054895073 -1.4164513 16711680
0.0010822127 -0.057224393 -1.4187694 16711680
-0.0009277733 -0.058949273 -1.4209224 16711680
0.019074164 -0.050158836 -1.4161993 16711680
0.016073976 -0.052939959 -1.4150436 16711680
0.011622649 -0.055616885 -1.4150862 16711680
0.0074323136 -0.058518603 -1.4164038 16711680
0.0039449818 -0.061415479 -1.4188364 16711680
0.0011713095 -0.062672928 -1.4217929 16711680
0.022124859 -0.05421612 -1.4167876 16711680
0.019584289 -0.055584393 -1.4150133 16711680
0.005347712 -0.065533742 -1.4194667 16711680
0.0041493839 -0.066748701 -1.4224186 16711680
0.024642726 -0.057752062 -1.4185101 16711680
0.024270134 -0.059878714 -1.4171129 16711680
0.0087616257 -0.070744053 -1.4219985 16711680
0.0073344167 -0.069865853 -1.4239218 16711680
0.02610963 -0.060253575 -1.4206232 16711680
0.026013842 -0.063547991 -1.420362 16711680
0.012804579 -0.072784171 -1.4244978 16711680
0.0098790918 -0.071480721 -1.4256245 16711680
0.025738982 -0.066428706 -1.4223764 16711680
0.023707638 -0.0691588 -1.4228511 16711680
0.019332748 -0.07221777 -1.4242158 16711680
0.01628251 -0.073083766 -1.4253356 16711680
-0.023119049 -0.008894763 -1.3920131 16711680
-0.026860923 -0.011155546 -1.3920366 16711680
-0.030730806 -0.013896865 -1.3932245 16711680
-0.033743151 -0.01631372 -1.3953389 16711680
-0.016715409 -0.0092614284 -1.391155 16711680
-0.020895358 -0.010130634 -1.3904798 16711680
-0.025186665 -0.012681441 -1.3900412 16711680
-0.030621372 -0.01647735 -1.3917391 16711680
-0.033824019 -0.019181963 -1.3945075 16711680
-0.035424676 -0.022318132 -1.3970149 16711680
-0.01032155 -0.011368873 -1.3922143 16711680
-0.012830439 -0.010600761 -1.3910977 16711680
-0.035277456 -0.026308673 -1.3981148 16711680
-0.034894511 -0.028294206 -1.3997765 16711680
-0.0077197845 -0.013615649 -1.39274 16711680
-0.033328809 -0.031507839 -1.40065 16711680
-0.0047111404 -0.017435726 -1.3945429 16711680
-0.02999476 -0.035153706 -1.4024378 16711680
-0.0033433107 -0.020026578 -1.3964038 16711680
-0.002961481 -0.022532433 -1.3966097 16711680
-0.025164206 -0.038053803 -1.4035418 16711680
-0.027403591 -0.036812797 -1.4038376 16711680
-0.0022786125 -0.026721813 -1.3989838 16711680
-0.0029688766 -0.030148255 -1.3989664 16711680
-0.017619155 -0.040301785 -1.4034503 16711680
-0.020699583 -0.039616041 -1.4047506 16711680
-0.0011160318 -0.029344842 -1.4022003 16711680
-0.0026621432 -0.03274449 -1.401744 16711680
-0.005174208 -0.036955498 -1.4022443 16711680
-0.0096247979 -0.040072251 -1.4036629 16711680
-0.014210012 -0.040822163 -1.4053519 16711680
-0.017741287 -0.040646717 -1.4071151 16711680
-0.0018482227 -0.035406396 -1.4049495 16711680
-0.0041232319 -0.038199045 -1.4053273 16711680
-0.0076515991 -0.04069205 -1.4065013 16711680
-0.010807339 -0.041663121 -1.4077369 16711680
0.016005136 -0.056366354 -1.4143887 16711680
0.01275574 -0.058185704 -1.4147342 16711680
0.0093022734 -0.060591672 -1.4158132 16711680
0.0067449026 -0.06285461 -1.4172794 16711680
0.019079888 -0.058733605 -1.4134927 16711680
0.014718927 -0.060823128 -1.413397 16711680
0.010613944 -0.063733056 -1.4146682 16711680
0.0076853465 -0.066643499 -1.4170147 16711680
0.022686882 -0.061565179 -1.414176 16711680
0.0095227584 -0.070832223 -1.4182864 16711680
0.024607105 -0.06579335 -1.4163527 16711680
0.023915993 -0.069528997 -1.4161054 16711680
0.017137975 -0.074382991 -1.4180958 16711680
0.013653448 -0.073542863 -1.4197806 16711680
0.024961719 -0.068210393 -1.4188813 16711680
0.022963399 -0.070797697 -1.4185297 16711680
0.019266233 -0.07338351 -1.4196856 16711680
0.016582234 -0.074055113 -1.4214807 16711680
-0.0276246 -0.014477612 -1.3901837 16711680
-0.02858768 -0.015114102 -1.3905544 16711680
-0.01652649 -0.012165328 -1.3863938 16711680
-0.021032929 -0.012789743 -1.386906 16711680
-0.025447767 -0.014587261 -1.3876922 16711680
-0.029819906 -0.017637864 -1.3890647 16711680
-0.032852605 -0.021047739 -1.3905889 16711680
-0.034791145 -0.024944585 -1.3920856 16711680
-0.010265008 -0.01339253 -1.3865274 16711680
-0.013019003 -0.012400357 -1.3870612 16711680
-0.035221685 -0.02788477 -1.3940004 16711680
-0.035300329 -0.03103045 -1.3942877 16711680
-0.0069933115 -0.015361766 -1.3878577 16711680
-0.033879992 -0.034158818 -1.3962642 16711680
-0.0040167612 -0.019271035 -1.3896925 16711680
-0.030492358 -0.037781555 -1.3979614 16711680
-0.002623403 -0.022817664 -1.3904775 16711680
-0.0026994883 -0.024731606 -1.392634 16711680
-0.024927668 -0.040140387 -1.3996146 16711680
-0.027352227 -0.040103957 -1.3983066 16711680
-0.0022794716 -0.028962873 -1.3935757 16711680
-0.0030748677 -0.031461097 -1.3959775 16711680
-0.0175112 -0.041555498 -1.4004905 16711680
-0.020899877 -0.041933641 -1.3993983 16711680
-0.0015787892 -0.032877017 -1.393308 16711680
-0.0032796925 -0.035007898 -1.3961455 16711680
-0.0054718428 -0.038397588 -1.3982995 16711680
-0.0098503632 -0.041395165 -1.3997477 16711680
-0.014347042 -0.042654224 -1.399609 16711680
-0.017718721 -0.044210032 -1.398312 16711680
-0.0055312598 -0.041366525 -1.3970677 16711680
-0.0077313818 -0.042895891 -1.3977531 16711680
0.018903475 -0.062365495 -1.4111866 16711680
0.015981136 -0.064211585 -1.4109997 16711680
0.012326788 -0.066775858 -1.4121336 16711680
0.010010051 -0.068558201 -1.4139698 16711680
0.020964887 -0.064516924 -1.4110985 16711680
0.018197222 -0.066629559 -1.4094598 16711680
0.013289483 -0.069951937 -1.4109703 16711680
0.011338925 -0.071260363 -1.4140849 16711680
0.022914248 -0.067418322 -1.4126256 16711680
0.021579677 -0.070746303 -1.4125372 16711680
0.017226065 -0.073795125 -1.4138926 16711680
0.013986718 -0.073684275 -1.4155262 16711680
0.02186464 -0.072034404 -1.4158018 16711680
0.019589782 -0.073628023 -1.4165131 16711680
-0.019660201 -0.012409233 -1.3791659 16711680
-0.022940472 -0.013504144 -1.3805107 16711680
-0.027002562 -0.015538447 -1.3820996 16711680
-0.030783245 -0.018185863 -1.383289 16711680
-0.034209628 -0.021374881 -1.3840435 16711680
-0.036594801 -0.024096673 -1.3842585 16711680
-0.013051288 -0.012617312 -1.3796265 16711680
-0.016446559 -0.012540627 -1.3812144 16711680
-0.021087725 -0.013394874 -1.3828501 16711680
-0.025612459 -0.015414322 -1.3848213 16711680
-0.03021053 -0.01863545 -1.386268 16711680
-0.033858746 -0.022336658 -1.3869395 16711680
-0.036521211 -0.026579849 -1.3874905 16711680
-0.037968077 -0.030053673 -1.3874192 16711680
-0.0097651957 -0.013724783 -1.3816879 16711680
-0.013136863 -0.012815746 -1.3835984 16711680
-0.036190372 -0.028982444 -1.3908672 16711680
-0.037014894 -0.032872342 -1.3902454 16711680
-0.0040161898 -0.017080443 -1.3808072 16711680
-0.0055038836 -0.016218955 -1.3831452 16711680
-0.035347894 -0.037097361 -1.3925101 16711680
-0.035717882 -0.0396313 -1.3909564 16711680
-0.0017268043 -0.019795254 -1.382033 16711680
-0.0024458319 -0.01995495 -1.3849112 16711680
-0.032174841 -0.040745441 -1.3942055 16711680
-0.033605393 -0.042139258 -1.3920254 16711680
-0.0004602354 -0.024453904 -1.3866521 16711680
-0.0012266468 -0.026523015 -1.3900563 16711680
-0.024719819 -0.042934064 -1.3973625 16711680
-0.028114555 -0.043752369 -1.3952261 16711680
0.0011756765 -0.028701594 -1.3873768 16711680
-8.7746419e-05 -0.030342892 -1.39025 16711680
-0.021535745 -0.045307785 -1.3969662 16711680
-0.024453234 -0.0466002 -1.3953847 16711680
0.0024875887 -0.03218329 -1.387562 16711680
0.0010151258 -0.034544885 -1.3904737 16711680
-0.0011206223 -0.036950856 -1.393463 16711680
-0.0038797096 -0.040005624 -1.396127 16711680
-0.0097295903 -0.044055898 -1.3979657 16711680
-0.014127191 -0.046067938 -1.3975458 16711680
-0.018026903 -0.04785813 -1.396426 16711680
-0.02166198 -0.049043335 -1.3951013 16711680
0.0018317858 -0.038477339 -1.3906119 16711680
-0.0002353983 -0.040730175 -1.3928341 16711680
-0.0032544411 -0.043528527 -1.395038 16711680
-0.0071778577 -0.046272125 -1.3962688 16711680
-0.011292587 -0.048389085 -1.3963361 16711680
-0.014718516 -0.050062649 -1.3957843 16711680
-0.0036752326 -0.047790729 -1.3943383 16711680
0.017849177 -0.069206461 -1.4091126 16711680
0.015463654 -0.07104706 -1.4099113 16711680
0.01907533 -0.071005151 -1.4099841 16711680
0.017103942 -0.072387844 -1.4106035 16711680
-0.032597601 -0.012428725 -1.373082 16711680
-0.035242848 -0.014259767 -1.373922 16711680
-0.022956053 -0.010770438 -1.3728276 16711680
-0.026464745 -0.01143329 -1.3737799 16711680
-0.030381816 -0.013478935 -1.3753916 16711680
-0.034416154 -0.016272804 -1.3766127 16711680
-0.037804224 -0.019423619 -1.3773855 16711680
-0.039684601 -0.022486961 -1.3780775 16711680
-0.016038943 -0.011741051 -1.3736767 16711680
-0.019533109 -0.011529179 -1.3750397 16711680
-0.023977153 -0.012569658 -1.3769265 16711680
-0.028163226 -0.014678583 -1.3785354 16711680
-0.032634579 -0.017769838 -1.3798708 16711680
-0.036217771 -0.021124452 -1.3807484 16711680
-0.039069593 -0.025206367 -1.381119 16711680
-0.040298395 -0.028712831 -1.3812772 16711680
-0.012840992 -0.012443744 -1.3755306 16711680
-0.016425885 -0.011945523 -1.377176 16711680
-0.03852807 -0.027415534 -1.3843054 16711680
-0.039773576 -0.031255234 -1.3839738 16711680
-0.0065109897 -0.014883952 -1.3758249 16711680
-0.008715055 -0.013835752 -1.3771733 16711680
-0.038969513 -0.035030268 -1.3866652 16711680
-0.039164335 -0.037706297 -1.3860394 16711680
-0.0035340176 -0.017148981 -1.3777064 16711680
-0.0055434811 -0.015731715 -1.3797569 16711680
-0.037147097 -0.037799362 -1.3895978 16711680
-0.037214715 -0.040711395 -1.388204 16711680
-0.00039115921 -0.020677868 -1.379342 16711680
-0.0002543442 -0.021941023 -1.3826244 16711680
-0.031840771 -0.044114918 -1.392536 16711680
-0.034255102 -0.044385321 -1.3899372 16711680
0.0021301508 -0.024545474 -1.380553 16711680
0.0015999135 -0.025226336 -1.383198 16711680
-0.029336682 -0.046739608 -1.3928311 16711680
-0.031062614 -0.047773615 -1.3908801 16711680
0.0039793989 -0.027888419 -1.3809471 16711680
0.0034966404 -0.029503975 -1.3839155 16711680
-0.025752757 -0.049969848 -1.3929802 16711680
-0.02838154 -0.050589107 -1.3910642 16711680
0.0046457201 -0.033950076 -1.3848616 16711680
0.0034639435 -0.035930794 -1.3877378 16711680
-0.018520122 -0.051280271 -1.3946213 16711680
-0.021664584 -0.052415699 -1.3930873 16711680
0.0056027817 -0.037769604 -1.3847218 16711680
0.0040041497 -0.039973564 -1.3876821 16711680
0.0019928757 -0.043019973 -1.3902966 16711680
-0.0014916798 -0.046148911 -1.3931221 16711680
-0.0060817632 -0.049381118 -1.3945508 16711680
-0.010831598 -0.052006736 -1.3943205 16711680
-0.015122268 -0.053304859 -1.3936855 16711680
-0.018674567 -0.054701991 -1.3923156 16711680
0.0020624446 -0.046123281 -1.3896351 16711680
-0.00092075299 -0.048651468 -1.3916361 16711680
-0.0046181153 -0.051217441 -1.3928063 16711680
-0.0084399562 -0.053432226 -1.392934 16711680
-0.032629721 -0.0071913507 -1.3665574 16711680
-0.036657147 -0.0081681423 -1.3674673 16711680
-0.040476054 -0.010853158 -1.3686939 16711680
-0.042797014 -0.014307184 -1.3697488 16711680
-0.026277894 -0.0083654672 -1.3669944 16711680
-0.029440144 -0.0085469522 -1.3686272 16711680
-0.033701159 -0.01077386 -1.3708646 16711680
-0.037684266 -0.013551788 -1.3721017 16711680
-0.041689798 -0.017054064 -1.3723913 16711680
-0.043242365 -0.020234983 -1.3723047 16711680
-0.022921238 -0.010273993 -1.3689126 16711680
-0.026734985 -0.010040361 -1.3711438 16711680
-0.030700471 -0.01138513 -1.3725082 16711680
-0.037333407 -0.01601178 -1.3745521 16711680
-0.040013462 -0.019340558 -1.3753097 16711680
-0.041704826 -0.023345007 -1.3747492 16711680
-0.016160375 -0.012395283 -1.3700846 16711680
-0.019195393 -0.01140096 -1.3700727 16711680
-0.041227326 -0.026890313 -1.376913 16711680
-0.041118369 -0.029858816 -1.3778396 16711680
-0.012225392 -0.013612611 -1.3707893 16711680
-0.040788632 -0.033496208 -1.37981 16711680
-0.006476596 -0.015561594 -1.3716705 16711680
-0.0090528084 -0.014432292 -1.3713003 16711680
-0.040670633 -0.036577404 -1.3811703 16711680
-0.040221144 -0.039152369 -1.3822122 16711680
-0.0023490735 -0.018345136 -1.3729523 16711680
-0.038350537 -0.043508649 -1.3841588 16711680
0.00086790603 -0.021846464 -1.3744321 16711680
-0.035503082 -0.047281906 -1.3857946 16711680
0.0034296243 -0.025673883 -1.3763107 16711680
-0.032024421 -0.050535381 -1.3873894 16711680
0.0054003652 -0.029834593 -1.3779699 16711680
0.0055832546 -0.031368557 -1.3807472 16711680
-0.025873592 -0.053340252 -1.3905591 16711680
-0.028206639 -0.05342491 -1.3884469 16711680
0.0066991802 -0.033446446 -1.3782377 16711680
0.0065494757 -0.03535524 -1.3807942 16711680
-0.022578984 -0.055688042 -1.3899155 16711680
-0.025399309 -0.055754114 -1.3882235 16711680
0.006816661 -0.0393917 -1.3818083 16711680
0.0058961231 -0.042122025 -1.3840425 16711680
0.0041293744 -0.044319388 -1.3872105 16711680
-0.011497724 -0.055244699 -1.3921038 16711680
-0.01520901 -0.056830298 -1.3906276 16711680
-0.018643601 -0.057191171 -1.389817 16711680
0.005484188 -0.045419537 -1.3843117 16711680
0.0036570346 -0.048044719 -1.3863554 16711680
0.00052854884 -0.052028276 -1.3880528 16711680
-0.0034380616 -0.054808367 -1.3892868 16711680
-0.0083376896 -0.056432128 -1.3901752 16711680
-0.012008946 -0.05765944 -1.3897961 16711680
-0.028956514 -0.0079008434 -1.360499 16711680
-0.032186527 -0.0081589427 -1.3640233 16711680
-0.036287189 -0.0097648147 -1.3655515 16711680
-0.03992407 -0.012341544 -1.3666931 16711680
-0.043033712 -0.015754942 -1.3674088 16711680
-0.045517065 -0.019464431 -1.3656678 16711680
-0.025754416 -0.0084945541 -1.3629555 16711680
-0.029564202 -0.010630514 -1.3642879 16711680
-0.033236124 -0.013625391 -1.3652924 16711680
-0.037470594 -0.016583007 -1.366616 16711680
-0.041459903 -0.018950416 -1.3680091 16711680
-0.044863559 -0.021853272 -1.3689274 16711680
-0.019525696 -0.010752719 -1.3637969 16711680
-0.022269476 -0.010294799 -1.3649204 16711680
-0.027065486 -0.011878431 -1.3662851 16711680
-0.040224902 -0.021066166 -1.3704133 16711680
-0.043414295 -0.02507204 -1.3715279 16711680
-0.044136457 -0.027972037 -1.3716128 16711680
-0.016350513 -0.012773009 -1.3650448 16711680
-0.01927403 -0.012360459 -1.3673183 16711680
-0.041433223 -0.027855689 -1.3742412 16711680
-0.042711057 -0.031332891 -1.3732617 16711680
-0.012072306 -0.01552677 -1.3663973 16711680
-0.04081174 -0.03570053 -1.3755047 16711680
-0.0063604461 -0.017754521 -1.3673344 16711680
-0.0089903912 -0.01731907 -1.3662924 16711680
-0.040107317 -0.039004698 -1.3758627 16711680
-0.040017277 -0.04130486 -1.3778366 16711680
-0.0023441371 -0.02039066 -1.3684363 16711680
-0.038307123 -0.045548022 -1.3796866 16711680
0.00090305135 -0.023796553 -1.3698207 16711680
-0.035599593 -0.049329437 -1.3812584 16711680
0.0035977764 -0.027333539 -1.3716564 16711680
-0.032459192 -0.052563168 -1.3829343 16711680
0.0059512481 -0.031877764 -1.3735167 16711680
-0.02837522 -0.055843428 -1.3842132 16711680
0.0070011448 -0.03497855 -1.3749168 16711680
0.0074773263 -0.037355933 -1.3760996 16711680
-0.022879522 -0.058595385 -1.385607 16711680
-0.025327386 -0.057595681 -1.3850131 16711680
0.0075400788 -0.041284427 -1.3776842 16711680
0.0070448574 -0.044475187 -1.3793391 16711680
-0.015304677 -0.060008019 -1.3863673 16711680
-0.018816458 -0.059718918 -1.3859323 16711680
0.0063144378 -0.047282208 -1.3802249 16711680
0.004360877 -0.05113766 -1.3822398 16711680
0.0015940685 -0.054423574 -1.3841339 16711680
-0.0031435611 -0.057741053 -1.3856118 16711680
-0.0075421045 -0.059472755 -1.3859115 16711680
-0.012217266 -0.06023939 -1.3860197 16711680
0.00069158711 -0.056040969 -1.3835543 16711680
-0.0017035967 -0.057719085 -1.3843046 16711680
-0.029141668 -0.008571662 -1.3587859 16711680
-0.032019407 -0.0097521991 -1.3579953 16711680
-0.036155321 -0.012737196 -1.3583021 16711680
-0.040242277 -0.015636612 -1.3596522 16711680
-0.04409048 -0.018228948 -1.3617096 16711680
-0.045552291 -0.020047385 -1.3639147 16711680
-0.02656116 -0.010282503 -1.3592225 16711680
-0.029252406 -0.012243785 -1.3584168 16711680
-0.034435898 -0.014047252 -1.3615463 16711680
-0.038316611 -0.016751802 -1.3627614 16711680
-0.042316884 -0.021499328 -1.3625481 16711680
-0.044529922 -0.022873357 -1.3648386 16711680
-0.019154618 -0.012682095 -1.3619407 16711680
-0.022673476 -0.013490342 -1.3604293 16711680
-0.025601069 -0.016319001 -1.3591173 16711680
-0.039586842 -0.02600321 -1.36348 16711680
-0.042301536 -0.027204186 -1.3666083 16711680
-0.043421477 -0.02920533 -1.3694366 16711680
-0.016462529 -0.014907682 -1.3619422 16711680
-0.019571288 -0.017351085 -1.360736 16711680
-0.022737216 -0.018896092 -1.3599133 16711680
-0.037676089 -0.029381838 -1.3646073 16711680
-0.039632238 -0.031251334 -1.3670154 16711680
-0.041976146 -0.032863427 -1.3699126 16711680
-0.012842863 -0.018378546 -1.3621078 16711680
-0.016214661 -0.019372107 -1.3606888 16711680
-0.038641572 -0.035053894 -1.3677056 16711680
-0.039873019 -0.037217818 -1.3705422 16711680
-0.0063293776 -0.020517481 -1.363744 16711680
-0.0087485705 -0.020490458 -1.3623254 16711680
-0.038966373 -0.041598469 -1.3717737 16711680
-0.039009199 -0.043375924 -1.3739678 16711680
-0.0033156849 -0.023011245 -1.3641226 16711680
-0.0060310075 -0.023166154 -1.3614923 16711680
-0.037593506 -0.04541903 -1.3714417 16711680
-0.037471011 -0.046839986 -1.3747954 16711680
8.3271414e-05 -0.026327237 -1.3655828 16711680
-0.034791484 -0.050800629 -1.3765057 16711680
0.0031375652 -0.030144909 -1.3673425 16711680
-0.03163676 -0.054346047 -1.3782445 16711680
0.0053535067 -0.03407545 -1.3690306 16711680
0.0057856068 -0.037225224 -1.3680907 16711680
-0.02567414 -0.059255153 -1.378419 16711680
-0.028021002 -0.057406116 -1.3794746 16711680
0.0066736322 -0.0365398 -1.3711305 16711680
0.0069672074 -0.039372459 -1.3712186 16711680
-0.022932559 -0.060248278 -1.3805678 16711680
-0.025365381 -0.058934975 -1.3811674 16711680
0.0072880555 -0.043348197 -1.3733294 16711680
0.0069377813 -0.046548408 -1.3742338 16711680
-0.015380524 -0.062181864 -1.3811387 16711680
-0.018729787 -0.061466187 -1.3814636 16711680
0.0062035453 -0.049342383 -1.3759407 16711680
0.0044589974 -0.053346947 -1.3774475 16711680
0.0024248064 -0.056407951 -1.3786575 16711680
-0.0038704597 -0.060742341 -1.3807445 16711680
-0.0075598247 -0.061672982 -1.381299 16711680
-0.012142273 -0.062084083 -1.3817469 16711680
0.0010388317 -0.057628859 -1.379687 16711680
-0.0019308166 -0.059701987 -1.3806274 16711680
-0.032969184 -0.011703338 -1.354991 16711680
-0.036872931 -0.013880307 -1.3547057 16711680
-0.040470079 -0.01635243 -1.3557986 16711680
-0.043285556 -0.018916773 -1.3582083 16711680
-0.03049344 -0.014419569 -1.3565401 16711680
-0.033639528 -0.017133497 -1.3565573 16711680
-0.037713882 -0.019994156 -1.3578389 16711680
-0.040915884 -0.021729011 -1.3598106 16711680
-0.02743445 -0.018319294 -1.358465 16711680
-0.030472409 -0.020988937 -1.3583171 16711680
-0.034434706 -0.023748489 -1.3595501 16711680
-0.037468016 -0.02542083 -1.3616143 16711680
-0.019384969 -0.020905271 -1.3591135 16711680
-0.02335136 -0.022123149 -1.3590577 16711680
-0.027353358 -0.025109626 -1.3587369 16711680
-0.031455532 -0.027989043 -1.3600217 16711680
-0.034972191 -0.030313483 -1.362709 16711680
-0.03699138 -0.03334678 -1.3644714 16711680
-0.013078167 -0.021773675 -1.3593507 16711680
-0.016402684 -0.022374216 -1.3579237 16711680
-0.02152092 -0.024657505 -1.3575538 16711680
-0.025065035 -0.027018709 -1.357857 16711680
-0.030354578 -0.030685497 -1.3594494 16711680
-0.033797923 -0.033292912 -1.3613727 16711680
-0.037051678 -0.03683402 -1.3643882 16711680
-0.037912816 -0.039079107 -1.3672152 16711680
-0.0095732985 -0.023779033 -1.358925 16711680
-0.012811688 -0.024572464 -1.3571768 16711680
-0.03638795 -0.040986974 -1.3645856 16711680
-0.037177719 -0.043074302 -1.3675212 16711680
-0.0036671455 -0.025761526 -1.3610556 16711680
-0.0054663895 -0.026163774 -1.3591741 16711680
-0.036027215 -0.047584996 -1.3686819 16711680
-0.036179032 -0.048424702 -1.3713125 16711680
-0.00085115433 -0.029045364 -1.3616614 16711680
-0.0017956803 -0.030178465 -1.3596172 16711680
-0.033298068 -0.052206498 -1.3694521 16711680
-0.033775687 -0.051999073 -1.3719561 16711680
0.0020316569 -0.032443456 -1.3634124 16711680
0.0016697412 -0.034291536 -1.3617092 16711680
-0.029617164 -0.056400508 -1.3717779 16711680
-0.030799242 -0.05541325 -1.3737301 16711680
0.004248091 -0.035355367 -1.3655989 16711680
0.0041926503 -0.037791394 -1.3645767 16711680
-0.026236791 -0.059017543 -1.3741291 16711680
-0.027949376 -0.057879161 -1.3756521 16711680
0.005652044 -0.041962326 -1.367115 16711680
0.0050198622 -0.045855448 -1.3662961 16711680
-0.018655594 -0.062373474 -1.3735709 16711680
-0.021960802 -0.061199289 -1.3757582 16711680
0.0062670726 -0.044921696 -1.3692386 16711680
0.005537305 -0.048452534 -1.369561 16711680
0.0040128762 -0.052341953 -1.3691652 16711680
-0.011519393 -0.06320367 -1.3740929 16711680
-0.015094444 -0.062952541 -1.376097 16711680
-0.018577807 -0.062339831 -1.3769224 16711680
0.0053181043 -0.050982919 -1.3719846 16711680
0.0037789354 -0.054430354 -1.3726691 16711680
0.00095937308 -0.05852849 -1.3740914 16711680
-0.0033670743 -0.061537921 -1.375484 16711680
-0.0082534449 -0.062837914 -1.3764203 16711680
-0.011843061 -0.063059486 -1.3773175 16711680
0.00029909611 -0.059222002 -1.3769343 16711680
-0.0011197831 -0.060314968 -1.3772418 16711680
-0.027280489 -0.02848025 -1.3582534 16711680
-0.028767005 -0.029495306 -1.3587278 16711680
-0.016303621 -0.02583405 -1.3556488 16711680
-0.020377703 -0.027783575 -1.3554626 16711680
-0.024737278 -0.03005966 -1.356033 16711680
-0.028831651 -0.032873448 -1.3573294 16711680
-0.032172441 -0.036051042 -1.3591326 16711680
-0.034933306 -0.038803563 -1.3614829 16711680
-0.010168517 -0.026764885 -1.3566072 16711680
-0.013390934 -0.028133575 -1.3550299 16711680
-0.017458256 -0.029835144 -1.3540108 16711680
-0.031721219 -0.039797738 -1.3584657 16711680
-0.033863701 -0.042506285 -1.361414 16711680
-0.035250202 -0.044396102 -1.3643905 16711680
-0.0068180664 -0.029660651 -1.356487 16711680
-0.0097022885 -0.031111486 -1.3547419 16711680
-0.03233853 -0.046916723 -1.3617994 16711680
-0.033733033 -0.048410792 -1.3649292 16711680
-0.0032080212 -0.032724701 -1.3573142 16711680
-0.031586722 -0.052556612 -1.3661486 16711680
4.51589e-05 -0.036406979 -1.3590075 16711680
-0.028545482 -0.056368403 -1.3679212 16711680
0.0021745842 -0.040401544 -1.3609178 16711680
0.0014115628 -0.043584205 -1.3600626 16711680
-0.021590099 -0.060216215 -1.3672707 16711680
-0.024804868 -0.059276737 -1.3693613 16711680
0.0038815672 -0.043693747 -1.3635919 16711680
0.0027735513 -0.046849154 -1.362919 16711680
0.0011318782 -0.05085538 -1.3628696 16711680
-0.01849309 -0.061695885 -1.3694565 16711680
-0.021256179 -0.061304666 -1.3713892 16711680
0.0035602627 -0.049828283 -1.3658353 16711680
0.0015447726 -0.053757258 -1.3659701 16711680
-0.0014165798 -0.057578288 -1.3664225 16711680
-0.0065636504 -0.061177075 -1.368037 16711680
-0.010981897 -0.062463962 -1.3698912 16711680
-0.015046892 -0.062727086 -1.3715477 16711680
0.0020924909 -0.055412158 -1.3689047 16711680
-0.0007153349 -0.058743805 -1.3694804 16711680
-0.0045632315 -0.06141708 -1.3706686 16711680
-0.0084880702 -0.062773786 -1.3722231 16711680
-0.020439493 -0.031264205 -1.3538179 16711680
-0.023497164 -0.033150025 -1.354068 16711680
-0.027308596 -0.035771068 -1.3552895 16711680
-0.029771363 -0.037840195 -1.3567289 16711680
-0.013840374 -0.031623565 -1.3535382 16711680
-0.017482769 -0.033402212 -1.3526534 16711680
-0.021868518 -0.035264585 -1.3524721 16711680
-0.026455117 -0.038451351 -1.3539249 16711680
-0.029123135 -0.041540787 -1.3562926 16711680
-0.031280771 -0.043834034 -1.3589915 16711680
-0.0070473598 -0.033374473 -1.3549442 16711680
-0.010591415 -0.034178637 -1.353669 16711680
-0.013669085 -0.036383484 -1.3521811 16711680
-0.027680965 -0.046171792 -1.3565739 16711680
-0.029827286 -0.047625929 -1.3596801 16711680
-0.030938756 -0.050138179 -1.3624318 16711680
-0.0045741037 -0.035730034 -1.3555477 16711680
-0.0074789198 -0.037782378 -1.3540386 16711680
-0.0096384259 -0.040228099 -1.3528423 16711680
-0.025214724 -0.050684091 -1.3574862 16711680
-0.027309684 -0.051728725 -1.3602968 16711680
-0.029299589 -0.053012468 -1.3632903 16711680
-0.0018891972 -0.038876966 -1.3567817 16711680
-0.0042888653 -0.04159376 -1.3553373 16711680
-0.0065079676 -0.044398006 -1.3546454 16711680
-0.021459041 -0.054905698 -1.3593438 16711680
-0.024238773 -0.055603914 -1.3616024 16711680
-0.026740968 -0.056229431 -1.3645368 16711680
0.00017826632 -0.041787099 -1.3584981 16711680
-0.0013780044 -0.044775076 -1.3579019 16711680
-0.0045118094 -0.04843954 -1.3571577 16711680
-0.0065660416 -0.052243724 -1.3580868 16711680
-0.013565778 -0.056838173 -1.3601021 16711680
-0.017444635 -0.057517316 -1.361225 16711680
-0.02122125 -0.058642931 -1.3640957 16711680
-0.024028923 -0.058693297 -1.3660264 16711680
0.00023657177 -0.04819949 -1.3605181 16711680
-0.0021939804 -0.051353738 -1.3602827 16711680
-0.0060294978 -0.054895762 -1.3604194 16711680
-0.010043392 -0.057789288 -1.3617631 16711680
-0.01420656 -0.059809119 -1.3640755 16711680
-0.017769549 -0.060689654 -1.366208 16711680
-0.00063920207 -0.053878728 -1.363363 16711680
-0.0035092602 -0.057181034 -1.36414 16711680
-0.007249902 -0.059786387 -1.3652799 16711680
-0.011238657 -0.06128766 -1.3666732 16711680
-0.017960981 -0.036975432 -1.3503067 16711680
-0.021034008 -0.038302556 -1.3501576 16711680
-0.024858043 -0.040979017 -1.3513535 16711680
-0.026782868 -0.043130577 -1.3530775 16711680
-0.01500758 -0.039059922 -1.3505715 16711680
-0.018361006 -0.04180282 -1.3497971 16711680
-0.022642728 -0.044776063 -1.3511333 16711680
-0.025601082 -0.046485167 -1.3539129 16711680
-0.011484014 -0.042291604 -1.3520037 16711680
-0.015056049 -0.045540936 -1.3513275 16711680
-0.019566795 -0.0487049 -1.3527428 16711680
-0.023085276 -0.050432838 -1.3556437 16711680
-0.0087629221 -0.045746341 -1.3540004 16711680
-0.012284009 -0.04891568 -1.3538851 16711680
-0.016240746 -0.051802218 -1.3552065 16711680
-0.020023536 -0.053619046 -1.357553 16711680
-0.0069079273 -0.048882905 -1.3560692 16711680
-0.0092981365 -0.051890247 -1.3567823 16711680
-0.013306068 -0.054631811 -1.357975 16711680
-0.016963506 -0.055793956 -1.35913 16711680
-0.0080736689 -0.053916454 -1.3586395 16711680
-0.011115907 -0.056037333 -1.3595824 16711680
-0.39905199 -0.10486 -1.4991601 65280
-0.39614001 -0.10486 -1.4991601 65280
-0.39322701 -0.10486 -1.4991601 65280
-0.39031401 -0.10486 -1.4991601 65280
-0.38740101 -0.10486 -1.4991601 65280
-0.38448799 -0.10486 -1.4991601 65280
-0.381576 -0.10486 -1.4991601 65280
-0.378663 -0.10486 -1.4991601 65280
-0.37575001 -0.10486 -1.4991601 65280
-0.37283701 -0.10486 -1.4991601 65280
-0.36992401 -0.10486 -1.4991601 65280
-0.36701199 -0.10486 -1.4991601 65280
-0.364099 -0.10486 -1.4991601 65280
-0.361186 -0.10486 -1.4991601 65280
-0.358273 -0.10486 -1.4991601 65280
-0.35536101 -0.10486 -1.4991601 65280
-0.35244799 -0.10486 -1.4991601 65280
-0.34953499 -0.10486 -1.4991601 65280
-0.34662199 -0.10486 -1.4991601 65280
-0.34370899 -0.10486 -1.4991601 65280
-0.34079701 -0.10486 -1.4991601 65280
-0.33788401 -0.10486 -1.4991601 65280
-0.33497101 -0.10486 -1.4991601 65280
-0.33205801 -0.10486 -1.4991601 65280
-0.32914501 -0.10486 -1.4991601 65280
-0.326233 -0.10486 -1.4991601 65280
-0.32332 -0.10486 -1.4991601 65280
-0.320407 -0.10486 -1.4991601 65280
-0.317494 -0.10486 -1.4991601 65280
-0.31458101 -0.10486 -1.4991601 65280
-0.31166899 -0.10486 -1.4991601 65280
-0.30875599 -0.10486 -1.4991601 65280
-0.305843 -0.10486 -1.4991601 65280
-0.30293 -0.10486 -1.4991601 65280
-0.300017 -0.10486 -1.4991601 65280
-0.29710501 -0.10486 -1.4991601 65280
-0.29419199 -0.10486 -1.4991601 65280
-0.29127899 -0.10486 -1.4991601 65280
-0.28836599 -0.10486 -1.4991601 65280
-0.28545299 -0.10486 -1.4991601 65280
-0.28254101 -0.10486 -1.4991601 65280
-0.27962801 -0.10486 -1.4991601 65280
-0.27671501 -0.10486 -1.4991601 65280
-0.27380201 -0.10486 -1.4991601 65280
-0.27089 -0.10486 -1.4991601 65280
-0.267977 -0.10486 -1.4991601 65280
-0.265064 -0.10486 -1.4991601 65280
-0.262151 -0.10486 -1.4991601 65280
-0.259238 -0.10486 -1.4991601 65280
-0.25632599 -0.10486 -1.4991601 65280
-0.25341299 -0.10486 -1.4991601 65280
-0.25049999 -0.10486 -1.4991601 65280
-0.247587 -0.10486 -1.4991601 65280
-0.244674 -0.10486 -1.4991601 65280
-0.241762 -0.10486 -1.4991601 65280
-0.238849 -0.10486 -1.4991601 65280
-0.235936 -0.10486 -1.4991601 65280
-0.233023 -0.10486 -1.4991601 65280
-0.23011 -0.10486 -1.4991601 65280
-0.227198 -0.10486 -1.4991601 65280
-0.22428501 -0.10486 -1.4991601 65280
-0.22137199 -0.10486 -1.4991601 65280
-0.218459 -0.10486 -1.4991601 65280
-0.215547 -0.10486 -1.4991601 65280
-0.212634 -0.10486 -1.4991601 65280
-0.209721 -0.10486 -1.4991601 65280
-0.206808 -0.10486 -1.4991601 65280
-0.203895 -0.10486 -1.4991601 65280
-0.200983 -0.10486 -1.4991601 65280
-0.19807 -0.10486 -1.4991601 65280
-0.19515701 -0.10486 -1.4991601 65280
-0.19224399 -0.10486 -1.4991601 65280
-0.189331 -0.10486 -1.4991601 65280
-0.186419 -0.10486 -1.4991601 65280
-0.183506 -0.10486 -1.4991601 65280
-0.180593 -0.10486 -1.4991601 65280
-0.17768 -0.10486 -1.4991601 65280
-0.174767 -0.10486 -1.4991601 65280
-0.171855 -0.10486 -1.4991601 65280
-0.168942 -0.10486 -1.4991601 65280
-0.16602901 -0.10486 -1.4991601 65280
-0.16311599 -0.10486 -1.4991601 65280
-0.16020399 -0.10486 -1.4991601 65280
-0.157291 -0.10486 -1.4991601 65280
-0.154378 -0.10486 -1.4991601 65280
-0.151465 -0.10486 -1.4991601 65280
-0.148552 -0.10486 -1.4991601 65280
-0.14564 -0.10486 -1.4991601 65280
-0.142727 -0.10486 -1.4991601 65280
-0.139814 -0.10486 -1.4991601 65280
-0.13690101 -0.10486 -1.4991601 65280
-0.13398799 -0.10486 -1.4991601 65280
-0.13107599 -0.10486 -1.4991601 65280
-0.12816299 -0.10486 -1.4991601 65280
-0.12525 -0.10486 -1.4991601 65280
-0.122337 -0.10486 -1.4991601 65280
-0.119424 -0.10486 -1.4991601 65280
-0.116512 -0.10486 -1.4991601 65280
-0.113599 -0.10486 -1.4991601 65280
-0.110686 -0.10486 -1.4991601 65280
-0.107773 -0.10486 -1.4991601 65280
-0.10486 -0.10486 -1.4991601 65280
-0.101948 -0.10486 -1.4991601 65280
-0.099034898 -0.10486 -1.4991601 65280
-0.096122101 -0.10486 -1.4991601 65280
-0.093209296 -0.10486 -1.4991601 65280
-0.090296499 -0.10486 -1.4991601 65280
-0.087383702 -0.10486 -1.4991601 65280
-0.084470898 -0.10486 -1.4991601 65280
-0.081558101 -0.10486 -1.4991601 65280
-0.078645401 -0.10486 -1.4991601 65280
-0.075732604 -0.10486 -1.4991601 65280
-0.072819799 -0.10486 -1.4991601 65280
-0.069907002 -0.10486 -1.4991601 65280
-0.066994198 -0.10486 -1.4991601 65280
-0.064081401 -0.10486 -1.4991601 65280
-0.0611686 -0.10486 -1.4991601 65280
-0.058255799 -0.10486 -1.4991601 65280
-0.055342998 -0.10486 -1.4991601 65280
-0.052430201 -0.10486 -1.4991601 65280
-0.049517401 -0.10486 -1.4991601 65280
-0.0466047 -0.10486 -1.4991601 65280
-0.0436919 -0.10486 -1.4991601 65280
-0.040779099 -0.10486 -1.4991601 65280
-0.037866302 -0.10486 -1.4991601 65280
-0.034953501 -0.10486 -1.4991601 65280
-0.0320407 -0.10486 -1.4991601 65280
-0.0291279 -0.10486 -1.4991601 65280
-0.026215101 -0.10486 -1.4991601 65280
-0.0233023 -0.10486 -1.4991601 65280
-0.020389499 -0.10486 -1.4991601 65280
-0.0174767 -0.10486 -1.4991601 65280
-0.014564 -0.10486 -1.4991601 65280
-0.0116512 -0.10486 -1.4991601 65280
-0.0087383697 -0.10486 -1.4991601 65280
-0.0058255801 -0.10486 -1.4991601 65280
-0.00291279 -0.10486 -1.4991601 65280
0 -0.10486 -1.4991601 65280
0.00291279 -0.10486 -1.4991601 65280
0.0058255801 -0.10486 -1.4991601 65280
0.0087383697 -0.10486 -1.4991601 65280
0.0116512 -0.10486 -1.4991601 65280
0.014564 -0.10486 -1.4991601 65280
0.0174767 -0.10486 -1.4991601 65280
0.020389499 -0.10486 -1.4991601 65280
0.0233023 -0.10486 -1.4991601 65280
0.026215101 -0.10486 -1.4991601 65280
0.0291279 -0.10486 -1.4991601 65280
0.0320407 -0.10486 -1.4991601 65280
0.034953501 -0.10486 -1.4991601 65280
0.037866302 -0.10486 -1.4991601 65280
