# .PCD v0.7 - Point Cloud Data file format
VERSION 0.7
FIELDS x y z rgb
SIZE 4 4 4 4
TYPE F F F U
COUNT 1 1 1 1
WIDTH 1342
HEIGHT 1
VIEWPOINT 0 0 0 1 0 0 0
POINTS 1342
DATA ascii
-0.13281099 0.106249 -1.36711 65280
-0.130197 0.106283 -1.36755 65280
-0.12758 0.106317 -1.36798 65280
-0.124968 0.106356 -1.36848 65280
-0.122364 0.106403 -1.3691 65280
-0.119777 0.106468 -1.36993 65280
-0.117222 0.106566 -1.37119 65280
-0.114723 0.106719 -1.37316 65280
-0.112321 0.106972 -1.37642 65280
-0.111492 0.108773 -1.39959 65280
-0.108773 0.108773 -1.39959 65280
-0.106054 0.108773 -1.39959 65280
-0.103334 0.108773 -1.39959 65280
-0.100615 0.108773 -1.39959 65280
-0.097895801 0.108773 -1.39959 65280
-0.095176503 0.108773 -1.39959 65280
-0.092457101 0.108773 -1.39959 65280
-0.089737803 0.108773 -1.39959 65280
-0.087018497 0.108773 -1.39959 65280
-0.084299102 0.108773 -1.39959 65280
-0.081579797 0.108773 -1.39959 65280
-0.078860499 0.108773 -1.39959 65280
-0.076141201 0.108773 -1.39959 65280
-0.073421799 0.108773 -1.39959 65280
-0.070702501 0.108773 -1.39959 65280
-0.067983203 0.108773 -1.39959 65280
-0.065263897 0.108773 -1.39959 65280
-0.062544502 0.108773 -1.39959 65280
-0.059825201 0.108773 -1.39959 65280
-0.057105899 0.108773 -1.39959 65280
-0.0543865 0.108773 -1.39959 65280
-0.051667199 0.108773 -1.39959 65280
-0.048947901 0.108773 -1.39959 65280
-0.046228599 0.108773 -1.39959 65280
-0.0435092 0.108773 -1.39959 65280
-0.040789898 0.108773 -1.39959 65280
-0.0380706 0.108773 -1.39959 65280
-0.035351299 0.108773 -1.39959 65280
-0.0326319 0.108773 -1.39959 65280
-0.0299126 0.108773 -1.39959 65280
-0.0271933 0.108773 -1.39959 65280
-0.0244739 0.108773 -1.39959 65280
-0.0217546 0.108773 -1.39959 65280
-0.0190353 0.108773 -1.39959 65280
-0.016316 0.108773 -1.39959 65280
-0.0135966 0.108773 -1.39959 65280
-0.0108773 0.108773 -1.39959 65280
-0.0081579797 0.108773 -1.39959 65280
-0.00543865 0.108773 -1.39959 65280
-0.0027193299 0.108773 -1.39959 65280
0 0.108773 -1.39959 65280
0.0027193299 0.108773 -1.39959 65280
0.00543865 0.108773 -1.39959 65280
0.0081579797 0.108773 -1.39959 65280
0.0108773 0.108773 -1.39959 65280
0.0135966 0.108773 -1.39959 65280
0.016316 0.108773 -1.39959 65280
0.0190353 0.108773 -1.39959 65280
0.0217546 0.108773 -1.39959 65280
0.0244739 0.108773 -1.39959 65280
0.0271933 0.108773 -1.39959 65280
0.0299126 0.108773 -1.39959 65280
0.0326319 0.108773 -1.39959 65280
0.035351299 0.108773 -1.39959 65280
0.0380706 0.108773 -1.39959 65280
0.040789898 0.108773 -1.39959 65280
0.0435092 0.108773 -1.39959 65280
0.046228599 0.108773 -1.39959 65280
0.048947901 0.108773 -1.39959 65280
0.051667199 0.108773 -1.39959 65280
0.0543865 0.108773 -1.39959 65280
0.057105899 0.108773 -1.39959 65280
0.059825201 0.108773 -1.39959 65280
0.062544502 0.108773 -1.39959 65280
0.065263897 0.108773 -1.39959 65280
0.067983203 0.108773 -1.39959 65280
0.070702501 0.108773 -1.39959 65280
0.073421799 0.108773 -1.39959 65280
0.076141201 0.108773 -1.39959 65280
0.078860499 0.108773 -1.39959 65280
0.081579797 0.108773 -1.39959 65280
0.084299102 0.108773 -1.39959 65280
0.087018497 0.108773 -1.39959 65280
0.089737803 0.108773 -1.39959 65280
0.092457101 0.108773 -1.39959 65280
0.095176503 0.108773 -1.39959 65280
0.097895801 0.108773 -1.39959 65280
0.100615 0.108773 -1.39959 65280
0.103334 0.108773 -1.39959 65280
0.106054 0.108773 -1.39959 65280
0.108773 0.108773 -1.39959 65280
0.111492 0.108773 -1.39959 65280
0.114212 0.108773 -1.39959 65280
0.116931 0.108773 -1.39959 65280
0.11965 0.108773 -1.39959 65280
0.12237 0.108773 -1.39959 65280
0.125089 0.108773 -1.39959 65280
0.127808 0.108773 -1.39959 65280
0.130528 0.108773 -1.39959 65280
0.133247 0.108773 -1.39959 65280
0.135966 0.108773 -1.39959 65280
0.138686 0.108773 -1.39959 65280
0.141405 0.108773 -1.39959 65280
0.144124 0.108773 -1.39959 65280
0.146844 0.108773 -1.39959 65280
0.149563 0.108773 -1.39959 65280
0.152282 0.108773 -1.39959 65280
0.155002 0.108773 -1.39959 65280
0.157721 0.108773 -1.39959 65280
0.16044 0.108773 -1.39959 65280
0.16316 0.108773 -1.39959 65280
0.165879 0.108773 -1.39959 65280
0.168598 0.108773 -1.39959 65280
0.17131799 0.108773 -1.39959 65280
0.17403699 0.108773 -1.39959 65280
0.17675599 0.108773 -1.39959 65280
0.17947599 0.108773 -1.39959 65280
0.18219499 0.108773 -1.39959 65280
0.18491399 0.108773 -1.39959 65280
0.18763401 0.108773 -1.39959 65280
0.19035301 0.108773 -1.39959 65280
0.19307201 0.108773 -1.39959 65280
0.195792 0.108773 -1.39959 65280
0.198511 0.108773 -1.39959 65280
0.20123 0.108773 -1.39959 65280
0.20395 0.108773 -1.39959 65280
0.206669 0.108773 -1.39959 65280
0.209388 0.108773 -1.39959 65280
0.212108 0.108773 -1.39959 65280
0.214827 0.108773 -1.39959 65280
0.217546 0.108773 -1.39959 65280
0.220266 0.108773 -1.39959 65280
0.222985 0.108773 -1.39959 65280
0.225704 0.108773 -1.39959 65280
0.228423 0.108773 -1.39959 65280
0.231143 0.108773 -1.39959 65280
0.233862 0.108773 -1.39959 65280
0.236581 0.108773 -1.39959 65280
0.239301 0.108773 -1.39959 65280
0.24202 0.108773 -1.39959 65280
0.244739 0.108773 -1.39959 65280
0.24745899 0.108773 -1.39959 65280
0.25017801 0.108773 -1.39959 65280
0.25289699 0.108773 -1.39959 65280
0.25561699 0.108773 -1.39959 65280
0.25833601 0.108773 -1.39959 65280
0.26105499 0.108773 -1.39959 65280
0.26377499 0.108773 -1.39959 65280
0.26649401 0.108773 -1.39959 65280
0.26921299 0.108773 -1.39959 65280
0.27193299 0.108773 -1.39959 65280
0.274652 0.108773 -1.39959 65280
0.27737099 0.108773 -1.39959 65280
0.28009099 0.108773 -1.39959 65280
0.28281 0.108773 -1.39959 65280
0.28552899 0.108773 -1.39959 65280
0.28824899 0.108773 -1.39959 65280
0.290968 0.108773 -1.39959 65280
0.29368699 0.108773 -1.39959 65280
0.29640701 0.108773 -1.39959 65280
0.299126 0.108773 -1.39959 65280
0.30184501 0.108773 -1.39959 65280
0.30456501 0.108773 -1.39959 65280
0.307284 0.108773 -1.39959 65280
0.31000301 0.108773 -1.39959 65280
0.31272301 0.108773 -1.39959 65280
0.315442 0.108773 -1.39959 65280
0.31816101 0.108773 -1.39959 65280
0.32088101 0.108773 -1.39959 65280
0.32359999 0.108773 -1.39959 65280
0.32631901 0.108773 -1.39959 65280
0.32903901 0.108773 -1.39959 65280
0.33175799 0.108773 -1.39959 65280
0.33447701 0.108773 -1.39959 65280
0.33719701 0.108773 -1.39959 65280
0.33991599 0.108773 -1.39959 65280
0.34263501 0.108773 -1.39959 65280
0.345355 0.108773 -1.39959 65280
0.34807399 0.108773 -1.39959 65280
0.350793 0.108773 -1.39959 65280
0.353513 0.108773 -1.39959 65280
0.35623199 0.108773 -1.39959 65280
0.358951 0.108773 -1.39959 65280
0.361671 0.108773 -1.39959 65280
0.36438999 0.108773 -1.39959 65280
0.367109 0.108773 -1.39959 65280
0.36982799 0.108773 -1.39959 65280
0.37254801 0.108773 -1.39959 65280
0.375267 0.108773 -1.39959 65280
0.37798601 0.108773 -1.39959 65280
0.38070601 0.108773 -1.39959 65280
0.383425 0.108773 -1.39959 65280
0.38614401 0.108773 -1.39959 65280
0.38886401 0.108773 -1.39959 65280
0.391583 0.108773 -1.39959 65280
0.39430201 0.108773 -1.39959 65280
0.39702201 0.108773 -1.39959 65280
-0.39939201 0.111395 -1.39837 65280
-0.39667499 0.111395 -1.39837 65280
-0.393958 0.111395 -1.39837 65280
-0.39124101 0.111395 -1.39837 65280
-0.388524 0.111395 -1.39837 65280
-0.38580701 0.111395 -1.39837 65280
-0.38308999 0.111395 -1.39837 65280
-0.380373 0.111395 -1.39837 65280
-0.37765601 0.111395 -1.39837 65280
-0.37494001 0.111395 -1.39837 65280
-0.37222299 0.111395 -1.39837 65280
-0.369506 0.111395 -1.39837 65280
-0.36678901 0.111395 -1.39837 65280
-0.364072 0.111395 -1.39837 65280
-0.36135501 0.111395 -1.39837 65280
-0.35863799 0.111395 -1.39837 65280
-0.355921 0.111395 -1.39837 65280
-0.35320401 0.111395 -1.39837 65280
-0.35048699 0.111395 -1.39837 65280
-0.34777001 0.111395 -1.39837 65280
-0.34505299 0.111395 -1.39837 65280
-0.342336 0.111395 -1.39837 65280
-0.33961901 0.111395 -1.39837 65280
-0.33690199 0.111395 -1.39837 65280
-0.334185 0.111395 -1.39837 65280
-0.33146799 0.111395 -1.39837 65280
-0.328751 0.111395 -1.39837 65280
-0.32603401 0.111395 -1.39837 65280
-0.32331699 0.111395 -1.39837 65280
-0.3206 0.111395 -1.39837 65280
-0.317884 0.111395 -1.39837 65280
-0.31516701 0.111395 -1.39837 65280
-0.31244999 0.111395 -1.39837 65280
-0.309733 0.111395 -1.39837 65280
-0.30701599 0.111395 -1.39837 65280
-0.304299 0.111395 -1.39837 65280
-0.30158201 0.111395 -1.39837 65280
-0.29886499 0.111395 -1.39837 65280
-0.296148 0.111395 -1.39837 65280
-0.29343101 0.111395 -1.39837 65280
-0.290714 0.111395 -1.39837 65280
-0.28799701 0.111395 -1.39837 65280
-0.28527999 0.111395 -1.39837 65280
-0.282563 0.111395 -1.39837 65280
-0.27984601 0.111395 -1.39837 65280
-0.27712899 0.111395 -1.39837 65280
-0.27441201 0.111395 -1.39837 65280
-0.27169499 0.111395 -1.39837 65280
-0.268978 0.111395 -1.39837 65280
-0.26626101 0.111395 -1.39837 65280
-0.26354399 0.111395 -1.39837 65280
-0.26082799 0.111395 -1.39837 65280
-0.258111 0.111395 -1.39837 65280
-0.25539401 0.111395 -1.39837 65280
-0.25267699 0.111395 -1.39837 65280
-0.24996001 0.111395 -1.39837 65280
-0.247243 0.111395 -1.39837 65280
-0.244526 0.111395 -1.39837 65280
-0.241809 0.111395 -1.39837 65280
-0.23909201 0.111395 -1.39837 65280
-0.236375 0.111395 -1.39837 65280
-0.233658 0.111395 -1.39837 65280
-0.230941 0.111395 -1.39837 65280
-0.22822399 0.111395 -1.39837 65280
-0.22550701 0.111395 -1.39837 65280
-0.22279 0.111395 -1.39837 65280
-0.220073 0.111395 -1.39837 65280
-0.217356 0.111395 -1.39837 65280
-0.21463899 0.111395 -1.39837 65280
-0.211922 0.111395 -1.39837 65280
-0.209205 0.111395 -1.39837 65280
-0.206488 0.111395 -1.39837 65280
-0.203771 0.111395 -1.39837 65280
-0.20105501 0.111395 -1.39837 65280
-0.198338 0.111395 -1.39837 65280
-0.195621 0.111395 -1.39837 65280
-0.192904 0.111395 -1.39837 65280
-0.19018701 0.111395 -1.39837 65280
-0.18747 0.111395 -1.39837 65280
-0.184753 0.111395 -1.39837 65280
-0.182036 0.111395 -1.39837 65280
-0.17931899 0.111395 -1.39837 65280
-0.17660201 0.111395 -1.39837 65280
-0.171644 0.109959 -1.38034 65280
-0.168281 0.109516 -1.3747801 65280
-0.16527499 0.109295 -1.372 65280
-0.162385 0.109144 -1.37011 65280
-0.159592 0.109054 -1.3689801 65280
-0.156822 0.108978 -1.3680201 65280
-0.15408801 0.108924 -1.36735 65280
-0.151393 0.108897 -1.367 65280
-0.148711 0.108877 -1.36676 65280
-0.14605799 0.10888 -1.3667901 65280
-0.143427 0.108898 -1.36702 65280
-0.140802 0.108922 -1.3673199 65280
-0.13818701 0.108955 -1.36774 65280
-0.135579 0.108995 -1.36824 65280
-0.13296901 0.109035 -1.36874 65280
-0.13036101 0.109078 -1.36928 65280
-0.127755 0.109124 -1.3698601 65280
-0.125158 0.10918 -1.3705601 65280
-0.122573 0.10925 -1.3714401 65280
-0.120013 0.109345 -1.37263 65280
-0.11749 0.10948 -1.37432 65280
-0.115069 0.109717 -1.3773 65280
-0.114112 0.111395 -1.39837 65280
-0.111395 0.111395 -1.39837 65280
-0.108678 0.111395 -1.39837 65280
-0.105961 0.111395 -1.39837 65280
-0.103244 0.111395 -1.39837 65280
-0.100527 0.111395 -1.39837 65280
-0.097810298 0.111395 -1.39837 65280
-0.095093399 0.111395 -1.39837 65280
-0.092376404 0.111395 -1.39837 65280
-0.089659497 0.111395 -1.39837 65280
-0.086942501 0.111395 -1.39837 65280
-0.084225602 0.111395 -1.39837 65280
-0.081508599 0.111395 -1.39837 65280
-0.078791603 0.111395 -1.39837 65280
-0.076074697 0.111395 -1.39837 65280
-0.073357701 0.111395 -1.39837 65280
-0.070640802 0.111395 -1.39837 65280
-0.067923799 0.111395 -1.39837 65280
-0.0652069 0.111395 -1.39837 65280
-0.062489901 0.111395 -1.39837 65280
-0.059773002 0.111395 -1.39837 65280
-0.057055999 0.111395 -1.39837 65280
-0.0543391 0.111395 -1.39837 65280
-0.0516221 0.111395 -1.39837 65280
-0.048905201 0.111395 -1.39837 65280
-0.046188202 0.111395 -1.39837 65280
-0.043471299 0.111395 -1.39837 65280
-0.0407543 0.111395 -1.39837 65280
-0.0380373 0.111395 -1.39837 65280
-0.035320401 0.111395 -1.39837 65280
-0.032603402 0.111395 -1.39837 65280
-0.029886501 0.111395 -1.39837 65280
-0.0271695 0.111395 -1.39837 65280
-0.024452601 0.111395 -1.39837 65280
-0.021735599 0.111395 -1.39837 65280
-0.0190187 0.111395 -1.39837 65280
-0.016301701 0.111395 -1.39837 65280
-0.0135848 0.111395 -1.39837 65280
-0.0108678 0.111395 -1.39837 65280
-0.0081508597 0.111395 -1.39837 65280
-0.0054339101 0.111395 -1.39837 65280
-0.0027169499 0.111395 -1.39837 65280
0 0.111395 -1.39837 65280
0.0027169499 0.111395 -1.39837 65280
0.0054339101 0.111395 -1.39837 65280
0.0081508597 0.111395 -1.39837 65280
0.0108678 0.111395 -1.39837 65280
0.0135848 0.111395 -1.39837 65280
0.016301701 0.111395 -1.39837 65280
0.0190187 0.111395 -1.39837 65280
0.021735599 0.111395 -1.39837 65280
0.024452601 0.111395 -1.39837 65280
0.0271695 0.111395 -1.39837 65280
0.029886501 0.111395 -1.39837 65280
0.032603402 0.111395 -1.39837 65280
0.035320401 0.111395 -1.39837 65280
0.0380373 0.111395 -1.39837 65280
0.0407543 0.111395 -1.39837 65280
0.043471299 0.111395 -1.39837 65280
0.046188202 0.111395 -1.39837 65280
0.048905201 0.111395 -1.39837 65280
0.0516221 0.111395 -1.39837 65280
0.0543391 0.111395 -1.39837 65280
0.057055999 0.111395 -1.39837 65280
0.059773002 0.111395 -1.39837 65280
0.062489901 0.111395 -1.39837 65280
0.0652069 0.111395 -1.39837 65280
0.067923799 0.111395 -1.39837 65280
0.070640802 0.111395 -1.39837 65280
0.073357701 0.111395 -1.39837 65280
0.076074697 0.111395 -1.39837 65280
0.078791603 0.111395 -1.39837 65280
0.081508599 0.111395 -1.39837 65280
0.084225602 0.111395 -1.39837 65280
0.086942501 0.111395 -1.39837 65280
0.089659497 0.111395 -1.39837 65280
0.092376404 0.111395 -1.39837 65280
0.095093399 0.111395 -1.39837 65280
0.097810298 0.111395 -1.39837 65280
0.100527 0.111395 -1.39837 65280
0.103244 0.111395 -1.39837 65280
0.105961 0.111395 -1.39837 65280
0.108678 0.111395 -1.39837 65280
0.111395 0.111395 -1.39837 65280
0.114112 0.111395 -1.39837 65280
0.116829 0.111395 -1.39837 65280
0.119546 0.111395 -1.39837 65280
0.122263 0.111395 -1.39837 65280
0.12498 0.111395 -1.39837 65280
0.12769701 0.111395 -1.39837 65280
0.13041399 0.111395 -1.39837 65280
0.133131 0.111395 -1.39837 65280
0.135848 0.111395 -1.39837 65280
0.138565 0.111395 -1.39837 65280
0.14128201 0.111395 -1.39837 65280
0.143999 0.111395 -1.39837 65280
0.146715 0.111395 -1.39837 65280
0.149432 0.111395 -1.39837 65280
0.15214901 0.111395 -1.39837 65280
0.154866 0.111395 -1.39837 65280
0.157583 0.111395 -1.39837 65280
0.1603 0.111395 -1.39837 65280
0.163017 0.111395 -1.39837 65280
0.16573399 0.111395 -1.39837 65280
0.168451 0.111395 -1.39837 65280
0.171168 0.111395 -1.39837 65280
0.173885 0.111395 -1.39837 65280
0.17660201 0.111395 -1.39837 65280
0.17931899 0.111395 -1.39837 65280
0.182036 0.111395 -1.39837 65280
0.184753 0.111395 -1.39837 65280
0.18747 0.111395 -1.39837 65280
0.19018701 0.111395 -1.39837 65280
0.192904 0.111395 -1.39837 65280
0.195621 0.111395 -1.39837 65280
0.198338 0.111395 -1.39837 65280
0.20105501 0.111395 -1.39837 65280
0.203771 0.111395 -1.39837 65280
0.206488 0.111395 -1.39837 65280
0.209205 0.111395 -1.39837 65280
0.211922 0.111395 -1.39837 65280
0.21463899 0.111395 -1.39837 65280
0.217356 0.111395 -1.39837 65280
0.220073 0.111395 -1.39837 65280
0.22279 0.111395 -1.39837 65280
0.22550701 0.111395 -1.39837 65280
0.22822399 0.111395 -1.39837 65280
0.230941 0.111395 -1.39837 65280
0.233658 0.111395 -1.39837 65280
0.236375 0.111395 -1.39837 65280
0.23909201 0.111395 -1.39837 65280
0.241809 0.111395 -1.39837 65280
0.244526 0.111395 -1.39837 65280
0.247243 0.111395 -1.39837 65280
0.24996001 0.111395 -1.39837 65280
0.25267699 0.111395 -1.39837 65280
0.25539401 0.111395 -1.39837 65280
0.258111 0.111395 -1.39837 65280
0.26082799 0.111395 -1.39837 65280
0.26354399 0.111395 -1.39837 65280
0.26626101 0.111395 -1.39837 65280
0.268978 0.111395 -1.39837 65280
0.27169499 0.111395 -1.39837 65280
0.27441201 0.111395 -1.39837 65280
0.27712899 0.111395 -1.39837 65280
0.27984601 0.111395 -1.39837 65280
0.282563 0.111395 -1.39837 65280
0.28527999 0.111395 -1.39837 65280
0.28799701 0.111395 -1.39837 65280
0.290714 0.111395 -1.39837 65280
0.29343101 0.111395 -1.39837 65280
0.296148 0.111395 -1.39837 65280
0.29886499 0.111395 -1.39837 65280
0.30158201 0.111395 -1.39837 65280
0.304299 0.111395 -1.39837 65280
0.30701599 0.111395 -1.39837 65280
0.309733 0.111395 -1.39837 65280
0.31244999 0.111395 -1.39837 65280
0.31516701 0.111395 -1.39837 65280
0.317884 0.111395 -1.39837 65280
0.3206 0.111395 -1.39837 65280
0.32331699 0.111395 -1.39837 65280
0.32603401 0.111395 -1.39837 65280
0.328751 0.111395 -1.39837 65280
0.33146799 0.111395 -1.39837 65280
0.334185 0.111395 -1.39837 65280
0.33690199 0.111395 -1.39837 65280
0.33961901 0.111395 -1.39837 65280
0.342336 0.111395 -1.39837 65280
0.34505299 0.111395 -1.39837 65280
0.34777001 0.111395 -1.39837 65280
0.35048699 0.111395 -1.39837 65280
0.35320401 0.111395 -1.39837 65280
0.355921 0.111395 -1.39837 65280
0.35863799 0.111395 -1.39837 65280
0.36135501 0.111395 -1.39837 65280
0.364072 0.111395 -1.39837 65280
0.36678901 0.111395 -1.39837 65280
0.369506 0.111395 -1.39837 65280
0.37222299 0.111395 -1.39837 65280
0.37494001 0.111395 -1.39837 65280
0.37765601 0.111395 -1.39837 65280
0.380373 0.111395 -1.39837 65280
0.38308999 0.111395 -1.39837 65280
0.38580701 0.111395 -1.39837 65280
0.388524 0.111395 -1.39837 65280
0.39124101 0.111395 -1.39837 65280
0.393958 0.111395 -1.39837 65280
0.39667499 0.111395 -1.39837 65280
-0.39904401 0.114012 -1.39715 65280
-0.39632899 0.114012 -1.39715 65280
-0.39361501 0.114012 -1.39715 65280
-0.39089999 0.114012 -1.39715 65280
-0.38818499 0.114012 -1.39715 65280
-0.38547099 0.114012 -1.39715 65280
-0.38275599 0.114012 -1.39715 65280
-0.38004199 0.114012 -1.39715 65280
-0.377327 0.114012 -1.39715 65280
-0.374612 0.114012 -1.39715 65280
-0.371898 0.114012 -1.39715 65280
-0.369183 0.114012 -1.39715 65280
-0.366469 0.114012 -1.39715 65280
-0.363754 0.114012 -1.39715 65280
-0.36104 0.114012 -1.39715 65280
-0.358325 0.114012 -1.39715 65280
-0.35561001 0.114012 -1.39715 65280
-0.352896 0.114012 -1.39715 65280
-0.35018101 0.114012 -1.39715 65280
-0.34746701 0.114012 -1.39715 65280
-0.34475201 0.114012 -1.39715 65280
-0.34203699 0.114012 -1.39715 65280
-0.33932301 0.114012 -1.39715 65280
-0.33660799 0.114012 -1.39715 65280
-0.33389401 0.114012 -1.39715 65280
-0.33117899 0.114012 -1.39715 65280
-0.32846501 0.114012 -1.39715 65280
-0.32574999 0.114012 -1.39715 65280
-0.323035 0.114012 -1.39715 65280
-0.32032099 0.114012 -1.39715 65280
-0.317606 0.114012 -1.39715 65280
-0.31489199 0.114012 -1.39715 65280
-0.312177 0.114012 -1.39715 65280
-0.30946201 0.114012 -1.39715 65280
-0.306748 0.114012 -1.39715 65280
-0.30403301 0.114012 -1.39715 65280
-0.301319 0.114012 -1.39715 65280
-0.29860401 0.114012 -1.39715 65280
-0.29589 0.114012 -1.39715 65280
-0.29317501 0.114012 -1.39715 65280
-0.29045999 0.114012 -1.39715 65280
-0.28774601 0.114012 -1.39715 65280
-0.28503099 0.114012 -1.39715 65280
-0.28231701 0.114012 -1.39715 65280
-0.27960199 0.114012 -1.39715 65280
-0.27688801 0.114012 -1.39715 65280
-0.27417299 0.114012 -1.39715 65280
-0.271458 0.114012 -1.39715 65280
-0.26874399 0.114012 -1.39715 65280
-0.266029 0.114012 -1.39715 65280
-0.26331499 0.114012 -1.39715 65280
-0.2606 0.114012 -1.39715 65280
-0.25788501 0.114012 -1.39715 65280
-0.255171 0.114012 -1.39715 65280
-0.25245601 0.114012 -1.39715 65280
-0.249742 0.114012 -1.39715 65280
-0.24702699 0.114012 -1.39715 65280
-0.244312 0.114012 -1.39715 65280
-0.241598 0.114012 -1.39715 65280
-0.238883 0.114012 -1.39715 65280
-0.236169 0.114012 -1.39715 65280
-0.233454 0.114012 -1.39715 65280
-0.23074 0.114012 -1.39715 65280
-0.228025 0.114012 -1.39715 65280
-0.22531 0.114012 -1.39715 65280
-0.222596 0.114012 -1.39715 65280
-0.219881 0.114012 -1.39715 65280
-0.217167 0.114012 -1.39715 65280
-0.214452 0.114012 -1.39715 65280
-0.21173701 0.114012 -1.39715 65280
-0.209023 0.114012 -1.39715 65280
-0.20630801 0.114012 -1.39715 65280
-0.203594 0.114012 -1.39715 65280
-0.20087899 0.114012 -1.39715 65280
-0.198165 0.114012 -1.39715 65280
-0.19544999 0.114012 -1.39715 65280
-0.192735 0.114012 -1.39715 65280
-0.19002099 0.114012 -1.39715 65280
-0.187306 0.114012 -1.39715 65280
-0.18459199 0.114012 -1.39715 65280
-0.181877 0.114012 -1.39715 65280
-0.17916299 0.114012 -1.39715 65280
-0.176448 0.114012 -1.39715 65280
-0.173733 0.114012 -1.39715 65280
-0.171019 0.114012 -1.39715 65280
-0.168304 0.114012 -1.39715 65280
-0.16559 0.114012 -1.39715 65280
-0.16058899 0.112413 -1.37754 65280
-0.15751401 0.112129 -1.37406 65280
-0.15462101 0.111967 -1.37208 65280
-0.151842 0.111884 -1.37106 65280
-0.14909001 0.111818 -1.37025 65280
-0.146392 0.11179 -1.36991 65280
-0.14371701 0.11178 -1.3697799 65280
-0.141059 0.111783 -1.36982 65280
-0.138429 0.111808 -1.3701299 65280
-0.13581 0.111844 -1.3705699 65280
-0.13319901 0.111887 -1.3710999 65280
-0.130601 0.111943 -1.3717901 65280
-0.128022 0.112019 -1.37272 65280
-0.125458 0.112111 -1.37385 65280
-0.122958 0.112266 -1.3757401 65280
-0.120577 0.112538 -1.3790801 65280
-0.119442 0.114012 -1.39715 65280
-0.116727 0.114012 -1.39715 65280
-0.114012 0.114012 -1.39715 65280
-0.111298 0.114012 -1.39715 65280
-0.108583 0.114012 -1.39715 65280
-0.105869 0.114012 -1.39715 65280
-0.103154 0.114012 -1.39715 65280
-0.10044 0.114012 -1.39715 65280
-0.097724997 0.114012 -1.39715 65280
-0.0950104 0.114012 -1.39715 65280
-0.092295803 0.114012 -1.39715 65280
-0.089581303 0.114012 -1.39715 65280
-0.086866699 0.114012 -1.39715 65280
-0.084152102 0.114012 -1.39715 65280
-0.081437498 0.114012 -1.39715 65280
-0.078722902 0.114012 -1.39715 65280
-0.076008298 0.114012 -1.39715 65280
-0.073293701 0.114012 -1.39715 65280
-0.070579201 0.114012 -1.39715 65280
-0.067864597 0.114012 -1.39715 65280
-0.06515 0.114012 -1.39715 65280
-0.0624354 0.114012 -1.39715 65280
-0.059720799 0.114012 -1.39715 65280
-0.057006199 0.114012 -1.39715 65280
-0.054291699 0.114012 -1.39715 65280
-0.051577099 0.114012 -1.39715 65280
-0.048862498 0.114012 -1.39715 65280
-0.046147902 0.114012 -1.39715 65280
-0.043433301 0.114012 -1.39715 65280
-0.040718701 0.114012 -1.39715 65280
-0.038004201 0.114012 -1.39715 65280
-0.0352896 0.114012 -1.39715 65280
-0.032575 0.114012 -1.39715 65280
-0.0298604 0.114012 -1.39715 65280
-0.027145799 0.114012 -1.39715 65280
-0.024431201 0.114012 -1.39715 65280
-0.021716701 0.114012 -1.39715 65280
-0.0190021 0.114012 -1.39715 65280
-0.0162875 0.114012 -1.39715 65280
-0.0135729 0.114012 -1.39715 65280
-0.0108583 0.114012 -1.39715 65280
-0.00814375 0.114012 -1.39715 65280
-0.0054291701 0.114012 -1.39715 65280
-0.0027145799 0.114012 -1.39715 65280
0 0.114012 -1.39715 65280
0.0027145799 0.114012 -1.39715 65280
0.0054291701 0.114012 -1.39715 65280
0.00814375 0.114012 -1.39715 65280
0.0108583 0.114012 -1.39715 65280
0.0135729 0.114012 -1.39715 65280
0.0162875 0.114012 -1.39715 65280
0.0190021 0.114012 -1.39715 65280
0.021716701 0.114012 -1.39715 65280
0.024431201 0.114012 -1.39715 65280
0.027145799 0.114012 -1.39715 65280
0.0298604 0.114012 -1.39715 65280
0.032575 0.114012 -1.39715 65280
0.0352896 0.114012 -1.39715 65280
0.038004201 0.114012 -1.39715 65280
0.040718701 0.114012 -1.39715 65280
0.043433301 0.114012 -1.39715 65280
0.046147902 0.114012 -1.39715 65280
0.048862498 0.114012 -1.39715 65280
0.051577099 0.114012 -1.39715 65280
0.054291699 0.114012 -1.39715 65280
0.057006199 0.114012 -1.39715 65280
0.059720799 0.114012 -1.39715 65280
0.0624354 0.114012 -1.39715 65280
0.06515 0.114012 -1.39715 65280
0.067864597 0.114012 -1.39715 65280
0.070579201 0.114012 -1.39715 65280
0.073293701 0.114012 -1.39715 65280
0.076008298 0.114012 -1.39715 65280
0.078722902 0.114012 -1.39715 65280
0.081437498 0.114012 -1.39715 65280
0.084152102 0.114012 -1.39715 65280
0.086866699 0.114012 -1.39715 65280
0.089581303 0.114012 -1.39715 65280
0.092295803 0.114012 -1.39715 65280
0.0950104 0.114012 -1.39715 65280
0.097724997 0.114012 -1.39715 65280
0.10044 0.114012 -1.39715 65280
0.103154 0.114012 -1.39715 65280
0.105869 0.114012 -1.39715 65280
0.108583 0.114012 -1.39715 65280
0.111298 0.114012 -1.39715 65280
0.114012 0.114012 -1.39715 65280
0.116727 0.114012 -1.39715 65280
0.119442 0.114012 -1.39715 65280
0.122156 0.114012 -1.39715 65280
0.124871 0.114012 -1.39715 65280
0.12758499 0.114012 -1.39715 65280
0.1303 0.114012 -1.39715 65280
0.13301501 0.114012 -1.39715 65280
0.135729 0.114012 -1.39715 65280
0.13844401 0.114012 -1.39715 65280
0.141158 0.114012 -1.39715 65280
0.14387301 0.114012 -1.39715 65280
0.146587 0.114012 -1.39715 65280
0.14930201 0.114012 -1.39715 65280
0.152017 0.114012 -1.39715 65280
0.15473101 0.114012 -1.39715 65280
0.157446 0.114012 -1.39715 65280
0.16016001 0.114012 -1.39715 65280
0.162875 0.114012 -1.39715 65280
0.16559 0.114012 -1.39715 65280
0.168304 0.114012 -1.39715 65280
0.171019 0.114012 -1.39715 65280
0.173733 0.114012 -1.39715 65280
0.176448 0.114012 -1.39715 65280
0.17916299 0.114012 -1.39715 65280
0.181877 0.114012 -1.39715 65280
0.18459199 0.114012 -1.39715 65280
0.187306 0.114012 -1.39715 65280
0.19002099 0.114012 -1.39715 65280
0.192735 0.114012 -1.39715 65280
0.19544999 0.114012 -1.39715 65280
0.198165 0.114012 -1.39715 65280
0.20087899 0.114012 -1.39715 65280
0.203594 0.114012 -1.39715 65280
0.20630801 0.114012 -1.39715 65280
0.209023 0.114012 -1.39715 65280
0.21173701 0.114012 -1.39715 65280
0.214452 0.114012 -1.39715 65280
0.217167 0.114012 -1.39715 65280
0.219881 0.114012 -1.39715 65280
0.222596 0.114012 -1.39715 65280
0.22531 0.114012 -1.39715 65280
0.228025 0.114012 -1.39715 65280
0.23074 0.114012 -1.39715 65280
0.233454 0.114012 -1.39715 65280
0.236169 0.114012 -1.39715 65280
0.238883 0.114012 -1.39715 65280
0.241598 0.114012 -1.39715 65280
0.244312 0.114012 -1.39715 65280
0.24702699 0.114012 -1.39715 65280
0.249742 0.114012 -1.39715 65280
0.25245601 0.114012 -1.39715 65280
0.255171 0.114012 -1.39715 65280
0.25788501 0.114012 -1.39715 65280
0.2606 0.114012 -1.39715 65280
0.26331499 0.114012 -1.39715 65280
0.266029 0.114012 -1.39715 65280
0.26874399 0.114012 -1.39715 65280
0.271458 0.114012 -1.39715 65280
0.27417299 0.114012 -1.39715 65280
0.27688801 0.114012 -1.39715 65280
0.27960199 0.114012 -1.39715 65280
0.28231701 0.114012 -1.39715 65280
0.28503099 0.114012 -1.39715 65280
0.28774601 0.114012 -1.39715 65280
0.29045999 0.114012 -1.39715 65280
0.29317501 0.114012 -1.39715 65280
0.29589 0.114012 -1.39715 65280
0.29860401 0.114012 -1.39715 65280
0.301319 0.114012 -1.39715 65280
0.30403301 0.114012 -1.39715 65280
0.306748 0.114012 -1.39715 65280
0.30946201 0.114012 -1.39715 65280
0.312177 0.114012 -1.39715 65280
0.31489199 0.114012 -1.39715 65280
0.317606 0.114012 -1.39715 65280
0.32032099 0.114012 -1.39715 65280
0.323035 0.114012 -1.39715 65280
0.32574999 0.114012 -1.39715 65280
0.32846501 0.114012 -1.39715 65280
0.33117899 0.114012 -1.39715 65280
0.33389401 0.114012 -1.39715 65280
0.33660799 0.114012 -1.39715 65280
0.33932301 0.114012 -1.39715 65280
0.34203699 0.114012 -1.39715 65280
0.34475201 0.114012 -1.39715 65280
0.34746701 0.114012 -1.39715 65280
0.35018101 0.114012 -1.39715 65280
0.352896 0.114012 -1.39715 65280
0.35561001 0.114012 -1.39715 65280
0.358325 0.114012 -1.39715 65280
0.36104 0.114012 -1.39715 65280
0.363754 0.114012 -1.39715 65280
0.366469 0.114012 -1.39715 65280
0.369183 0.114012 -1.39715 65280
0.371898 0.114012 -1.39715 65280
0.374612 0.114012 -1.39715 65280
0.377327 0.114012 -1.39715 65280
0.38004199 0.114012 -1.39715 65280
0.38275599 0.114012 -1.39715 65280
0.38547099 0.114012 -1.39715 65280
0.38818499 0.114012 -1.39715 65280
0.39089999 0.114012 -1.39715 65280
0.39361501 0.114012 -1.39715 65280
0.39632899 0.114012 -1.39715 65280
-0.39869601 0.116625 -1.3959301 65280
-0.39598301 0.116625 -1.3959301 65280
-0.393271 0.116625 -1.3959301 65280
-0.39055899 0.116625 -1.3959301 65280
-0.38784701 0.116625 -1.3959301 65280
-0.38513499 0.116625 -1.3959301 65280
-0.382422 0.116625 -1.3959301 65280
-0.37970999 0.116625 -1.3959301 65280
-0.37699801 0.116625 -1.3959301 65280
-0.374286 0.116625 -1.3959301 65280
-0.37157401 0.116625 -1.3959301 65280
-0.36886099 0.116625 -1.3959301 65280
-0.36614901 0.116625 -1.3959301 65280
-0.363437 0.116625 -1.3959301 65280
-0.36072499 0.116625 -1.3959301 65280
-0.35801199 0.116625 -1.3959301 65280
-0.35530001 0.116625 -1.3959301 65280
-0.352588 0.116625 -1.3959301 65280
-0.34987599 0.116625 -1.3959301 65280
-0.34716401 0.116625 -1.3959301 65280
-0.34445101 0.116625 -1.3959301 65280
-0.341739 0.116625 -1.3959301 65280
-0.33902699 0.116625 -1.3959301 65280
-0.33631501 0.116625 -1.3959301 65280
-0.33360201 0.116625 -1.3959301 65280
-0.33089 0.116625 -1.3959301 65280
-0.32817799 0.116625 -1.3959301 65280
-0.32546601 0.116625 -1.3959301 65280
-0.322754 0.116625 -1.3959301 65280
-0.320041 0.116625 -1.3959301 65280
-0.31732899 0.116625 -1.3959301 65280
-0.31461701 0.116625 -1.3959301 65280
-0.311905 0.116625 -1.3959301 65280
-0.30919299 0.116625 -1.3959301 65280
-0.30647999 0.116625 -1.3959301 65280
-0.30376801 0.116625 -1.3959301 65280
-0.301056 0.116625 -1.3959301 65280
-0.29834399 0.116625 -1.3959301 65280
-0.29563099 0.116625 -1.3959301 65280
-0.29291901 0.116625 -1.3959301 65280
-0.290207 0.116625 -1.3959301 65280
-0.28749499 0.116625 -1.3959301 65280
-0.28478301 0.116625 -1.3959301 65280
-0.28207001 0.116625 -1.3959301 65280
-0.279358 0.116625 -1.3959301 65280
-0.27664599 0.116625 -1.3959301 65280
-0.27393401 0.116625 -1.3959301 65280
-0.271222 0.116625 -1.3959301 65280
-0.268509 0.116625 -1.3959301 65280
-0.26579699 0.116625 -1.3959301 65280
-0.26308501 0.116625 -1.3959301 65280
-0.260373 0.116625 -1.3959301 65280
-0.25766 0.116625 -1.3959301 65280
-0.25494799 0.116625 -1.3959301 65280
-0.25223601 0.116625 -1.3959301 65280
-0.249524 0.116625 -1.3959301 65280
-0.246812 0.116625 -1.3959301 65280
-0.24409901 0.116625 -1.3959301 65280
-0.24138699 0.116625 -1.3959301 65280
-0.238675 0.116625 -1.3959301 65280
-0.235963 0.116625 -1.3959301 65280
-0.23325101 0.116625 -1.3959301 65280
-0.230538 0.116625 -1.3959301 65280
-0.227826 0.116625 -1.3959301 65280
-0.225114 0.116625 -1.3959301 65280
-0.22240201 0.116625 -1.3959301 65280
-0.219689 0.116625 -1.3959301 65280
-0.216977 0.116625 -1.3959301 65280
-0.214265 0.116625 -1.3959301 65280
-0.21155301 0.116625 -1.3959301 65280
-0.208841 0.116625 -1.3959301 65280
-0.206128 0.116625 -1.3959301 65280
-0.203416 0.116625 -1.3959301 65280
-0.20070399 0.116625 -1.3959301 65280
-0.197992 0.116625 -1.3959301 65280
-0.19528 0.116625 -1.3959301 65280
-0.19256701 0.116625 -1.3959301 65280
-0.18985499 0.116625 -1.3959301 65280
-0.187143 0.116625 -1.3959301 65280
-0.184431 0.116625 -1.3959301 65280
-0.18171801 0.116625 -1.3959301 65280
-0.179006 0.116625 -1.3959301 65280
-0.176294 0.116625 -1.3959301 65280
-0.173582 0.116625 -1.3959301 65280
-0.17087001 0.116625 -1.3959301 65280
-0.168157 0.116625 -1.3959301 65280
-0.165445 0.116625 -1.3959301 65280
-0.162733 0.116625 -1.3959301 65280
-0.16002101 0.116625 -1.3959301 65280
-0.157308 0.116625 -1.3959301 65280
-0.154596 0.116625 -1.3959301 65280
-0.151884 0.116625 -1.3959301 65280
-0.14917199 0.116625 -1.3959301 65280
-0.14646 0.116625 -1.3959301 65280
-0.143747 0.116625 -1.3959301 65280
-0.14103501 0.116625 -1.3959301 65280
-0.13832299 0.116625 -1.3959301 65280
-0.135611 0.116625 -1.3959301 65280
-0.132899 0.116625 -1.3959301 65280
-0.13018601 0.116625 -1.3959301 65280
-0.127474 0.116625 -1.3959301 65280
-0.124762 0.116625 -1.3959301 65280
-0.12205 0.116625 -1.3959301 65280
-0.119337 0.116625 -1.3959301 65280
-0.116625 0.116625 -1.3959301 65280
-0.113913 0.116625 -1.3959301 65280
-0.111201 0.116625 -1.3959301 65280
-0.108489 0.116625 -1.3959301 65280
-0.105776 0.116625 -1.3959301 65280
-0.103064 0.116625 -1.3959301 65280
-0.100352 0.116625 -1.3959301 65280
-0.097639799 0.116625 -1.3959301 65280
-0.094927497 0.116625 -1.3959301 65280
-0.0922153 0.116625 -1.3959301 65280
-0.089503102 0.116625 -1.3959301 65280
-0.086790897 0.116625 -1.3959301 65280
-0.084078699 0.116625 -1.3959301 65280
-0.081366502 0.116625 -1.3959301 65280
-0.0786542 0.116625 -1.3959301 65280
-0.075942002 0.116625 -1.3959301 65280
-0.073229797 0.116625 -1.3959301 65280
-0.0705176 0.116625 -1.3959301 65280
-0.067805402 0.116625 -1.3959301 65280
-0.065093197 0.116625 -1.3959301 65280
-0.062380999 0.116625 -1.3959301 65280
-0.059668701 0.116625 -1.3959301 65280
-0.0569565 0.116625 -1.3959301 65280
-0.054244298 0.116625 -1.3959301 65280
-0.051532101 0.116625 -1.3959301 65280
-0.0488199 0.116625 -1.3959301 65280
-0.046107698 0.116625 -1.3959301 65280
-0.0433954 0.116625 -1.3959301 65280
-0.040683199 0.116625 -1.3959301 65280
-0.037971001 0.116625 -1.3959301 65280
-0.0352588 0.116625 -1.3959301 65280
-0.032546598 0.116625 -1.3959301 65280
-0.029834401 0.116625 -1.3959301 65280
-0.0271222 0.116625 -1.3959301 65280
-0.024409899 0.116625 -1.3959301 65280
-0.0216977 0.116625 -1.3959301 65280
-0.018985501 0.116625 -1.3959301 65280
-0.016273299 0.116625 -1.3959301 65280
-0.0135611 0.116625 -1.3959301 65280
-0.0108489 0.116625 -1.3959301 65280
-0.0081366496 0.116625 -1.3959301 65280
-0.0054244301 0.116625 -1.3959301 65280
-0.00271222 0.116625 -1.3959301 65280
0 0.116625 -1.3959301 65280
0.00271222 0.116625 -1.3959301 65280
0.0054244301 0.116625 -1.3959301 65280
0.0081366496 0.116625 -1.3959301 65280
0.0108489 0.116625 -1.3959301 65280
0.0135611 0.116625 -1.3959301 65280
0.016273299 0.116625 -1.3959301 65280
0.018985501 0.116625 -1.3959301 65280
0.0216977 0.116625 -1.3959301 65280
0.024409899 0.116625 -1.3959301 65280
0.0271222 0.116625 -1.3959301 65280
0.029834401 0.116625 -1.3959301 65280
0.032546598 0.116625 -1.3959301 65280
0.0352588 0.116625 -1.3959301 65280
0.037971001 0.116625 -1.3959301 65280
0.040683199 0.116625 -1.3959301 65280
0.0433954 0.116625 -1.3959301 65280
0.046107698 0.116625 -1.3959301 65280
0.0488199 0.116625 -1.3959301 65280
0.051532101 0.116625 -1.3959301 65280
0.054244298 0.116625 -1.3959301 65280
0.0569565 0.116625 -1.3959301 65280
0.059668701 0.116625 -1.3959301 65280
0.062380999 0.116625 -1.3959301 65280
0.065093197 0.116625 -1.3959301 65280
0.067805402 0.116625 -1.3959301 65280
0.0705176 0.116625 -1.3959301 65280
0.073229797 0.116625 -1.3959301 65280
0.075942002 0.116625 -1.3959301 65280
0.0786542 0.116625 -1.3959301 65280
0.081366502 0.116625 -1.3959301 65280
0.084078699 0.116625 -1.3959301 65280
0.086790897 0.116625 -1.3959301 65280
0.089503102 0.116625 -1.3959301 65280
0.0922153 0.116625 -1.3959301 65280
0.094927497 0.116625 -1.3959301 65280
0.097639799 0.116625 -1.3959301 65280
0.100352 0.116625 -1.3959301 65280
0.103064 0.116625 -1.3959301 65280
0.105776 0.116625 -1.3959301 65280
0.108489 0.116625 -1.3959301 65280
0.111201 0.116625 -1.3959301 65280
0.113913 0.116625 -1.3959301 65280
0.116625 0.116625 -1.3959301 65280
0.119337 0.116625 -1.3959301 65280
0.12205 0.116625 -1.3959301 65280
0.124762 0.116625 -1.3959301 65280
0.127474 0.116625 -1.3959301 65280
0.13018601 0.116625 -1.3959301 65280
0.132899 0.116625 -1.3959301 65280
0.135611 0.116625 -1.3959301 65280
0.13832299 0.116625 -1.3959301 65280
0.14103501 0.116625 -1.3959301 65280
0.143747 0.116625 -1.3959301 65280
0.14646 0.116625 -1.3959301 65280
0.14917199 0.116625 -1.3959301 65280
0.151884 0.116625 -1.3959301 65280
0.154596 0.116625 -1.3959301 65280
0.157308 0.116625 -1.3959301 65280
0.16002101 0.116625 -1.3959301 65280
0.162733 0.116625 -1.3959301 65280
0.165445 0.116625 -1.3959301 65280
0.168157 0.116625 -1.3959301 65280
0.17087001 0.116625 -1.3959301 65280
0.173582 0.116625 -1.3959301 65280
0.176294 0.116625 -1.3959301 65280
0.179006 0.116625 -1.3959301 65280
0.18171801 0.116625 -1.3959301 65280
0.184431 0.116625 -1.3959301 65280
0.187143 0.116625 -1.3959301 65280
0.18985499 0.116625 -1.3959301 65280
0.19256701 0.116625 -1.3959301 65280
0.19528 0.116625 -1.3959301 65280
0.197992 0.116625 -1.3959301 65280
0.20070399 0.116625 -1.3959301 65280
0.203416 0.116625 -1.3959301 65280
0.206128 0.116625 -1.3959301 65280
0.208841 0.116625 -1.3959301 65280
0.21155301 0.116625 -1.3959301 65280
0.214265 0.116625 -1.3959301 65280
0.216977 0.116625 -1.3959301 65280
0.219689 0.116625 -1.3959301 65280
0.22240201 0.116625 -1.3959301 65280
0.225114 0.116625 -1.3959301 65280
0.227826 0.116625 -1.3959301 65280
0.230538 0.116625 -1.3959301 65280
0.23325101 0.116625 -1.3959301 65280
0.235963 0.116625 -1.3959301 65280
0.238675 0.116625 -1.3959301 65280
0.24138699 0.116625 -1.3959301 65280
0.24409901 0.116625 -1.3959301 65280
0.246812 0.116625 -1.3959301 65280
0.249524 0.116625 -1.3959301 65280
0.25223601 0.116625 -1.3959301 65280
0.25494799 0.116625 -1.3959301 65280
0.25766 0.116625 -1.3959301 65280
0.260373 0.116625 -1.3959301 65280
0.26308501 0.116625 -1.3959301 65280
0.26579699 0.116625 -1.3959301 65280
0.268509 0.116625 -1.3959301 65280
0.271222 0.116625 -1.3959301 65280
0.27393401 0.116625 -1.3959301 65280
0.27664599 0.116625 -1.3959301 65280
0.279358 0.116625 -1.3959301 65280
0.28207001 0.116625 -1.3959301 65280
0.28478301 0.116625 -1.3959301 65280
0.28749499 0.116625 -1.3959301 65280
0.290207 0.116625 -1.3959301 65280
0.29291901 0.116625 -1.3959301 65280
0.29563099 0.116625 -1.3959301 65280
0.29834399 0.116625 -1.3959301 65280
0.301056 0.116625 -1.3959301 65280
0.30376801 0.116625 -1.3959301 65280
0.30647999 0.116625 -1.3959301 65280
0.30919299 0.116625 -1.3959301 65280
0.311905 0.116625 -1.3959301 65280
0.31461701 0.116625 -1.3959301 65280
0.31732899 0.116625 -1.3959301 65280
0.320041 0.116625 -1.3959301 65280
0.322754 0.116625 -1.3959301 65280
0.32546601 0.116625 -1.3959301 65280
0.32817799 0.116625 -1.3959301 65280
0.33089 0.116625 -1.3959301 65280
0.33360201 0.116625 -1.3959301 65280
0.33631501 0.116625 -1.3959301 65280
0.33902699 0.116625 -1.3959301 65280
0.341739 0.116625 -1.3959301 65280
0.34445101 0.116625 -1.3959301 65280
0.34716401 0.116625 -1.3959301 65280
0.34987599 0.116625 -1.3959301 65280
0.352588 0.116625 -1.3959301 65280
0.35530001 0.116625 -1.3959301 65280
0.35801199 0.116625 -1.3959301 65280
0.36072499 0.116625 -1.3959301 65280
0.363437 0.116625 -1.3959301 65280
0.36614901 0.116625 -1.3959301 65280
0.36886099 0.116625 -1.3959301 65280
0.37157401 0.116625 -1.3959301 65280
0.374286 0.116625 -1.3959301 65280
0.37699801 0.116625 -1.3959301 65280
0.37970999 0.116625 -1.3959301 65280
0.382422 0.116625 -1.3959301 65280
0.38513499 0.116625 -1.3959301 65280
0.38784701 0.116625 -1.3959301 65280
0.39055899 0.116625 -1.3959301 65280
0.393271 0.116625 -1.3959301 65280
0.39598301 0.116625 -1.3959301 65280
-0.40105799 0.119234 -1.3947099 65280
-0.398348 0.119234 -1.3947099 65280
-0.395639 0.119234 -1.3947099 65280
-0.39292899 0.119234 -1.3947099 65280
-0.390219 0.119234 -1.3947099 65280
-0.38750899 0.119234 -1.3947099 65280
-0.384799 0.119234 -1.3947099 65280
-0.38208899 0.119234 -1.3947099 65280
-0.37937999 0.119234 -1.3947099 65280
-0.37667 0.119234 -1.3947099 65280
-0.37395999 0.119234 -1.3947099 65280
-0.37125 0.119234 -1.3947099 65280
-0.36853999 0.119234 -1.3947099 65280
-0.36583 0.119234 -1.3947099 65280
-0.36311999 0.119234 -1.3947099 65280
-0.36041099 0.119234 -1.3947099 65280
-0.357701 0.119234 -1.3947099 65280
-0.35499099 0.119234 -1.3947099 65280
-0.352281 0.119234 -1.3947099 65280
-0.34957099 0.119234 -1.3947099 65280
-0.346861 0.119234 -1.3947099 65280
-0.34415099 0.119234 -1.3947099 65280
-0.34144199 0.119234 -1.3947099 65280
-0.338732 0.119234 -1.3947099 65280
-0.33602199 0.119234 -1.3947099 65280
-0.333312 0.119234 -1.3947099 65280
-0.33060199 0.119234 -1.3947099 65280
-0.32789201 0.119234 -1.3947099 65280
-0.32518199 0.119234 -1.3947099 65280
-0.32247299 0.119234 -1.3947099 65280
-0.319763 0.119234 -1.3947099 65280
-0.31705299 0.119234 -1.3947099 65280
-0.31434301 0.119234 -1.3947099 65280
-0.31163299 0.119234 -1.3947099 65280
-0.30892301 0.119234 -1.3947099 65280
-0.30621299 0.119234 -1.3947099 65280
-0.30350399 0.119234 -1.3947099 65280
-0.30079401 0.119234 -1.3947099 65280
-0.29808399 0.119234 -1.3947099 65280
-0.29537401 0.119234 -1.3947099 65280
-0.29266399 0.119234 -1.3947099 65280
-0.28995401 0.119234 -1.3947099 65280
-0.28724399 0.119234 -1.3947099 65280
-0.28453499 0.119234 -1.3947099 65280
-0.28182501 0.119234 -1.3947099 65280
-0.27911499 0.119234 -1.3947099 65280
-0.27640501 0.119234 -1.3947099 65280
-0.27369499 0.119234 -1.3947099 65280
-0.27098501 0.119234 -1.3947099 65280
-0.26827601 0.119234 -1.3947099 65280
-0.26556599 0.119234 -1.3947099 65280
-0.26285601 0.119234 -1.3947099 65280
-0.26014599 0.119234 -1.3947099 65280
-0.25743601 0.119234 -1.3947099 65280
-0.25472599 0.119234 -1.3947099 65280
-0.25201601 0.119234 -1.3947099 65280
-0.24930701 0.119234 -1.3947099 65280
-0.24659701 0.119234 -1.3947099 65280
-0.24388701 0.119234 -1.3947099 65280
-0.24117699 0.119234 -1.3947099 65280
-0.23846699 0.119234 -1.3947099 65280
-0.23575699 0.119234 -1.3947099 65280
-0.23304699 0.119234 -1.3947099 65280
-0.23033801 0.119234 -1.3947099 65280
-0.22762799 0.119234 -1.3947099 65280
-0.22491799 0.119234 -1.3947099 65280
-0.22220799 0.119234 -1.3947099 65280
-0.21949799 0.119234 -1.3947099 65280
-0.21678799 0.119234 -1.3947099 65280
-0.21407799 0.119234 -1.3947099 65280
-0.21136899 0.119234 -1.3947099 65280
-0.20865899 0.119234 -1.3947099 65280
-0.20594899 0.119234 -1.3947099 65280
-0.20323899 0.119234 -1.3947099 65280
-0.20052899 0.119234 -1.3947099 65280
-0.19781899 0.119234 -1.3947099 65280
-0.19510899 0.119234 -1.3947099 65280
-0.19239999 0.119234 -1.3947099 65280
-0.18968999 0.119234 -1.3947099 65280
-0.18697999 0.119234 -1.3947099 65280
-0.18426999 0.119234 -1.3947099 65280
-0.18155999 0.119234 -1.3947099 65280
-0.17885 0.119234 -1.3947099 65280
-0.17614 0.119234 -1.3947099 65280
-0.17343099 0.119234 -1.3947099 65280
-0.17072099 0.119234 -1.3947099 65280
-0.16801099 0.119234 -1.3947099 65280
-0.165301 0.119234 -1.3947099 65280
-0.162591 0.119234 -1.3947099 65280
-0.159881 0.119234 -1.3947099 65280
-0.15717199 0.119234 -1.3947099 65280
-0.15446199 0.119234 -1.3947099 65280
-0.151752 0.119234 -1.3947099 65280
-0.149042 0.119234 -1.3947099 65280
-0.146332 0.119234 -1.3947099 65280
-0.143622 0.119234 -1.3947099 65280
-0.140912 0.119234 -1.3947099 65280
-0.138203 0.119234 -1.3947099 65280
-0.135493 0.119234 -1.3947099 65280
-0.132783 0.119234 -1.3947099 65280
-0.130073 0.119234 -1.3947099 65280
-0.127363 0.119234 -1.3947099 65280
-0.124653 0.119234 -1.3947099 65280
-0.121943 0.119234 -1.3947099 65280
-0.119234 0.119234 -1.3947099 65280
-0.116524 0.119234 -1.3947099 65280
-0.113814 0.119234 -1.3947099 65280
-0.111104 0.119234 -1.3947099 65280
-0.108394 0.119234 -1.3947099 65280
-0.105684 0.119234 -1.3947099 65280
-0.102974 0.119234 -1.3947099 65280
-0.100265 0.119234 -1.3947099 65280
-0.097554699 0.119234 -1.3947099 65280
-0.0948449 0.119234 -1.3947099 65280
-0.092134997 0.119234 -1.3947099 65280
-0.089425199 0.119234 -1.3947099 65280
-0.086715303 0.119234 -1.3947099 65280
-0.084005497 0.119234 -1.3947099 65280
-0.081295602 0.119234 -1.3947099 65280
-0.078585804 0.119234 -1.3947099 65280
-0.075875901 0.119234 -1.3947099 65280
-0.073166102 0.119234 -1.3947099 65280
-0.070456199 0.119234 -1.3947099 65280
-0.067746297 0.119234 -1.3947099 65280
-0.065036498 0.119234 -1.3947099 65280
-0.062326599 0.119234 -1.3947099 65280
-0.0596168 0.119234 -1.3947099 65280
-0.056906901 0.119234 -1.3947099 65280
-0.054197099 0.119234 -1.3947099 65280
-0.0514872 0.119234 -1.3947099 65280
-0.048777401 0.119234 -1.3947099 65280
-0.046067499 0.119234 -1.3947099 65280
-0.0433577 0.119234 -1.3947099 65280
-0.040647801 0.119234 -1.3947099 65280
-0.037937999 0.119234 -1.3947099 65280
-0.0352281 0.119234 -1.3947099 65280
-0.032518201 0.119234 -1.3947099 65280
-0.0298084 0.119234 -1.3947099 65280
-0.027098499 0.119234 -1.3947099 65280
-0.024388701 0.119234 -1.3947099 65280
-0.0216788 0.119234 -1.3947099 65280
-0.018968999 0.119234 -1.3947099 65280
-0.0162591 0.119234 -1.3947099 65280
-0.0135493 0.119234 -1.3947099 65280
-0.0108394 0.119234 -1.3947099 65280
-0.0081295604 0.119234 -1.3947099 65280
-0.0054197102 0.119234 -1.3947099 65280
-0.00270985 0.119234 -1.3947099 65280
0 0.119234 -1.3947099 65280
0.00270985 0.119234 -1.3947099 65280
0.0054197102 0.119234 -1.3947099 65280
0.0081295604 0.119234 -1.3947099 65280
0.0108394 0.119234 -1.3947099 65280
0.0135493 0.119234 -1.3947099 65280
0.0162591 0.119234 -1.3947099 65280
0.018968999 0.119234 -1.3947099 65280
0.0216788 0.119234 -1.3947099 65280
0.024388701 0.119234 -1.3947099 65280
0.027098499 0.119234 -1.3947099 65280
0.0298084 0.119234 -1.3947099 65280
0.032518201 0.119234 -1.3947099 65280
0.0352281 0.119234 -1.3947099 65280
0.037937999 0.119234 -1.3947099 65280
0.040647801 0.119234 -1.3947099 65280
0.0433577 0.119234 -1.3947099 65280
0.046067499 0.119234 -1.3947099 65280
0.048777401 0.119234 -1.3947099 65280
0.0514872 0.119234 -1.3947099 65280
0.054197099 0.119234 -1.3947099 65280
0.056906901 0.119234 -1.3947099 65280
0.0596168 0.119234 -1.3947099 65280
0.062326599 0.119234 -1.3947099 65280
0.065036498 0.119234 -1.3947099 65280
0.067746297 0.119234 -1.3947099 65280
0.070456199 0.119234 -1.3947099 65280
0.073166102 0.119234 -1.3947099 65280
0.075875901 0.119234 -1.3947099 65280
0.078585804 0.119234 -1.3947099 65280
0.081295602 0.119234 -1.3947099 65280
0.084005497 0.119234 -1.3947099 65280
0.086715303 0.119234 -1.3947099 65280
0.089425199 0.119234 -1.3947099 65280
0.092134997 0.119234 -1.3947099 65280
0.0948449 0.119234 -1.3947099 65280
0.097554699 0.119234 -1.3947099 65280
0.100265 0.119234 -1.3947099 65280
0.102974 0.119234 -1.3947099 65280
0.105684 0.119234 -1.3947099 65280
0.108394 0.119234 -1.3947099 65280
0.111104 0.119234 -1.3947099 65280
0.113814 0.119234 -1.3947099 65280
0.116524 0.119234 -1.3947099 65280
0.119234 0.119234 -1.3947099 65280
0.121943 0.119234 -1.3947099 65280
0.124653 0.119234 -1.3947099 65280
0.127363 0.119234 -1.3947099 65280
0.130073 0.119234 -1.3947099 65280
0.132783 0.119234 -1.3947099 65280
0.135493 0.119234 -1.3947099 65280
0.138203 0.119234 -1.3947099 65280
0.140912 0.119234 -1.3947099 65280
0.143622 0.119234 -1.3947099 65280
0.146332 0.119234 -1.3947099 65280
0.149042 0.119234 -1.3947099 65280
0.151752 0.119234 -1.3947099 65280
0.15446199 0.119234 -1.3947099 65280
0.15717199 0.119234 -1.3947099 65280
0.159881 0.119234 -1.3947099 65280
0.162591 0.119234 -1.3947099 65280
0.165301 0.119234 -1.3947099 65280
0.16801099 0.119234 -1.3947099 65280
0.17072099 0.119234 -1.3947099 65280
0.17343099 0.119234 -1.3947099 65280
0.17614 0.119234 -1.3947099 65280
0.17885 0.119234 -1.3947099 65280
0.18155999 0.119234 -1.3947099 65280
0.18426999 0.119234 -1.3947099 65280
0.18697999 0.119234 -1.3947099 65280
0.18968999 0.119234 -1.3947099 65280
0.19239999 0.119234 -1.3947099 65280
0.19510899 0.119234 -1.3947099 65280
0.19781899 0.119234 -1.3947099 65280
0.20052899 0.119234 -1.3947099 65280
0.20323899 0.119234 -1.3947099 65280
0.20594899 0.119234 -1.3947099 65280
0.20865899 0.119234 -1.3947099 65280
0.21136899 0.119234 -1.3947099 65280
0.21407799 0.119234 -1.3947099 65280
0.21678799 0.119234 -1.3947099 65280
0.21949799 0.119234 -1.3947099 65280
0.22220799 0.119234 -1.3947099 65280
0.22491799 0.119234 -1.3947099 65280
0.22762799 0.119234 -1.3947099 65280
0.23033801 0.119234 -1.3947099 65280
0.23304699 0.119234 -1.3947099 65280
0.23575699 0.119234 -1.3947099 65280
0.23846699 0.119234 -1.3947099 65280
0.24117699 0.119234 -1.3947099 65280
0.24388701 0.119234 -1.3947099 65280
0.24659701 0.119234 -1.3947099 65280
0.24930701 0.119234 -1.3947099 65280
0.25201601 0.119234 -1.3947099 65280
0.25472599 0.119234 -1.3947099 65280
0.25743601 0.119234 -1.3947099 65280
0.26014599 0.119234 -1.3947099 65280
0.26285601 0.119234 -1.3947099 65280
0.26556599 0.119234 -1.3947099 65280
0.26827601 0.119234 -1.3947099 65280
0.27098501 0.119234 -1.3947099 65280
0.27369499 0.119234 -1.3947099 65280
0.27640501 0.119234 -1.3947099 65280
0.27911499 0.119234 -1.3947099 65280
0.28182501 0.119234 -1.3947099 65280
0.28453499 0.119234 -1.3947099 65280
0.28724399 0.119234 -1.3947099 65280
0.28995401 0.119234 -1.3947099 65280
0.29266399 0.119234 -1.3947099 65280
0.29537401 0.119234 -1.3947099 65280
0.29808399 0.119234 -1.3947099 65280
0.30079401 0.119234 -1.3947099 65280
0.30350399 0.119234 -1.3947099 65280
0.30621299 0.119234 -1.3947099 65280
0.30892301 0.119234 -1.3947099 65280
