# .PCD v0.7 - Point Cloud Data file format
VERSION 0.7
FIELDS x y z rgb
SIZE 4 4 4 4
TYPE F F F U
COUNT 1 1 1 1
WIDTH 1120
HEIGHT 1
VIEWPOINT 0 0 0 1 0 0 0
POINTS 1120
DATA ascii
0.15325595 0.002689396 -1.3720994 16711680
0.13036843 -0.030995578 -1.4103146 16711680
0.13103729 -0.030838788 -1.4064821 16711680
0.13225858 -0.030490454 -1.4026468 16711680
0.14950837 0.0015289653 -1.3710448 16711680
0.15063772 0.0054193316 -1.3707206 16711680
0.15126568 0.0092211151 -1.3705841 16711680
0.12666298 -0.029506143 -1.4110543 16711680
0.12669136 -0.029812898 -1.4080794 16711680
0.14761211 0.0090288371 -1.3697917 16711680
0.14883657 0.01163459 -1.3704507 16711680
0.12275495 -0.027173303 -1.4125847 16711680
0.1231049 -0.027975023 -1.4090642 16711680
0.14452608 0.011809781 -1.3698446 16711680
0.14557256 0.01504855 -1.3708508 16711680
0.11915338 -0.024454527 -1.4147174 16711680
0.14255118 0.018906455 -1.3718095 16711680
0.11557628 -0.021422192 -1.4164267 16711680
0.13937713 0.022530694 -1.3730386 16711680
0.11222433 -0.018065028 -1.4180975 16711680
0.13598487 0.025986845 -1.3746264 16711680
0.10908465 -0.014359146 -1.4194204 16711680
0.13253103 0.029106174 -1.3765757 16711680
0.10640778 -0.010481965 -1.4206419 16711680
0.10520394 -0.0089612976 -1.4178472 16711680
0.12626733 0.030174267 -1.379245 16711680
0.12926656 0.031963184 -1.3788975 16711680
0.10421056 -0.0065796822 -1.4223266 16711680
0.10324096 -0.0048034638 -1.4189328 16711680
0.10249953 -0.0016836934 -1.4164695 16711680
0.12018262 0.031093977 -1.3840963 16711680
0.12340504 0.032541346 -1.3820595 16711680
0.12653735 0.034833848 -1.3814633 16711680
0.10241337 -0.0031548142 -1.4237174 16711680
0.10129471 -0.00084620155 -1.4209795 16711680
0.10090134 0.0013207849 -1.4175704 16711680
0.11807816 0.033177447 -1.3861253 16711680
0.12100991 0.035780706 -1.3849219 16711680
0.12417571 0.037303038 -1.3838208 16711680
0.098869875 0.0032333573 -1.4228345 16711680
0.098433763 0.0050936276 -1.4189765 16711680
0.1151222 0.036089577 -1.3884706 16711680
0.11814009 0.038930573 -1.3875655 16711680
0.096219636 0.0073542185 -1.4242151 16711680
0.095659293 0.0088380948 -1.4208353 16711680
0.11202884 0.039397836 -1.3907001 16711680
0.11482499 0.041893065 -1.3901237 16711680
0.094298705 0.010430525 -1.4254582 16711680
0.092935488 0.012753295 -1.4224159 16711680
0.1090087 0.042517059 -1.3930075 16711680
0.11220698 0.044314656 -1.3922518 16711680
0.090557083 0.016855132 -1.423354 16711680
0.088918626 0.017904535 -1.4212339 16711680
0.10298856 0.043991875 -1.3954453 16711680
0.10572995 0.044939797 -1.3955947 16711680
0.089122124 0.020229964 -1.4247671 16711680
0.087184191 0.022028111 -1.4230332 16711680
0.10059477 0.046858456 -1.3984606 16711680
0.10370455 0.047266107 -1.3980734 16711680
0.085141838 0.026536724 -1.4233218 16711680
0.083138332 0.028539956 -1.4214633 16711680
0.093943834 0.048455864 -1.4023174 16711680
0.09711279 0.048676144 -1.4015328 16711680
0.084442705 0.029789228 -1.4240221 16711680
0.083028853 0.032660242 -1.422248 16711680
0.082918465 0.036423139 -1.4212161 16711680
0.089693427 0.049016505 -1.4087553 16711680
0.092082322 0.049431659 -1.4056791 16711680
0.095308281 0.04995621 -1.4040992 16711680
0.082917422 0.038473435 -1.4196678 16711680
0.0840289 0.042113446 -1.4169413 16711680
0.085815184 0.045430962 -1.4136666 16711680
0.088084549 0.047959302 -1.4103481 16711680
0.13867031 -0.029061288 -1.3941838 16711680
0.13974507 -0.027677521 -1.3910483 16711680
0.14118098 -0.025477216 -1.3870782 16711680
0.14300936 -0.022754893 -1.3834304 16711680
0.1447926 -0.019437991 -1.3801545 16711680
0.14643279 -0.015681367 -1.3774076 16711680
0.14824173 -0.01177156 -1.3753438 16711680
0.14966217 -0.0087258331 -1.3741283 16711680
0.13326617 -0.029895119 -1.3988551 16711680
0.13472825 -0.028962445 -1.3949981 16711680
0.13648885 -0.027631346 -1.3909981 16711680
0.13784592 -0.025706228 -1.3869843 16711680
0.14404431 -0.014223747 -1.3756541 16711680
0.14581478 -0.010296639 -1.3738934 16711680
0.1470499 -0.0061307903 -1.3724722 16711680
0.14850686 -0.0022869296 -1.3716091 16711680
0.12868732 -0.029903144 -1.4035906 16711680
0.12966087 -0.029227763 -1.3998569 16711680
0.13059787 -0.028377932 -1.3957766 16711680
0.14403221 -0.0034222044 -1.3711458 16711680
0.14568475 0.00048671663 -1.3705386 16711680
0.14695358 0.0044265911 -1.3699436 16711680
0.12472197 -0.028669875 -1.4048208 16711680
0.12524445 -0.027836204 -1.400835 16711680
0.14220192 0.0035787448 -1.3698167 16711680
0.14402081 0.007191625 -1.3693961 16711680
0.12115293 -0.026686918 -1.4097539 16711680
0.12078754 -0.026516214 -1.4063611 16711680
0.12187545 -0.026442438 -1.4021986 16711680
0.13968621 0.0065294234 -1.3696345 16711680
0.1407128 0.010676917 -1.3696483 16711680
0.14276293 0.013440464 -1.3701336 16711680
0.11766528 -0.024050593 -1.4111918 16711680
0.11691304 -0.023668248 -1.4079126 16711680
0.13731363 0.014200742 -1.3705171 16711680
0.13959219 0.016691614 -1.371004 16711680
0.11407705 -0.020907603 -1.4125007 16711680
0.11337834 -0.020441759 -1.4094747 16711680
0.13390578 0.017641779 -1.3718909 16711680
0.13607198 0.019888904 -1.3722342 16711680
0.11100937 -0.017587405 -1.4143552 16711680
0.11010394 -0.016612176 -1.4108877 16711680
0.130393 0.020908087 -1.3738604 16711680
0.13310222 0.023217916 -1.3738905 16711680
0.10842206 -0.014265526 -1.4156826 16711680
0.10753265 -0.012779186 -1.4125675 16711680
0.10700078 -0.010437679 -1.4093968 16711680
0.12437288 0.021754298 -1.3775884 16711680
0.12731811 0.023947939 -1.3762571 16711680
0.13036183 0.026121793 -1.3757566 16711680
0.10671188 -0.011734487 -1.416828 16711680
0.10538313 -0.0088611096 -1.414589 16711680
0.10503615 -0.0065334253 -1.410684 16711680
0.12166015 0.024281505 -1.3802543 16711680
0.12486181 0.027257569 -1.3789364 16711680
0.12827949 0.028268984 -1.3773806 16711680
0.10372323 -0.0049934816 -1.4158124 16711680
0.10295384 -0.002389566 -1.4125516 16711680
0.10188969 -0.00033025816 -1.4095905 16711680
0.11583272 0.025445528 -1.3839965 16711680
0.11903021 0.027438737 -1.3831661 16711680
0.12237994 0.02974043 -1.3817366 16711680
0.10067634 0.0016716849 -1.4141716 16711680
0.099794745 0.00312737 -1.4107971 16711680
0.11320317 0.028011376 -1.3862365 16711680
0.1162602 0.030391242 -1.3858088 16711680
0.098035961 0.0055258381 -1.4157602 16711680
0.097100854 0.0067692818 -1.4124043 16711680
0.11015712 0.031113628 -1.3883883 16711680
0.11293678 0.033391524 -1.388217 16711680
0.094922908 0.0093636941 -1.4173106 16711680
0.093950078 0.010228097 -1.4140683 16711680
0.1070326 0.034476846 -1.390133 16711680
0.10968338 0.036727365 -1.3902863 16711680
0.092046924 0.012934946 -1.4187363 16711680
0.090778008 0.013692616 -1.4159652 16711680
0.10397603 0.038063914 -1.3919249 16711680
0.10635544 0.040058538 -1.3924184 16711680
0.087872677 0.017365031 -1.4175493 16711680
0.10072584 0.041261043 -1.3940071 16711680
0.08503294 0.021572607 -1.418331 16711680
0.082688168 0.023580937 -1.4163228 16711680
0.093335748 0.043383803 -1.3968167 16711680
0.097128749 0.043815229 -1.396443 16711680
0.083368376 0.025198124 -1.4193367 16711680
0.081785269 0.027028359 -1.4182057 16711680
0.091929682 0.045830294 -1.3996301 16711680
0.094558254 0.045824036 -1.3988967 16711680
0.08040037 0.031451881 -1.4185009 16711680
0.07923305 0.034461617 -1.4169885 16711680
0.085904717 0.046852086 -1.4047326 16711680
0.08888761 0.047267996 -1.4028991 16711680
0.07969369 0.037021026 -1.4163573 16711680
0.080580801 0.040675361 -1.4136138 16711680
0.082378015 0.044004504 -1.4103327 16711680
0.084739566 0.046388771 -1.4070998 16711680
0.13889423 -0.024218991 -1.3845671 16711680
0.13999292 -0.022045374 -1.3817067 16711680
0.14142695 -0.019399039 -1.3790985 16711680
0.14283173 -0.016883515 -1.3772451 16711680
0.13194735 -0.027693197 -1.392688 16711680
0.13325465 -0.02643922 -1.3890526 16711680
0.1349362 -0.02444192 -1.3848511 16711680
0.13692431 -0.021930508 -1.381081 16711680
0.13878134 -0.018482909 -1.3776808 16711680
0.14044774 -0.01445334 -1.3750619 16711680
0.14195554 -0.01032595 -1.3731526 16711680
0.14328627 -0.0067434795 -1.3719686 16711680
0.1271912 -0.027648136 -1.3972729 16711680
0.12834755 -0.026834693 -1.3933899 16711680
0.12947053 -0.025755782 -1.3891699 16711680
0.13105033 -0.024476964 -1.3853461 16711680
0.1376202 -0.012248956 -1.3732883 16711680
0.13884127 -0.0082656443 -1.3719575 16711680
0.14066015 -0.0042112842 -1.3711021 16711680
0.14191754 -0.00080651604 -1.3704529 16711680
0.12383471 -0.02628338 -1.3985243 16711680
0.12421209 -0.025249582 -1.3942994 16711680
0.12558247 -0.025046125 -1.3905212 16711680
0.13636863 -0.0052781403 -1.3709681 16711680
0.13717291 -0.001211321 -1.370657 16711680
0.1393304 0.0024006572 -1.3701811 16711680
0.11933947 -0.025055505 -1.4034536 16711680
0.11995735 -0.024064641 -1.3998084 16711680
0.11990274 -0.022857472 -1.3958892 16711680
0.13352048 0.0024293177 -1.3709532 16711680
0.13604483 0.0057064868 -1.3704594 16711680
0.13768484 0.0090302359 -1.3698331 16711680
0.11598483 -0.022433098 -1.4048097 16711680
0.11614354 -0.021008033 -1.4008762 16711680
0.115839 -0.019855551 -1.3977681 16711680
0.12994055 0.0064004278 -1.3719354 16711680
0.13219193 0.0087649822 -1.3714931 16711680
0.13466135 0.011958621 -1.370706 16711680
0.1128656 -0.019439295 -1.4064273 16711680
0.11270308 -0.017625727 -1.4024216 16711680
0.11242591 -0.01652053 -1.3993891 16711680
0.12655614 0.0098009212 -1.3734709 16711680
0.12875868 0.012132924 -1.3730383 16711680
0.1316348 0.015247268 -1.3720783 16711680
0.11011836 -0.015993126 -1.407793 16711680
0.10979584 -0.01412065 -1.4045002 16711680
0.10915916 -0.012387354 -1.4010975 16711680
0.1230213 0.013290689 -1.3757488 16711680
0.12588824 0.015731206 -1.3750226 16711680
0.12858897 0.018208396 -1.3739887 16711680
0.10853578 -0.013361914 -1.4085594 16711680
0.10730435 -0.010304499 -1.4063514 16711680
0.1065798 -0.0083940309 -1.4025075 16711680
0.11985932 0.016209725 -1.3782135 16711680
0.12312751 0.018962169 -1.3774074 16711680
0.12648498 0.020039391 -1.3756853 16711680
0.10508566 -0.0063109547 -1.4076445 16711680
0.10426772 -0.004371509 -1.4041668 16711680
0.10315335 -0.001960462 -1.4014035 16711680
0.11374603 0.017619725 -1.3820425 16711680
0.11696127 0.019247271 -1.3808969 16711680
0.12017596 0.021490492 -1.3799844 16711680
0.10347659 -0.0032617599 -1.4085801 16711680
0.10211376 -0.0004438404 -1.4059905 16711680
0.10135622 0.0015579583 -1.4025217 16711680
0.11115032 0.019832177 -1.3844801 16711680
0.11442278 0.022366144 -1.3835402 16711680
0.11790206 0.023586605 -1.3821135 16711680
0.099633336 0.0037420392 -1.4076399 16711680
0.099134572 0.0055425097 -1.4037386 16711680
0.098518863 0.0077762227 -1.4011457 16711680
0.10555492 0.020783272 -1.3883218 16711680
0.10825989 0.022542501 -1.3870612 16711680
0.11139302 0.025356917 -1.3861971 16711680
0.096633263 0.0077647474 -1.4091094 16711680
0.096296459 0.0093115531 -1.4054385 16711680
0.096292622 0.010895188 -1.4020662 16711680
0.10282805 0.022945013 -1.3901247 16711680
0.10521002 0.025714863 -1.3892025 16711680
0.10785788 0.028593652 -1.3885573 16711680
0.093269378 0.011162168 -1.4107224 16711680
0.092908926 0.012511653 -1.4070512 16711680
0.093179166 0.013809128 -1.4035959 16711680
0.099836022 0.026115265 -1.3914278 16711680
0.10182519 0.029092092 -1.3906659 16711680
0.10451282 0.031983003 -1.390156 16711680
0.089776829 0.014354352 -1.4123034 16711680
0.089200921 0.015339818 -1.4087118 16711680
0.090757877 0.015446938 -1.4049013 16711680
0.097885005 0.028580673 -1.3918984 16711680
0.098540068 0.03267432 -1.3916105 16711680
0.10114199 0.035413042 -1.3915224 16711680
0.086425304 0.017683808 -1.4135679 16711680
0.085489631 0.018267814 -1.4105065 16711680
0.095232338 0.036353365 -1.3926733 16711680
0.097653069 0.038479093 -1.3930211 16711680
0.084056169 0.020802364 -1.4149879 16711680
0.082304463 0.021898715 -1.4127718 16711680
0.092271104 0.040229388 -1.39463 16711680
0.095074236 0.041228533 -1.3948309 16711680
0.079844974 0.026081983 -1.4140179 16711680
0.088988006 0.042913049 -1.3972228 16711680
0.077925667 0.030019434 -1.4142776 16711680
0.076594248 0.032738432 -1.4133167 16711680
0.083084315 0.044667497 -1.4013854 16711680
0.08577466 0.044591997 -1.3998753 16711680
0.076624341 0.035752006 -1.4126112 16711680
0.077395037 0.03920912 -1.4101167 16711680
0.079065889 0.042308711 -1.4070547 16711680
0.081305593 0.044438358 -1.4040366 16711680
0.13207 -0.023225173 -1.3828129 16711680
0.13341038 -0.021012902 -1.3795109 16711680
0.13496248 -0.018031131 -1.3765653 16711680
0.13647248 -0.0151297 -1.3746823 16711680
0.12678862 -0.024391361 -1.3867546 16711680
0.12841898 -0.023164842 -1.3829619 16711680
0.13021034 -0.020816214 -1.3788942 16711680
0.13226505 -0.017115748 -1.3752363 16711680
0.13398089 -0.012870837 -1.3728528 16711680
0.13504067 -0.0089357197 -1.3715389 16711680
0.12237872 -0.023850486 -1.3914939 16711680
0.12299081 -0.023806777 -1.3879979 16711680
0.12420925 -0.023373477 -1.3838115 16711680
0.13125679 -0.010223946 -1.3708208 16711680
0.1325165 -0.0060580429 -1.3704549 16711680
0.13371925 -0.0027566142 -1.3706344 16711680
0.11850603 -0.021965027 -1.3925198 16711680
0.11909986 -0.022710115 -1.3892243 16711680
0.12968941 -0.0029562488 -1.3697675 16711680
0.1304588 0.00034409389 -1.370616 16711680
0.11487416 -0.01928594 -1.3947957 16711680
0.12758756 0.004269802 -1.371546 16711680
0.11151206 -0.015869234 -1.3963298 16711680
0.12415699 0.0076226788 -1.3731667 16711680
0.10871734 -0.012090683 -1.3974229 16711680
0.10679727 -0.010154739 -1.3948504 16711680
0.11734095 0.009270885 -1.3757242 16711680
0.12083707 0.010332171 -1.375289 16711680
0.1063927 -0.008028131 -1.3990891 16711680
0.1053148 -0.0066764094 -1.3961735 16711680
0.11504298 0.01147915 -1.3782507 16711680
0.11804203 0.01336322 -1.3779213 16711680
0.10460447 -0.0047691241 -1.4004143 16711680
0.10340746 -0.0023126379 -1.3976952 16711680
0.10245311 0.00032912567 -1.394376 16711680
0.10876918 0.011986754 -1.3827089 16711680
0.11233043 0.014250331 -1.3813648 16711680
0.115669 0.015757389 -1.3801621 16711680
0.10161049 0.0017710011 -1.3993119 16711680
0.10124464 0.004093824 -1.3955804 16711680
0.10134763 0.0075577563 -1.3920882 16711680
0.10347664 0.011490509 -1.3881967 16711680
0.10668656 0.014175817 -1.3856273 16711680
0.10986908 0.016988251 -1.3842595 16711680
0.099808976 0.0054302854 -1.4006084 16711680
0.09935002 0.007952448 -1.3981465 16711680
0.10006496 0.010786408 -1.3940558 16711680
0.10186299 0.014237428 -1.3907418 16711680
0.10465223 0.01787232 -1.3884746 16711680
0.10734854 0.019422874 -1.3868246 16711680
0.096615694 0.012145688 -1.3997731 16711680
0.097638614 0.014557609 -1.3961642 16711680
0.099292099 0.017630259 -1.3931361 16711680
0.10137288 0.020972293 -1.3910618 16711680
0.092961945 0.01545666 -1.4016207 16711680
0.093906023 0.018145604 -1.3979435 16711680
0.095644489 0.021361206 -1.3947654 16711680
0.097950473 0.024710428 -1.392487 16711680
0.087924689 0.017166551 -1.4061416 16711680
0.088926032 0.018153433 -1.4030021 16711680
0.089966461 0.020922665 -1.3990105 16711680
0.091906056 0.024490546 -1.3954798 16711680
0.094328746 0.028197808 -1.3931196 16711680
0.095778078 0.031144923 -1.3921895 16711680
0.084610067 0.019212194 -1.407439 16711680
0.084601775 0.020801557 -1.4034961 16711680
0.086215317 0.023297418 -1.399236 16711680
0.088125736 0.026789505 -1.3957905 16711680
0.090079404 0.030950632 -1.3934797 16711680
0.0926909 0.034192275 -1.3926501 16711680
0.08055038 0.022198811 -1.4082831 16711680
0.08071214 0.02228925 -1.4049008 16711680
0.087141737 0.034203753 -1.3931444 16711680
0.088688746 0.037226263 -1.393456 16711680
0.077679202 0.025637671 -1.4096019 16711680
0.076106839 0.026279602 -1.4076707 16711680
0.083112158 0.039301537 -1.3948723 16711680
0.085485116 0.040134043 -1.3953001 16711680
0.076285958 0.028713379 -1.4108157 16711680
0.074414745 0.030940276 -1.4092439 16711680
0.080379553 0.042001076 -1.3983361 16711680
0.083644047 0.042161174 -1.3974174 16711680
0.073966496 0.034429062 -1.4090005 16711680
0.074086547 0.036971945 -1.406693 16711680
0.076059692 0.040631779 -1.4030775 16711680
0.078212298 0.042377524 -1.401173 16711680
0.12502047 -0.022181172 -1.3805807 16711680
0.12636529 -0.020083796 -1.3769882 16711680
0.12808207 -0.016833749 -1.3737645 16711680
0.12982291 -0.013292495 -1.3718112 16711680
0.12000136 -0.023248289 -1.3845235 16711680
0.1220853 -0.02258338 -1.3807955 16711680
0.1234314 -0.020523828 -1.3764297 16711680
0.12588605 -0.015978582 -1.3719414 16711680
0.12790763 -0.011762977 -1.3701032 16711680
0.12846455 -0.0075990297 -1.3690854 16711680
0.1149333 -0.021751463 -1.3888266 16711680
0.11655945 -0.022770833 -1.3867178 16711680
0.12668355 -0.0039732307 -1.3681701 16711680
0.12610881 -0.00145075 -1.368566 16711680
0.11215063 -0.020069242 -1.3900596 16711680
0.12367149 0.0012908811 -1.3688569 16711680
0.10882262 -0.01642723 -1.3916578 16711680
0.1202081 0.0047579892 -1.370751 16711680
0.10732961 -0.013445925 -1.3926214 16711680
0.10578348 -0.011531465 -1.3919796 16711680
0.11580196 0.0070444415 -1.3736354 16711680
0.11816797 0.0066065909 -1.3727121 16711680
0.10412404 -0.0069610029 -1.3920859 16711680
0.10270462 -0.0044032671 -1.3901725 16711680
0.10932121 0.0077287038 -1.3780534 16711680
0.11243415 0.0084733032 -1.376868 16711680
0.1033932 -0.0030140225 -1.3936557 16711680
0.10237166 -0.00067246892 -1.3908933 16711680
0.1020195 0.003019684 -1.387647 16711680
0.1040384 0.0067669097 -1.3839841 16711680
0.1075808 0.0089941546 -1.3813516 16711680
0.11094145 0.010475863 -1.3798954 16711680
0.10185457 0.0033363141 -1.3921916 16711680
0.10206241 0.0058875629 -1.3896292 16711680
0.10367406 0.0089077922 -1.3867441 16711680
0.10589603 0.01082065 -1.3847865 16711680
0.082453914 0.0228545 -1.4016669 16711680
0.083854079 0.024791542 -1.3987901 16711680
0.085417286 0.027675387 -1.3959407 16711680
0.086624019 0.030612297 -1.3940096 16711680
0.078609288 0.023605578 -1.4023848 16711680
0.080418929 0.025570575 -1.3983527 16711680
0.082244143 0.029027168 -1.3949387 16711680
0.083764769 0.033074249 -1.3929733 16711680
0.074886017 0.025701106 -1.4041848 16711680
0.08079078 0.036761854 -1.3932822 16711680
0.072259486 0.030020647 -1.4050483 16711680
0.070562094 0.032647319 -1.4028771 16711680
0.073497593 0.038316935 -1.3971583 16711680
0.077155083 0.039257251 -1.3959647 16711680
0.071874931 0.03344702 -1.4057363 16711680
0.071661696 0.035322662 -1.4030441 16711680
0.07333003 0.038417842 -1.3999898 16711680
0.075655244 0.040436666 -1.3988088 16711680
0.12418948 -0.018836468 -1.374028 16711680
0.12467731 -0.018009953 -1.373287 16711680
0.11602962 -0.024386451 -1.3807727 16711680
0.11903265 -0.023056626 -1.3775831 16711680
0.12145555 -0.020700056 -1.3741312 16711680
0.12343506 -0.017041385 -1.3705254 16711680
0.12436513 -0.013176316 -1.3678153 16711680
0.12426002 -0.0091047622 -1.3656716 16711680
0.11110158 -0.024140295 -1.3848202 16711680
0.11379732 -0.024175745 -1.3835611 16711680
0.12383942 -0.0056219213 -1.3652362 16711680
0.12229662 -0.0031335615 -1.3640478 16711680
0.10838898 -0.022193417 -1.3871011 16711680
0.1205259 0.00031028409 -1.3648932 16711680
0.10504901 -0.018461227 -1.3886577 16711680
0.11699561 0.0036928812 -1.3667839 16711680
0.10250543 -0.015517414 -1.3886383 16711680
0.10251949 -0.012657864 -1.3890151 16711680
0.11264031 0.0058720522 -1.3707263 16711680
0.11371523 0.0052444632 -1.3682685 16711680
0.10034341 -0.0089964569 -1.3881065 16711680
0.10064702 -0.0054618381 -1.3878672 16711680
0.10716249 0.0066218721 -1.375942 16711680
0.10877515 0.006554747 -1.3727461 16711680
0.097578995 -0.0064174049 -1.3868455 16711680
0.098914042 -0.0027482137 -1.3863561 16711680
0.099572606 0.0014300691 -1.3846114 16711680
0.1016214 0.0051023047 -1.3810656 16711680
0.10396161 0.006450952 -1.377254 16711680
0.10481762 0.0070984685 -1.3734699 16711680
0.09739843 0.0027588736 -1.382651 16711680
0.098395258 0.0045922697 -1.3808359 16711680
0.075644761 0.024702035 -1.3994608 16711680
0.076554008 0.026259376 -1.396506 16711680
0.078194365 0.029319048 -1.3934788 16711680
0.079674214 0.032129288 -1.3921267 16711680
0.072997853 0.025962658 -1.3999996 16711680
0.072970018 0.026712134 -1.3962252 16711680
0.075234033 0.030724667 -1.3922027 16711680
0.077324569 0.034013584 -1.3920299 16711680
0.070775896 0.028875142 -1.4010626 16711680
0.069821291 0.031388968 -1.3986889 16711680
0.071781009 0.03503266 -1.3950876 16711680
0.074843839 0.036439165 -1.3937403 16711680
0.070453078 0.034502156 -1.4002078 16711680
0.071478203 0.036408506 -1.3983275 16711680
0.11465078 -0.028736871 -1.3743466 16711680
0.11694179 -0.026645482 -1.3723106 16711680
0.11936927 -0.023614667 -1.3694671 16711680
0.121077 -0.020442266 -1.3663468 16711680
0.12203749 -0.017212711 -1.363011 16711680
0.12228367 -0.014810141 -1.3603072 16711680
0.11019856 -0.029050138 -1.3792467 16711680
0.11332855 -0.027631398 -1.3777481 16711680
0.11682691 -0.025357969 -1.3750026 16711680
0.11976147 -0.022024624 -1.3720505 16711680
0.12183779 -0.018165205 -1.368255 16711680
0.12262998 -0.014593873 -1.3645029 16711680
0.12238764 -0.010826293 -1.3611646 16711680
0.12143819 -0.0081817396 -1.3586603 16711680
0.10829491 -0.027235627 -1.3823056 16711680
0.11201894 -0.026205659 -1.3813488 16711680
0.12242691 -0.0068331026 -1.362321 16711680
0.12056018 -0.0043323487 -1.3597794 16711680
0.10207026 -0.026070446 -1.3845377 16711680
0.10467108 -0.0249377 -1.38515 16711680
0.11815123 7.4104406e-05 -1.3605126 16711680
0.11627907 0.00090549793 -1.3583273 16711680
0.099574804 -0.023537509 -1.3857503 16711680
0.10133792 -0.021387585 -1.3867972 16711680
0.11475404 0.0034991084 -1.3622384 16711680
0.11394554 0.0032027112 -1.3594098 16711680
0.098311916 -0.017174326 -1.3873495 16711680
0.099303916 -0.013275867 -1.3878741 16711680
0.10989794 0.006351118 -1.3684525 16711680
0.11078067 0.0058972198 -1.3644811 16711680
0.095186681 -0.013790753 -1.3871809 16711680
0.096506707 -0.010504263 -1.387226 16711680
0.10620983 0.0074326242 -1.3695284 16711680
0.10676383 0.0076427022 -1.3660167 16711680
0.092452452 -0.011290861 -1.3867909 16711680
0.093538016 -0.007430613 -1.3864119 16711680
0.095092811 -0.0034076441 -1.3855844 16711680
0.096566692 0.00093940645 -1.3838602 16711680
0.099233635 0.0058134338 -1.3790499 16711680
0.10095854 0.0075069331 -1.3748404 16711680
0.1021328 0.0085066874 -1.3706825 16711680
0.10336138 0.0088972254 -1.366847 16711680
0.090874761 -0.0045769811 -1.3854558 16711680
0.092105307 -0.0011929199 -1.3843067 16711680
0.093682885 0.0026868628 -1.3822421 16711680
0.095455498 0.0059739151 -1.3790035 16711680
0.097157076 0.0080402792 -1.3752283 16711680
0.098336577 0.0092844134 -1.3717782 16711680
0.091296121 0.0053576939 -1.3797919 16711680
0.071627252 0.02838929 -1.3947197 16711680
0.072633833 0.030547259 -1.3927081 16711680
0.070202187 0.030141851 -1.3953488 16711680
0.071091101 0.0317972 -1.3937204 16711680
0.12069064 -0.031323642 -1.3616498 16711680
0.12190086 -0.029114209 -1.3594797 16711680
0.1148395 -0.033832908 -1.3690821 16711680
0.11734103 -0.032294296 -1.3668389 16711680
0.119673 -0.029256906 -1.3641073 16711680
0.12148982 -0.025926866 -1.3607631 16711680
0.1224536 -0.022717103 -1.3574809 16711680
0.12238842 -0.019802772 -1.3552669 16711680
0.10993789 -0.033365514 -1.3741084 16711680
0.11310454 -0.0321857 -1.3724675 16711680
0.11648282 -0.029629998 -1.3699282 16711680
0.11896408 -0.026516873 -1.3669767 16711680
0.12097209 -0.022842158 -1.3632623 16711680
0.12200747 -0.019390464 -1.359816 16711680
0.12189948 -0.015839977 -1.3563067 16711680
0.12088984 -0.013041914 -1.3540746 16711680
0.10822021 -0.031975105 -1.3771536 16711680
0.11174007 -0.030801319 -1.3757254 16711680
0.12181041 -0.012140963 -1.3575857 16711680
0.12039809 -0.0094306916 -1.3549277 16711680
0.10265265 -0.030747201 -1.3808419 16711680
0.1053839 -0.030336209 -1.3804593 16711680
0.11903268 -0.0049605407 -1.3554703 16711680
0.11739855 -0.0034180805 -1.3538761 16711680
0.10023984 -0.028177574 -1.3831017 16711680
0.1033709 -0.027581885 -1.3834071 16711680
0.11763296 -0.0011773184 -1.3572913 16711680
0.11541949 1.4267862e-06 -1.3552569 16711680
0.096900925 -0.02487608 -1.3848212 16711680
0.097656958 -0.021751512 -1.3862544 16711680
0.11188202 0.0047762003 -1.3601472 16711680
0.11217294 0.0034958646 -1.3568408 16711680
0.093603849 -0.021543168 -1.3857169 16711680
0.09484005 -0.019194856 -1.3865526 16711680
0.10884988 0.0065880399 -1.3610244 16711680
0.10855105 0.0062202942 -1.3582622 16711680
0.09067411 -0.019065674 -1.3858863 16711680
0.091515183 -0.015825063 -1.386554 16711680
0.10467137 0.0086139832 -1.362342 16711680
0.10523959 0.0080747325 -1.3591247 16711680
0.088720426 -0.012090296 -1.3860807 16711680
0.089798667 -0.008564882 -1.3860463 16711680
0.099738196 0.0098275412 -1.3679017 16711680
0.10055751 0.0099825496 -1.3643192 16711680
0.08589159 -0.0095235612 -1.3851143 16711680
0.087173857 -0.0057299808 -1.3847375 16711680
0.088113621 -0.0015104469 -1.3835235 16711680
0.0901227 0.0030851141 -1.3813413 16711680
0.092178874 0.0069393562 -1.3775369 16711680
0.093897909 0.0092482371 -1.37293 16711680
0.095840894 0.0102649 -1.3689692 16711680
0.096874431 0.010769028 -1.3650801 16711680
0.086045206 0.00028715096 -1.3819224 16711680
0.087651238 0.0038289987 -1.37988 16711680
0.089337394 0.0069195181 -1.3768418 16711680
0.09081167 0.0090633873 -1.3732699 16711680
0.12052402 -0.039542839 -1.3600943 16711680
0.12319022 -0.03774396 -1.357327 16711680
0.1249211 -0.034514565 -1.3541849 16711680
0.12511535 -0.03101889 -1.3517003 16711680
0.1157059 -0.039140269 -1.3643998 16711680
0.11855422 -0.037531074 -1.3629869 16711680
0.12131814 -0.033897765 -1.3602884 16711680
0.12311597 -0.030574471 -1.3569965 16711680
0.12408414 -0.027364235 -1.3528551 16711680
0.12336157 -0.024930444 -1.3503871 16711680
0.11324503 -0.036849312 -1.3670986 16711680
0.11705281 -0.035059668 -1.365729 16711680
0.11968767 -0.032693073 -1.3631114 16711680
0.12267357 -0.027169373 -1.3576201 16711680
0.12304419 -0.023923919 -1.3547622 16711680
0.12174059 -0.021196686 -1.3515882 16711680
0.10796958 -0.035309076 -1.3717222 16711680
0.11060312 -0.035682753 -1.3699546 16711680
0.12047823 -0.017212413 -1.3516937 16711680
0.11920486 -0.014441684 -1.3510739 16711680
0.10491925 -0.034409977 -1.374433 16711680
0.11790252 -0.010504203 -1.3509264 16711680
0.10029919 -0.033072997 -1.3782396 16711680
0.10252214 -0.033841252 -1.3766531 16711680
0.11676506 -0.0073590074 -1.3505117 16711680
0.11552797 -0.0048360601 -1.3503624 16711680
0.09652552 -0.030668106 -1.3807698 16711680
0.1127567 -0.000573528 -1.3510075 16711680
0.093077287 -0.027500909 -1.3824656 16711680
0.10948691 0.0029403083 -1.3524153 16711680
0.090088941 -0.023749713 -1.3837841 16711680
0.10604899 0.005974655 -1.3544651 16711680
0.087220937 -0.01983574 -1.3844187 16711680
0.087558165 -0.016862057 -1.385488 16711680
0.1017583 0.0094360067 -1.3595003 16711680
0.10232477 0.0083409641 -1.3566036 16711680
0.084462985 -0.017183792 -1.3840126 16711680
0.084718995 -0.01404842 -1.3845649 16711680
0.097891808 0.010318158 -1.3605261 16711680
0.099002182 0.0095514199 -1.3575261 16711680
0.082789645 -0.01046145 -1.3836681 16711680
0.08297272 -0.0068571232 -1.3831491 16711680
0.084472254 -0.0029079691 -1.3827722 16711680
0.091529861 0.010176625 -1.3698685 16711680
0.092519104 0.010764275 -1.3657281 16711680
0.094305575 0.010880794 -1.3626658 16711680
0.081567466 -0.0042316075 -1.3816499 16711680
0.082343549 -0.0007261401 -1.3804182 16711680
0.083105281 0.0036841286 -1.3775015 16711680
0.084889069 0.0070049148 -1.3742187 16711680
0.087789901 0.0093614878 -1.3705494 16711680
0.089465573 0.010427363 -1.3672051 16711680
0.11474863 -0.043562531 -1.3590046 16711680
0.1184923 -0.040608563 -1.3585808 16711680
0.12115368 -0.037925504 -1.3558518 16711680
0.12277876 -0.034853645 -1.3528363 16711680
0.12337913 -0.031524636 -1.3496127 16711680
0.12222782 -0.029718101 -1.3453267 16711680
0.11337183 -0.041843705 -1.3624382 16711680
0.11544864 -0.038942445 -1.3595883 16711680
0.11680302 -0.035655677 -1.3562982 16711680
0.1187159 -0.032113716 -1.3528016 16711680
0.1208175 -0.028982244 -1.3497623 16711680
0.12199707 -0.025852218 -1.3466532 16711680
0.10823208 -0.040365413 -1.3664383 16711680
0.1109042 -0.039614789 -1.3652997 16711680
0.11398005 -0.036976919 -1.3619902 16711680
0.11993361 -0.025962282 -1.3511336 16711680
0.12045054 -0.021923412 -1.3478347 16711680
0.11939117 -0.019675005 -1.3461729 16711680
0.10551903 -0.038425989 -1.3685825 16711680
0.1088317 -0.036842294 -1.3679467 16711680
0.1188302 -0.018296774 -1.3496392 16711680
0.11733466 -0.016284771 -1.3467411 16711680
0.10169114 -0.03601265 -1.3712726 16711680
0.11467694 -0.011816615 -1.3475696 16711680
0.096969366 -0.034430966 -1.3749696 16711680
0.098530822 -0.035144083 -1.3726794 16711680
0.11254048 -0.009257298 -1.346916 16711680
0.11214137 -0.0062604379 -1.3471494 16711680
0.093268767 -0.032241933 -1.3773793 16711680
0.10949743 -0.002126703 -1.3476717 16711680
0.089807399 -0.02921214 -1.379082 16711680
0.1062894 0.0013661049 -1.3489399 16711680
0.086867057 -0.02571664 -1.3805908 16711680
0.10313372 0.0044808444 -1.3508019 16711680
0.083618805 -0.021432891 -1.3814549 16711680
0.099115118 0.0072495649 -1.3530949 16711680
0.081847109 -0.018355947 -1.381721 16711680
0.080766812 -0.015884168 -1.3817518 16711680
0.09446872 0.0095466739 -1.3566798 16711680
0.09642648 0.0087059122 -1.3550053 16711680
0.079306513 -0.011965135 -1.3810757 16711680
0.078670055 -0.0084688179 -1.3803439 16711680
0.088828623 0.010197718 -1.3619443 16711680
0.091203108 0.010105647 -1.3593065 16711680
0.078044802 -0.0057444498 -1.3791672 16711680
0.078216903 -0.0013502017 -1.3773227 16711680
0.079206228 0.0026441645 -1.3750628 16711680
0.081340291 0.0066109821 -1.3711455 16711680
0.083559081 0.0085883252 -1.3674573 16711680
0.086409807 0.0097676385 -1.3638601 16711680
0.078664541 0.0035322588 -1.3734244 16711680
0.079744428 0.0055405386 -1.3714453 16711680
0.11369997 -0.044213966 -1.357628 16711680
0.11466076 -0.043553978 -1.3546379 16711680
0.11601172 -0.040692478 -1.3506256 16711680
0.11786744 -0.037192225 -1.3472735 16711680
0.12006082 -0.033463988 -1.344618 16711680
0.1211054 -0.03047803 -1.3440708 16711680
0.1111851 -0.042978853 -1.3590158 16711680
0.11158025 -0.041784085 -1.3558291 16711680
0.11563322 -0.037745714 -1.3531495 16711680
0.11739053 -0.034502655 -1.3499486 16711680
0.11743253 -0.030729242 -1.3450143 16711680
0.11927971 -0.027920015 -1.344161 16711680
0.10603964 -0.040265076 -1.3648605 16711680
0.10730773 -0.040288471 -1.3611577 16711680
0.10714966 -0.038778916 -1.3571589 16711680
0.1135097 -0.027147897 -1.3456396 16711680
0.11619253 -0.023837872 -1.3449725 16711680
0.11719438 -0.020337291 -1.3449467 16711680
0.10295942 -0.038964044 -1.3658704 16711680
0.10318823 -0.037641276 -1.3619604 16711680
0.10413179 -0.036704496 -1.3585961 16711680
0.11086329 -0.024154998 -1.3462527 16711680
0.11231597 -0.020936489 -1.3454458 16711680
0.114408 -0.017528009 -1.344744 16711680
0.098631516 -0.0367564 -1.3671238 16711680
0.099739775 -0.036599841 -1.3635021 16711680
0.10986426 -0.017823789 -1.3449794 16711680
0.11085723 -0.014186263 -1.3448117 16711680
0.093735486 -0.034859836 -1.3718257 16711680
0.094749443 -0.035556138 -1.3693053 16711680
0.10840005 -0.010277174 -1.3443534 16711680
0.10848407 -0.0074951611 -1.3448315 16711680
0.090463579 -0.033146381 -1.3731682 16711680
0.091010734 -0.03449652 -1.3696764 16711680
0.10519363 -0.0078886356 -1.3435752 16711680
0.10590617 -0.0045995452 -1.3449736 16711680
0.086982772 -0.030148432 -1.3750592 16711680
0.10268401 -0.00087942183 -1.3462263 16711680
0.083604291 -0.026542775 -1.3766667 16711680
0.099376358 0.0025024991 -1.3480058 16711680
0.080707707 -0.022805132 -1.3775878 16711680
0.078232743 -0.021204948 -1.3760694 16711680
0.092646025 0.0054855421 -1.3503476 16711680
0.095778748 0.0051333159 -1.3500271 16711680
0.07942982 -0.019748181 -1.3787044 16711680
0.077709056 -0.017665811 -1.3777986 16711680
0.091221735 0.0073401229 -1.3531137 16711680
0.093903959 0.0070782881 -1.3522536 16711680
0.076292694 -0.013386387 -1.3775849 16711680
0.075197726 -0.0104085 -1.3765289 16711680
0.085221283 0.0082439212 -1.3580405 16711680
0.088076621 0.0083377343 -1.3561239 16711680
0.074968986 -0.0071370322 -1.3758188 16711680
0.074675605 -0.0030032266 -1.3737751 16711680
0.074961707 0.00027838349 -1.371745 16711680
0.077896096 0.0055792797 -1.3666397 16711680
0.080187358 0.0070642252 -1.3639324 16711680
0.083329894 0.0082044136 -1.3607398 16711680
0.075729378 0.0020251824 -1.3708335 16711680
0.077077165 0.0045165885 -1.3683885 16711680
0.11282586 -0.044060364 -1.3514578 16711680
0.11418296 -0.042213954 -1.3476095 16711680
0.11581533 -0.039255723 -1.344638 16711680
0.11747836 -0.035430487 -1.3429316 16711680
0.11035346 -0.041329287 -1.3529857 16711680
0.11103517 -0.038977068 -1.3496293 16711680
0.11287132 -0.035552792 -1.3462633 16711680
0.11505125 -0.032581195 -1.3443743 16711680
0.10700435 -0.037552707 -1.3546562 16711680
0.10755825 -0.035357073 -1.3513019 16711680
0.10934994 -0.032052353 -1.3480302 16711680
0.11149159 -0.029083334 -1.3463398 16711680
0.10033839 -0.036180954 -1.359714 16711680
0.10237491 -0.034868307 -1.3563454 16711680
0.10333718 -0.032446571 -1.3520737 16711680
0.10518368 -0.02900324 -1.3486819 16711680
0.10759278 -0.025081836 -1.3467298 16711680
0.10814393 -0.021448001 -1.3450339 16711680
0.09562555 -0.036130454 -1.3640002 16711680
0.096913874 -0.03627032 -1.3605695 16711680
0.099009521 -0.034261394 -1.3557613 16711680
0.10029445 -0.031924903 -1.352427 16711680
0.10267051 -0.027561899 -1.3480361 16711680
0.10451344 -0.023961067 -1.3455881 16711680
0.10622595 -0.018964615 -1.3435088 16711680
0.10691442 -0.015318278 -1.3435669 16711680
0.091905318 -0.03537415 -1.3654405 16711680
0.092876762 -0.035601638 -1.3618104 16711680
0.10357449 -0.015892847 -1.342386 16711680
0.10435185 -0.012295822 -1.3426216 16711680
0.087746762 -0.033185087 -1.3700517 16711680
0.087879129 -0.033955909 -1.3675364 16711680
0.10162165 -0.0083689019 -1.342244 16711680
0.10250279 -0.0059594475 -1.3432767 16711680
0.084283061 -0.030720659 -1.3710563 16711680
0.083347231 -0.031171396 -1.3687594 16711680
0.097558573 -0.0048114695 -1.342729 16711680
0.099181265 -0.0032099672 -1.343888 16711680
0.081249729 -0.027405441 -1.3727089 16711680
0.079679258 -0.027174421 -1.3707271 16711680
0.093807608 -0.00062269717 -1.3449495 16711680
0.096085362 0.00012146775 -1.345614 16711680
0.079148486 -0.024070069 -1.3743312 16711680
0.077363759 -0.02298677 -1.3727114 16711680
0.091144189 0.0024733683 -1.3476185 16711680
0.09366858 0.0028793272 -1.3477231 16711680
0.075256564 -0.018409856 -1.3734732 16711680
0.07316263 -0.016062915 -1.3709563 16711680
0.083808601 0.0036419332 -1.3513427 16711680
0.087763123 0.0046589188 -1.3506988 16711680
0.074203148 -0.014894521 -1.3738954 16711680
0.072913513 -0.012026155 -1.3721029 16711680
0.071635827 -0.0092904568 -1.3691888 16711680
0.078679353 0.0037601758 -1.3563986 16711680
0.082225233 0.0053551216 -1.3550783 16711680
0.085351929 0.0058783656 -1.3533063 16711680
0.072812565 -0.0085211452 -1.3722748 16711680
0.072297208 -0.0053730048 -1.3701425 16711680
0.072653353 -0.0011021998 -1.3672439 16711680
0.074633576 0.0025349138 -1.3636992 16711680
0.077726103 0.004687205 -1.3601996 16711680
0.080500498 0.0058775907 -1.358049 16711680
0.074065425 0.0014046468 -1.3680933 16711680
0.074586198 0.0025733914 -1.3668028 16711680
0.10120306 -0.030334733 -1.3504655 16711680
0.10189198 -0.029101551 -1.3492531 16711680
0.093868896 -0.035310112 -1.3579309 16711680
0.095515296 -0.033541799 -1.3541105 16711680
0.097534902 -0.03099037 -1.3503791 16711680
0.099417627 -0.027587757 -1.3470265 16711680
0.10081938 -0.023666162 -1.3443494 16711680
0.10231311 -0.01975099 -1.3425709 16711680
0.089579597 -0.034705706 -1.3624762 16711680
0.090303801 -0.034401439 -1.3587174 16711680
0.09168981 -0.033378154 -1.3545332 16711680
0.098130986 -0.02144995 -1.3427532 16711680
0.099504501 -0.017234189 -1.3417732 16711680
0.10082113 -0.013682801 -1.3416864 16711680
0.08561936 -0.033077635 -1.3636123 16711680
0.085986242 -0.032867089 -1.3599668 16711680
0.096206114 -0.013949299 -1.3412666 16711680
0.097818457 -0.010580452 -1.3414236 16711680
0.081833735 -0.03071617 -1.3654002 16711680
0.094630525 -0.0069958009 -1.3419415 16711680
0.078361452 -0.027277209 -1.3671679 16711680
0.091270417 -0.0033840593 -1.3435494 16711680
0.075593874 -0.02333241 -1.3681265 16711680
0.073964283 -0.021510627 -1.3657879 16711680
0.084051728 -0.0018473128 -1.3465714 16711680
0.087769158 -0.00073595531 -1.3458411 16711680
0.073863938 -0.019330725 -1.3695036 16711680
0.072572991 -0.017364707 -1.3670326 16711680
0.07147494 -0.014295757 -1.3641825 16711680
0.082132012 0.00034398399 -1.3494123 16711680
0.085161857 0.0016934667 -1.34869 16711680
0.071763739 -0.013318248 -1.3680176 16711680
0.071052551 -0.010136781 -1.3650359 16711680
0.071202278 -0.006707415 -1.3616018 16711680
0.073527947 -0.0023956485 -1.3573532 16711680
0.076737367 0.00031382032 -1.3547125 16711680
0.080174074 0.0021044891 -1.352634 16711680
0.07114587 -0.007011544 -1.3664051 16711680
0.071517289 -0.0038722344 -1.3633518 16711680
0.073256567 -0.00067391619 -1.360172 16711680
0.075946376 0.0018253466 -1.357686 16711680
0.092866555 -0.032120697 -1.3517045 16711680
0.094053052 -0.030222528 -1.3488836 16711680
0.095811546 -0.027044028 -1.3457701 16711680
0.097047284 -0.024277002 -1.3439714 16711680
0.087989077 -0.032824434 -1.3561169 16711680
0.089103043 -0.03170412 -1.3522806 16711680
0.091014542 -0.029959146 -1.3482759 16711680
0.093104713 -0.026121959 -1.3445063 16711680
0.0943572 -0.021961108 -1.3426654 16711680
0.095852382 -0.018214133 -1.3417045 16711680
0.083005607 -0.03139852 -1.3610481 16711680
0.084404632 -0.031261824 -1.3574625 16711680
0.084610626 -0.030306894 -1.3535137 16711680
0.090945572 -0.018576726 -1.3419501 16711680
0.093086809 -0.015164698 -1.3415725 16711680
0.093765303 -0.011345763 -1.3412993 16711680
0.080288187 -0.029569589 -1.3621883 16711680
0.080449142 -0.028759949 -1.3584139 16711680
0.080027111 -0.027540367 -1.3551873 16711680
0.087190747 -0.01497145 -1.3423722 16711680
0.089382924 -0.012063 -1.3420329 16711680
0.091457166 -0.0088693686 -1.3417737 16711680
0.077286102 -0.026763663 -1.3635106 16711680
0.076763436 -0.02548708 -1.3598604 16711680
0.076422587 -0.02365848 -1.3567288 16711680
0.083152547 -0.011088545 -1.3443702 16711680
0.085747421 -0.0087251384 -1.3433719 16711680
0.088509351 -0.0059893914 -1.3429838 16711680
0.075067036 -0.023730561 -1.3647614 16711680
0.074213326 -0.021781527 -1.3620821 16711680
0.074004523 -0.019256148 -1.3579129 16711680
0.073762871 -0.015622731 -1.3554039 16711680
0.077005774 -0.010098759 -1.3496474 16711680
0.079833806 -0.0083892364 -1.3472291 16711680
0.083168559 -0.0051838048 -1.3456881 16711680
0.08598505 -0.0035096779 -1.344751 16711680
0.072446987 -0.017712213 -1.363306 16711680
0.072274104 -0.015295401 -1.3601372 16711680
0.073031217 -0.012179816 -1.3560145 16711680
0.07483682 -0.0086967573 -1.3527133 16711680
0.077682689 -0.0051744916 -1.3502125 16711680
0.080657512 -0.0026721619 -1.3485076 16711680
0.071262896 -0.011557858 -1.3619508 16711680
0.071788236 -0.0082960818 -1.358979 16711680
0.073468201 -0.0051924903 -1.3558766 16711680
0.076046526 -0.0026899148 -1.3531942 16711680
0.08635971 -0.030642293 -1.3491421 16711680
0.087676406 -0.029418524 -1.3463144 16711680
0.089401096 -0.026215509 -1.3431547 16711680
0.090354726 -0.023259092 -1.3418674 16711680
0.083301134 -0.02929607 -1.3505456 16711680
0.083736941 -0.027434658 -1.3465815 16711680
0.085679688 -0.023867313 -1.3430518 16711680
0.088086396 -0.020395819 -1.3418043 16711680
0.079767719 -0.026392922 -1.3525447 16711680
0.080121532 -0.02407153 -1.3482714 16711680
0.082154319 -0.020285212 -1.3445441 16711680
0.084993809 -0.016652074 -1.3429568 16711680
0.076930359 -0.022851177 -1.3541971 16711680
0.077557266 -0.020213965 -1.3503102 16711680
0.079316847 -0.016757747 -1.3470402 16711680
0.082028389 -0.013404569 -1.344914 16711680
0.074899025 -0.019389935 -1.355402 16711680
0.075225979 -0.016442077 -1.3528585 16711680
0.077040046 -0.01317234 -1.3495388 16711680
0.079464585 -0.011116348 -1.3470982 16711680
0.074140973 -0.013856495 -1.3539499 16711680
0.075513743 -0.011320088 -1.3514349 16711680
-0.39905199 -0.10486 -1.4991601 65280
-0.39614001 -0.10486 -1.4991601 65280
-0.39322701 -0.10486 -1.4991601 65280
-0.39031401 -0.10486 -1.4991601 65280
-0.38740101 -0.10486 -1.4991601 65280
-0.38448799 -0.10486 -1.4991601 65280
-0.381576 -0.10486 -1.4991601 65280
-0.378663 -0.10486 -1.4991601 65280
-0.37575001 -0.10486 -1.4991601 65280
-0.37283701 -0.10486 -1.4991601 65280
-0.36992401 -0.10486 -1.4991601 65280
-0.36701199 -0.10486 -1.4991601 65280
-0.364099 -0.10486 -1.4991601 65280
-0.361186 -0.10486 -1.4991601 65280
-0.358273 -0.10486 -1.4991601 65280
-0.35536101 -0.10486 -1.4991601 65280
-0.35244799 -0.10486 -1.4991601 65280
-0.34953499 -0.10486 -1.4991601 65280
-0.34662199 -0.10486 -1.4991601 65280
-0.34370899 -0.10486 -1.4991601 65280
-0.34079701 -0.10486 -1.4991601 65280
-0.33788401 -0.10486 -1.4991601 65280
-0.33497101 -0.10486 -1.4991601 65280
-0.33205801 -0.10486 -1.4991601 65280
-0.32914501 -0.10486 -1.4991601 65280
-0.326233 -0.10486 -1.4991601 65280
-0.32332 -0.10486 -1.4991601 65280
-0.320407 -0.10486 -1.4991601 65280
-0.317494 -0.10486 -1.4991601 65280
-0.31458101 -0.10486 -1.4991601 65280
-0.31166899 -0.10486 -1.4991601 65280
-0.30875599 -0.10486 -1.4991601 65280
-0.305843 -0.10486 -1.4991601 65280
-0.30293 -0.10486 -1.4991601 65280
-0.300017 -0.10486 -1.4991601 65280
-0.29710501 -0.10486 -1.4991601 65280
-0.29419199 -0.10486 -1.4991601 65280
-0.29127899 -0.10486 -1.4991601 65280
-0.28836599 -0.10486 -1.4991601 65280
-0.28545299 -0.10486 -1.4991601 65280
-0.28254101 -0.10486 -1.4991601 65280
-0.27962801 -0.10486 -1.4991601 65280
-0.27671501 -0.10486 -1.4991601 65280
-0.27380201 -0.10486 -1.4991601 65280
-0.27089 -0.10486 -1.4991601 65280
-0.267977 -0.10486 -1.4991601 65280
-0.265064 -0.10486 -1.4991601 65280
-0.262151 -0.10486 -1.4991601 65280
-0.259238 -0.10486 -1.4991601 65280
-0.25632599 -0.10486 -1.4991601 65280
-0.25341299 -0.10486 -1.4991601 65280
-0.25049999 -0.10486 -1.4991601 65280
-0.247587 -0.10486 -1.4991601 65280
-0.244674 -0.10486 -1.4991601 65280
-0.241762 -0.10486 -1.4991601 65280
-0.238849 -0.10486 -1.4991601 65280
-0.235936 -0.10486 -1.4991601 65280
-0.233023 -0.10486 -1.4991601 65280
-0.23011 -0.10486 -1.4991601 65280
-0.227198 -0.10486 -1.4991601 65280
-0.22428501 -0.10486 -1.4991601 65280
-0.22137199 -0.10486 -1.4991601 65280
-0.218459 -0.10486 -1.4991601 65280
-0.215547 -0.10486 -1.4991601 65280
-0.212634 -0.10486 -1.4991601 65280
-0.209721 -0.10486 -1.4991601 65280
-0.206808 -0.10486 -1.4991601 65280
-0.203895 -0.10486 -1.4991601 65280
-0.200983 -0.10486 -1.4991601 65280
-0.19807 -0.10486 -1.4991601 65280
-0.19515701 -0.10486 -1.4991601 65280
-0.19224399 -0.10486 -1.4991601 65280
-0.189331 -0.10486 -1.4991601 65280
-0.186419 -0.10486 -1.4991601 65280
-0.183506 -0.10486 -1.4991601 65280
-0.180593 -0.10486 -1.4991601 65280
-0.17768 -0.10486 -1.4991601 65280
-0.174767 -0.10486 -1.4991601 65280
-0.171855 -0.10486 -1.4991601 65280
-0.168942 -0.10486 -1.4991601 65280
-0.16602901 -0.10486 -1.4991601 65280
-0.16311599 -0.10486 -1.4991601 65280
-0.16020399 -0.10486 -1.4991601 65280
-0.157291 -0.10486 -1.4991601 65280
-0.154378 -0.10486 -1.4991601 65280
-0.151465 -0.10486 -1.4991601 65280
-0.148552 -0.10486 -1.4991601 65280
-0.14564 -0.10486 -1.4991601 65280
-0.142727 -0.10486 -1.4991601 65280
-0.139814 -0.10486 -1.4991601 65280
-0.13690101 -0.10486 -1.4991601 65280
-0.13398799 -0.10486 -1.4991601 65280
-0.13107599 -0.10486 -1.4991601 65280
-0.12816299 -0.10486 -1.4991601 65280
-0.12525 -0.10486 -1.4991601 65280
-0.122337 -0.10486 -1.4991601 65280
-0.119424 -0.10486 -1.4991601 65280
-0.116512 -0.10486 -1.4991601 65280
-0.113599 -0.10486 -1.4991601 65280
-0.110686 -0.10486 -1.4991601 65280
-0.107773 -0.10486 -1.4991601 65280
-0.10486 -0.10486 -1.4991601 65280
-0.101948 -0.10486 -1.4991601 65280
-0.099034898 -0.10486 -1.4991601 65280
-0.096122101 -0.10486 -1.4991601 65280
-0.093209296 -0.10486 -1.4991601 65280
-0.090296499 -0.10486 -1.4991601 65280
-0.087383702 -0.10486 -1.4991601 65280
-0.084470898 -0.10486 -1.4991601 65280
-0.081558101 -0.10486 -1.4991601 65280
-0.078645401 -0.10486 -1.4991601 65280
-0.075732604 -0.10486 -1.4991601 65280
-0.072819799 -0.10486 -1.4991601 65280
-0.069907002 -0.10486 -1.4991601 65280
-0.066994198 -0.10486 -1.4991601 65280
-0.064081401 -0.10486 -1.4991601 65280
-0.0611686 -0.10486 -1.4991601 65280
-0.058255799 -0.10486 -1.4991601 65280
-0.055342998 -0.10486 -1.4991601 65280
-0.052430201 -0.10486 -1.4991601 65280
-0.049517401 -0.10486 -1.4991601 65280
-0.0466047 -0.10486 -1.4991601 65280
-0.0436919 -0.10486 -1.4991601 65280
-0.040779099 -0.10486 -1.4991601 65280
-0.037866302 -0.10486 -1.4991601 65280
-0.034953501 -0.10486 -1.4991601 65280
-0.0320407 -0.10486 -1.4991601 65280
-0.0291279 -0.10486 -1.4991601 65280
-0.026215101 -0.10486 -1.4991601 65280
-0.0233023 -0.10486 -1.4991601 65280
-0.020389499 -0.10486 -1.4991601 65280
-0.0174767 -0.10486 -1.4991601 65280
-0.014564 -0.10486 -1.4991601 65280
-0.0116512 -0.10486 -1.4991601 65280
-0.0087383697 -0.10486 -1.4991601 65280
-0.0058255801 -0.10486 -1.4991601 65280
-0.00291279 -0.10486 -1.4991601 65280
0 -0.10486 -1.4991601 65280
0.00291279 -0.10486 -1.4991601 65280
0.0058255801 -0.10486 -1.4991601 65280
0.0087383697 -0.10486 -1.4991601 65280
0.0116512 -0.10486 -1.4991601 65280
0.014564 -0.10486 -1.4991601 65280
0.0174767 -0.10486 -1.4991601 65280
0.020389499 -0.10486 -1.4991601 65280
0.0233023 -0.10486 -1.4991601 65280
0.026215101 -0.10486 -1.4991601 65280
0.0291279 -0.10486 -1.4991601 65280
0.0320407 -0.10486 -1.4991601 65280
0.034953501 -0.10486 -1.4991601 65280
0.037866302 -0.10486 -1.4991601 65280
0.040779099 -0.10486 -1.4991601 65280
0.0436919 -0.10486 -1.4991601 65280
0.0466047 -0.10486 -1.4991601 65280
0.049517401 -0.10486 -1.4991601 65280
0.052430201 -0.10486 -1.4991601 65280
0.055342998 -0.10486 -1.4991601 65280
0.058255799 -0.10486 -1.4991601 65280
0.0611686 -0.10486 -1.4991601 65280
0.064081401 -0.10486 -1.4991601 65280
0.066994198 -0.10486 -1.4991601 65280
0.069907002 -0.10486 -1.4991601 65280
0.072819799 -0.10486 -1.4991601 65280
0.075732604 -0.10486 -1.4991601 65280
0.078645401 -0.10486 -1.4991601 65280
0.081558101 -0.10486 -1.4991601 65280
0.084470898 -0.10486 -1.4991601 65280
0.087383702 -0.10486 -1.4991601 65280
0.090296499 -0.10486 -1.4991601 65280
0.093209296 -0.10486 -1.4991601 65280
0.096122101 -0.10486 -1.4991601 65280
0.099034898 -0.10486 -1.4991601 65280
0.101948 -0.10486 -1.4991601 65280
0.10486 -0.10486 -1.4991601 65280
0.107773 -0.10486 -1.4991601 65280
0.110686 -0.10486 -1.4991601 65280
0.113599 -0.10486 -1.4991601 65280
0.116512 -0.10486 -1.4991601 65280
0.119424 -0.10486 -1.4991601 65280
0.122337 -0.10486 -1.4991601 65280
0.12525 -0.10486 -1.4991601 65280
0.12816299 -0.10486 -1.4991601 65280
0.13107599 -0.10486 -1.4991601 65280
0.13398799 -0.10486 -1.4991601 65280
0.13690101 -0.10486 -1.4991601 65280
0.139814 -0.10486 -1.4991601 65280
0.142727 -0.10486 -1.4991601 65280
0.14564 -0.10486 -1.4991601 65280
0.148552 -0.10486 -1.4991601 65280
0.151465 -0.10486 -1.4991601 65280
0.154378 -0.10486 -1.4991601 65280
0.157291 -0.10486 -1.4991601 65280
0.16020399 -0.10486 -1.4991601 65280
0.16311599 -0.10486 -1.4991601 65280
0.16602901 -0.10486 -1.4991601 65280
0.168942 -0.10486 -1.4991601 65280
0.171855 -0.10486 -1.4991601 65280
0.174767 -0.10486 -1.4991601 65280
0.17768 -0.10486 -1.4991601 65280
0.180593 -0.10486 -1.4991601 65280
0.183506 -0.10486 -1.4991601 65280
0.186419 -0.10486 -1.4991601 65280
0.189331 -0.10486 -1.4991601 65280
0.19224399 -0.10486 -1.4991601 65280
0.19515701 -0.10486 -1.4991601 65280
0.19807 -0.10486 -1.4991601 65280
0.200983 -0.10486 -1.4991601 65280
0.203895 -0.10486 -1.4991601 65280
0.206808 -0.10486 -1.4991601 65280
