# .PCD v0.7 - Point Cloud Data file format
VERSION 0.7
FIELDS x y z rgb
SIZE 4 4 4 4
TYPE F F F U
COUNT 1 1 1 1
WIDTH 1063
HEIGHT 1
VIEWPOINT 0 0 0 1 0 0 0
POINTS 1063
DATA ascii
-0.080773026 0.023098635 -1.4359554 16711680
-0.077216029 0.019885799 -1.4373429 16711680
-0.073517315 0.016620841 -1.4386158 16711680
-0.069886841 0.013213309 -1.4394814 16711680
-0.06715709 0.0096055763 -1.4397908 16711680
-0.066149659 0.006073405 -1.4406875 16711680
-0.095072009 0.038897034 -1.4260883 16711680
-0.091415487 0.038127769 -1.4271437 16711680
-0.088110007 0.035607506 -1.4294021 16711680
-0.084391542 0.032760836 -1.4311811 16711680
-0.080839477 0.029464656 -1.432864 16711680
-0.077266544 0.026266444 -1.4342886 16711680
-0.073511057 0.023010705 -1.4355264 16711680
-0.07010968 0.019528694 -1.4365638 16711680
-0.06689766 0.016124886 -1.4369822 16711680
-0.065618701 0.012522635 -1.4378343 16711680
-0.088019311 0.039431784 -1.425845 16711680
-0.084479377 0.03825251 -1.4271269 16711680
-0.081001654 0.035487257 -1.4292146 16711680
-0.077347234 0.032483846 -1.4308634 16711680
-0.073768288 0.029282331 -1.4322895 16711680
-0.070332214 0.025863044 -1.4335165 16711680
-0.066842526 0.022435348 -1.4341761 16711680
-0.065175273 0.018950278 -1.4349705 16711680
-0.081004515 0.039505046 -1.4257584 16711680
-0.077627651 0.037864637 -1.426945 16711680
-0.073887542 0.035227273 -1.428409 16711680
-0.070331857 0.032034032 -1.4298323 16711680
-0.067240365 0.028562728 -1.4310864 16711680
-0.065203704 0.025328992 -1.4320749 16711680
-0.071562842 0.036149088 -1.4270028 16711680
-0.069152467 0.034001812 -1.4279655 16711680
-0.13133219 -0.0085494732 -1.4426962 16711680
-0.12870611 -0.011440754 -1.4445584 16711680
-0.12555161 -0.014429603 -1.4462641 16711680
-0.12199386 -0.017629867 -1.4476846 16711680
-0.11846199 -0.020546049 -1.448663 16711680
-0.11508336 -0.023097327 -1.4492033 16711680
-0.1340709 0.00043641636 -1.4384074 16711680
-0.13263467 -0.0022234353 -1.4406517 16711680
-0.13011414 -0.0052410653 -1.4432467 16711680
-0.12668441 -0.0078947572 -1.4455951 16711680
-0.12310752 -0.011136346 -1.4474671 16711680
-0.11949544 -0.014267607 -1.4489092 16711680
-0.11581215 -0.017737119 -1.4499485 16711680
-0.11232009 -0.021200776 -1.4503679 16711680
-0.1084366 -0.023943067 -1.4503251 16711680
-0.10510732 -0.025588989 -1.4499993 16711680
-0.13403118 0.006750816 -1.4354718 16711680
-0.13291606 0.0040784646 -1.4379379 16711680
-0.13034454 0.0014823889 -1.4411969 16711680
-0.12761575 -0.00140501 -1.4438531 16711680
-0.12474386 -0.0051523009 -1.4460222 16711680
-0.11334616 -0.015344758 -1.4505645 16711680
-0.10907286 -0.018035796 -1.4512639 16711680
-0.10522224 -0.020969521 -1.4512085 16711680
-0.10164271 -0.024031885 -1.4504745 16711680
-0.098079368 -0.025518835 -1.4498162 16711680
-0.13267776 0.010372587 -1.4349478 16711680
-0.13040218 0.0081755687 -1.4380949 16711680
-0.12845521 0.0055409959 -1.4409223 16711680
-0.10153907 -0.018632758 -1.4516852 16711680
-0.097932167 -0.02094185 -1.4510741 16711680
-0.094717592 -0.023827126 -1.4501576 16711680
-0.13190785 0.015846977 -1.4318637 16711680
-0.13029994 0.014279297 -1.4347093 16711680
-0.12792605 0.012249936 -1.4376431 16711680
-0.094109826 -0.018049516 -1.4511807 16711680
-0.090943076 -0.020957736 -1.4504222 16711680
-0.088288672 -0.023241315 -1.4492291 16711680
-0.12922178 0.019509176 -1.4310156 16711680
-0.12740274 0.018173719 -1.4342635 16711680
-0.12633276 0.01528524 -1.4368078 16711680
-0.090995006 -0.016520621 -1.4509345 16711680
-0.087356031 -0.017761253 -1.4503077 16711680
-0.084802687 -0.020473072 -1.4488112 16711680
-0.12608847 0.023053646 -1.4300451 16711680
-0.12447338 0.02232961 -1.4329044 16711680
-0.082988776 -0.014843028 -1.4494796 16711680
-0.081168883 -0.017315079 -1.447993 16711680
-0.12257585 0.026493665 -1.4289351 16711680
-0.12116873 0.02581769 -1.4316831 16711680
-0.079236999 -0.011412757 -1.4483452 16711680
-0.077635802 -0.013840558 -1.4469113 16711680
-0.11900906 0.029774878 -1.4275084 16711680
-0.1174318 0.029344331 -1.4301548 16711680
-0.075372264 -0.0079527991 -1.4467714 16711680
-0.074126214 -0.010521447 -1.4454618 16711680
-0.11558388 0.032807313 -1.4257156 16711680
-0.11378331 0.032623038 -1.4284194 16711680
-0.071975976 -0.0048940023 -1.445132 16711680
-0.070675194 -0.0074718483 -1.4436723 16711680
-0.11187043 0.035651639 -1.4240159 16711680
-0.11008938 0.035558369 -1.4266346 16711680
-0.068631805 -0.0016257698 -1.4432042 16711680
-0.067492604 -0.0043041175 -1.4417716 16711680
-0.10824203 0.038098924 -1.4221567 16711680
-0.10615999 0.038054526 -1.4248161 16711680
-0.065711752 0.001863867 -1.4410031 16711680
-0.064534493 -0.0011119479 -1.4396391 16711680
-0.1052588 0.039861172 -1.4203564 16711680
-0.10225623 0.040155016 -1.422594 16711680
-0.098957948 0.039316531 -1.4252877 16711680
-0.064850748 0.0087473374 -1.438907 16711680
-0.06294699 0.0048461575 -1.4383256 16711680
-0.062250264 0.001268696 -1.4375679 16711680
-0.0983098 0.041863795 -1.420468 16711680
-0.095069587 0.040834479 -1.423237 16711680
-0.091621488 0.03991491 -1.4249953 16711680
-0.064360455 0.015458811 -1.4359213 16711680
-0.062748685 0.011850721 -1.4361917 16711680
-0.060569339 0.0080575543 -1.4355313 16711680
-0.09477932 0.043022681 -1.418728 16711680
-0.091576368 0.042513214 -1.4204488 16711680
-0.087979734 0.041096885 -1.4234874 16711680
-0.084502138 0.040261574 -1.4250013 16711680
-0.064143032 0.02197223 -1.4331512 16711680
-0.062732249 0.018427584 -1.4336135 16711680
-0.06009775 0.014242385 -1.4330399 16711680
-0.058885898 0.010776636 -1.4331003 16711680
-0.088089392 0.043391604 -1.4189265 16711680
-0.084609635 0.042859975 -1.4205761 16711680
-0.081036337 0.041322201 -1.4233745 16711680
-0.076829985 0.03952666 -1.4251074 16711680
-0.073374733 0.037506308 -1.4263207 16711680
-0.067339472 0.032079719 -1.4287325 16711680
-0.064971313 0.028914575 -1.4298195 16711680
-0.062579334 0.02475214 -1.4307613 16711680
-0.059963036 0.020763848 -1.4304208 16711680
-0.058613993 0.017287975 -1.4304409 16711680
-0.081115201 0.043807093 -1.4185963 16711680
-0.077571973 0.042743366 -1.4203001 16711680
-0.073902994 0.040556375 -1.4227087 16711680
-0.070256419 0.037714172 -1.4247197 16711680
-0.066612273 0.034445219 -1.4261763 16711680
-0.063147843 0.030910695 -1.4270118 16711680
-0.060123142 0.027107764 -1.4272949 16711680
-0.058347367 0.023442775 -1.4276538 16711680
-0.074086122 0.042811591 -1.41862 16711680
-0.071357884 0.041343369 -1.4198374 16711680
-0.067796603 0.038840901 -1.4214121 16711680
-0.064336903 0.03574748 -1.4227901 16711680
-0.061303016 0.032328129 -1.4238558 16711680
-0.059403494 0.029600473 -1.4245231 16711680
-0.13142195 -0.016600031 -1.4407439 16711680
-0.12841032 -0.019287763 -1.4425935 16711680
-0.12487783 -0.022448946 -1.4440104 16711680
-0.1218534 -0.025118204 -1.4446774 16711680
-0.13734367 -0.0049556904 -1.4352437 16711680
-0.13562146 -0.0069093686 -1.4380323 16711680
-0.13351335 -0.010343388 -1.4403346 16711680
-0.1307922 -0.014057882 -1.4423622 16711680
-0.12738818 -0.017311448 -1.4443606 16711680
-0.12381215 -0.020500084 -1.4457976 16711680
-0.11989313 -0.023833016 -1.4467016 16711680
-0.11566022 -0.026362691 -1.4474421 16711680
-0.11163045 -0.028569192 -1.4475657 16711680
-0.10866871 -0.030706242 -1.4467082 16711680
-0.13766082 0.0015926263 -1.4326403 16711680
-0.13646029 -0.00089819776 -1.4356138 16711680
-0.13499327 -0.0036235419 -1.4384649 16711680
-0.13294712 -0.0065482408 -1.441211 16711680
-0.11267824 -0.024771009 -1.4493318 16711680
-0.10889299 -0.027131433 -1.4489306 16711680
-0.10498066 -0.029084701 -1.4481189 16711680
-0.1015734 -0.030494057 -1.4472516 16711680
-0.13758665 0.0079598613 -1.4296168 16711680
-0.13655099 0.0055489647 -1.4325751 16711680
-0.13534455 0.0031026877 -1.4356107 16711680
-0.10129923 -0.027138429 -1.4492176 16711680
-0.098191217 -0.029038139 -1.4480151 16711680
-0.094483592 -0.030657545 -1.4467961 16711680
-0.13607828 0.011174893 -1.4297227 16711680
-0.13518927 0.0093946373 -1.4325762 16711680
-0.094420888 -0.027043069 -1.448869 16711680
-0.091683656 -0.028669331 -1.4474446 16711680
-0.13363893 0.015257215 -1.4288303 16711680
-0.13349938 0.013224598 -1.4322531 16711680
-0.090978637 -0.024994273 -1.449302 16711680
-0.087639503 -0.026026415 -1.4471982 16711680
-0.13078509 0.019053269 -1.4269243 16711680
-0.083453998 -0.023404207 -1.4458581 16711680
-0.12762016 0.022565963 -1.4254456 16711680
-0.079688147 -0.020415248 -1.4445995 16711680
-0.12426965 0.025952237 -1.4240673 16711680
-0.076072872 -0.017212093 -1.4433168 16711680
-0.12073256 0.029219173 -1.4225901 16711680
-0.072550192 -0.013953041 -1.4418092 16711680
-0.11708006 0.032268867 -1.4209288 16711680
-0.069180645 -0.010680931 -1.4400651 16711680
-0.11325326 0.035109438 -1.419498 16711680
-0.06607388 -0.0071888119 -1.4383481 16711680
-0.10911638 0.037812922 -1.4182581 16711680
-0.063200086 -0.0033563985 -1.4366571 16711680
-0.1049682 0.040164303 -1.4168053 16711680
-0.1029465 0.041025896 -1.4189066 16711680
-0.060619041 0.0030819429 -1.4358143 16711680
-0.06051759 0.0003265189 -1.434579 16711680
-0.10160913 0.041842278 -1.4148101 16711680
-0.099282734 0.042580627 -1.41677 16711680
-0.058377907 0.00587202 -1.4330603 16711680
-0.058229133 0.0029408806 -1.4321284 16711680
-0.095113203 0.043954566 -1.415033 16711680
-0.091800928 0.043767776 -1.4173673 16711680
-0.057655312 0.013004133 -1.4310149 16711680
-0.056519251 0.009356509 -1.4304577 16711680
-0.091716938 0.045011919 -1.4130639 16711680
-0.088194251 0.044655476 -1.4151112 16711680
-0.084711924 0.044248976 -1.417082 16711680
-0.057243422 0.019721553 -1.4279811 16711680
-0.056005687 0.01582104 -1.4279211 16711680
-0.054820053 0.011935343 -1.4278203 16711680
-0.084662512 0.045131687 -1.4130286 16711680
-0.081050053 0.044742856 -1.4149711 16711680
-0.077196382 0.043963421 -1.4170743 16711680
-0.057770986 0.026647165 -1.4248549 16711680
-0.056037426 0.022266949 -1.4250021 16711680
-0.054814629 0.018350836 -1.4249551 16711680
-0.077925824 0.044841886 -1.4130778 16711680
-0.074272029 0.043812398 -1.4148687 16711680
-0.070175394 0.042005729 -1.4163508 16711680
-0.066089533 0.039374515 -1.4178929 16711680
-0.062387008 0.03603502 -1.4194043 16711680
-0.05928665 0.032274343 -1.4206419 16711680
-0.056955993 0.028280929 -1.4217834 16711680
-0.055219237 0.024483766 -1.4221337 16711680
-0.067825809 0.041458193 -1.413756 16711680
-0.064783812 0.039206266 -1.4154334 16711680
-0.061579015 0.036340106 -1.4166875 16711680
-0.058757726 0.033313267 -1.4173925 16711680
-0.13506134 -0.015294848 -1.4361025 16711680
-0.1325103 -0.018029187 -1.4383057 16711680
-0.12936589 -0.021465629 -1.4399031 16711680
-0.12578426 -0.024648126 -1.441366 16711680
-0.12189296 -0.027549468 -1.442543 16711680
-0.11845469 -0.030193251 -1.4427257 16711680
-0.13863847 -0.0060799597 -1.4321921 16711680
-0.13737397 -0.0093151182 -1.4345473 16711680
-0.13547334 -0.012857495 -1.4368575 16711680
-0.13300776 -0.01514574 -1.4395279 16711680
-0.11973616 -0.027008431 -1.4448496 16711680
-0.11664543 -0.02982486 -1.444366 16711680
-0.11228316 -0.031806428 -1.4445375 16711680
-0.10838311 -0.033205729 -1.4442722 16711680
-0.13915145 0.00028562336 -1.4296236 16711680
-0.13859501 -0.0028056018 -1.4320049 16711680
-0.10522943 -0.032562014 -1.4453783 16711680
-0.10158019 -0.033492219 -1.4446217 16711680
-0.13901262 0.0063206339 -1.4267781 16711680
-0.13871907 0.0038807141 -1.4291683 16711680
-0.098057032 -0.032632962 -1.4453657 16711680
-0.094820239 -0.033302095 -1.4443882 16711680
-0.13751197 0.010215041 -1.4257808 16711680
-0.090907164 -0.031608615 -1.4443219 16711680
-0.13494049 0.014196203 -1.4237598 16711680
-0.086508453 -0.029219232 -1.4431244 16711680
-0.13193619 0.017915756 -1.4202952 16711680
-0.13205844 0.017801045 -1.4227057 16711680
-0.082818836 -0.0263119 -1.442367 16711680
-0.081774615 -0.027093217 -1.4403464 16711680
-0.1287811 0.021487027 -1.4195307 16711680
-0.12869079 0.021598531 -1.421804 16711680
-0.079071514 -0.022895709 -1.4416354 16711680
-0.078241974 -0.023833456 -1.439718 16711680
-0.12550846 0.02484805 -1.4182103 16711680
-0.12528934 0.025087668 -1.4207923 16711680
-0.075629719 -0.019657359 -1.440675 16711680
-0.074690454 -0.020707905 -1.4385103 16711680
-0.12209132 0.028069777 -1.4169025 16711680
-0.12154092 0.028601652 -1.4193213 16711680
-0.071784221 -0.015985597 -1.4392015 16711680
-0.071314365 -0.017557386 -1.4371752 16711680
-0.11865871 0.031013589 -1.415085 16711680
-0.11796679 0.031636707 -1.4174231 16711680
-0.068328045 -0.012888908 -1.4372741 16711680
-0.067925729 -0.014476027 -1.4353698 16711680
-0.11506091 0.03382786 -1.4132863 16711680
-0.11404923 0.03462366 -1.4153192 16711680
-0.064826995 -0.0094838161 -1.4350646 16711680
-0.064636841 -0.0112569 -1.4334186 16711680
-0.11225981 0.035783343 -1.4114722 16711680
-0.11036107 0.037097309 -1.4133542 16711680
-0.061819285 -0.0064353105 -1.4327595 16711680
-0.06194992 -0.0089593595 -1.4311615 16711680
-0.10623591 0.039485238 -1.4120111 16711680
-0.059147816 -0.0027215006 -1.4307986 16711680
-0.10172934 0.041670974 -1.41079 16711680
-0.099263079 0.042897988 -1.4129267 16711680
-0.056344837 0.0048241685 -1.4297148 16711680
-0.05675514 0.001456744 -1.4288334 16711680
-0.098345801 0.043011453 -1.4091588 16711680
-0.095953815 0.044038318 -1.4103574 16711680
-0.054514233 0.0069005163 -1.426903 16711680
-0.054923844 0.0040751575 -1.4264981 16711680
-0.091449238 0.045123644 -1.4092325 16711680
-0.088085525 0.045379411 -1.4106877 16711680
-0.053562727 0.014316585 -1.4245163 16711680
-0.053156529 0.010795022 -1.4245332 16711680
-0.088263772 0.045150191 -1.407398 16711680
-0.084696181 0.045190521 -1.4091204 16711680
-0.081115521 0.045199521 -1.4103334 16711680
-0.053703588 0.020593751 -1.4212518 16711680
-0.053161826 0.016953606 -1.4216651 16711680
-0.052447021 0.013052719 -1.4217126 16711680
-0.081204817 0.044923875 -1.406817 16711680
-0.077869289 0.044861279 -1.4089476 16711680
-0.073451474 0.044012304 -1.4101684 16711680
-0.069819719 0.042603277 -1.4125032 16711680
-0.057167068 0.03125304 -1.4175406 16711680
-0.054865643 0.027320024 -1.4176154 16711680
-0.053550616 0.023020428 -1.4187593 16711680
-0.052537173 0.019227788 -1.4182355 16711680
-0.07105422 0.043211639 -1.4086144 16711680
-0.067755073 0.041608475 -1.4105194 16711680
-0.063951597 0.039047536 -1.4121419 16711680
-0.060385935 0.035850197 -1.4135534 16711680
-0.057322018 0.032228392 -1.4147698 16711680
-0.055031974 0.028848333 -1.4150107 16711680
-0.13741305 -0.014702214 -1.4306957 16711680
-0.13604994 -0.01675684 -1.4323189 16711680
-0.13338308 -0.02058259 -1.4339879 16711680
-0.13008671 -0.024225321 -1.4356447 16711680
-0.1265233 -0.027420938 -1.4370679 16711680
-0.1224722 -0.030378234 -1.4383283 16711680
-0.11826152 -0.03269843 -1.4394546 16711680
-0.11569029 -0.03417946 -1.4393947 16711680
-0.13958073 -0.0076921117 -1.4281607 16711680
-0.13836485 -0.011992387 -1.4301506 16711680
-0.13703062 -0.013885116 -1.4329118 16711680
-0.11582758 -0.032896195 -1.4413724 16711680
-0.11297952 -0.034727529 -1.4403595 16711680
-0.10834163 -0.035750911 -1.4407868 16711680
-0.14030232 -0.001707837 -1.4253638 16711680
-0.13995005 -0.0046607405 -1.4275006 16711680
-0.10528076 -0.035896234 -1.4413145 16711680
-0.10158442 -0.036397688 -1.4408749 16711680
-0.14009897 0.0041867471 -1.42266 16711680
-0.14030594 0.0018045255 -1.4246109 16711680
-0.09806738 -0.036058515 -1.4414872 16711680
-0.095095418 -0.036100678 -1.4407264 16711680
-0.13834083 0.0086089261 -1.4208486 16711680
-0.090251453 -0.034329254 -1.440043 16711680
-0.1351518 0.013313546 -1.4179087 16711680
-0.13597584 0.012376963 -1.4195467 16711680
-0.086382791 -0.032018449 -1.439315 16711680
-0.084847122 -0.031637885 -1.4379957 16711680
-0.13267064 0.016603895 -1.4169658 16711680
-0.13386118 0.015518851 -1.4202881 16711680
-0.081609137 -0.029203065 -1.4373995 16711680
-0.12960827 0.020208174 -1.415804 16711680
-0.077854022 -0.026179984 -1.4364303 16711680
-0.12626633 0.023608003 -1.4136847 16711680
-0.074025981 -0.023271684 -1.4346765 16711680
-0.12292739 0.026752241 -1.4120468 16711680
-0.070503518 -0.020269211 -1.4329956 16711680
-0.11924607 0.030040611 -1.410987 16711680
-0.067130767 -0.016689328 -1.431811 16711680
-0.11548219 0.033041842 -1.4097365 16711680
-0.063894026 -0.013117068 -1.4302769 16711680
-0.11172858 0.035531484 -1.4081106 16711680
-0.11003168 0.037036918 -1.4093413 16711680
-0.060243361 -0.0076203234 -1.4292243 16711680
-0.06108756 -0.0098899724 -1.4283371 16711680
-0.10938674 0.036695763 -1.406498 16711680
-0.10698874 0.03832246 -1.407092 16711680
-0.058213461 -0.0054579591 -1.4265418 16711680
-0.059422262 -0.0081192218 -1.4265147 16711680
-0.10235288 0.040475328 -1.4060682 16711680
-0.05590618 -0.0011660238 -1.4246073 16711680
-0.098169535 0.042111237 -1.4053211 16711680
-0.095767148 0.042899586 -1.4048796 16711680
-0.0533299 0.004862417 -1.4218118 16711680
-0.054180026 0.0026742709 -1.4228368 16711680
-0.091815755 0.043826457 -1.4044192 16711680
-0.052377444 0.0084517328 -1.420175 16711680
-0.088349156 0.044113982 -1.4042462 16711680
-0.084878989 0.044172905 -1.4042948 16711680
-0.052142765 0.014791688 -1.4174266 16711680
-0.052109882 0.011632361 -1.4187418 16711680
-0.081302509 0.044095494 -1.403511 16711680
-0.077506684 0.044132408 -1.4042703 16711680
-0.073918074 0.043887112 -1.4057827 16711680
-0.053218383 0.025353681 -1.4140612 16711680
-0.052304331 0.021540275 -1.4143554 16711680
-0.051958535 0.01783333 -1.4151523 16711680
-0.074191839 0.043464307 -1.4031738 16711680
-0.071335189 0.042894907 -1.4045854 16711680
-0.066825464 0.040889319 -1.4056176 16711680
-0.062697783 0.038135309 -1.4069171 16711680
-0.059130967 0.0349373 -1.40835 16711680
-0.056004383 0.031184984 -1.4099437 16711680
-0.053671222 0.027053613 -1.4116712 16711680
-0.052525781 0.02403295 -1.4118437 16711680
-0.13743588 -0.016273689 -1.4272326 16711680
-0.13607207 -0.01886881 -1.4276991 16711680
-0.13340265 -0.022724528 -1.4293784 16711680
-0.13015689 -0.026321923 -1.4311007 16711680
-0.12659042 -0.029523633 -1.4325148 16711680
-0.12254737 -0.032455452 -1.4337294 16711680
-0.11829101 -0.034810841 -1.43481 16711680
-0.11569089 -0.035613321 -1.436361 16711680
-0.13957834 -0.0098660551 -1.4236494 16711680
-0.13838118 -0.014057906 -1.4255986 16711680
-0.1370523 -0.017397625 -1.4252274 16711680
-0.11591495 -0.036357671 -1.4336351 16711680
-0.1129793 -0.036850758 -1.4356599 16711680
-0.10831624 -0.037835654 -1.4362236 16711680
-0.14037406 -0.0035887938 -1.4208777 16711680
-0.13998884 -0.007314356 -1.4218429 16711680
-0.10533118 -0.03838928 -1.4358602 16711680
-0.1014881 -0.038464915 -1.4364222 16711680
-0.14020382 0.002149174 -1.4183203 16711680
-0.14048781 -0.00081911031 -1.4191314 16711680
-0.097978629 -0.038706701 -1.4359883 16711680
-0.095234305 -0.038240731 -1.4362195 16711680
-0.13837774 0.0065343371 -1.4160372 16711680
-0.09029714 -0.036571816 -1.4352546 16711680
-0.135383 0.011502067 -1.4141884 16711680
-0.13635907 0.0097349659 -1.4143257 16711680
-0.086752698 -0.03479917 -1.4341584 16711680
-0.08506117 -0.033613216 -1.4342917 16711680
-0.13291094 0.014657346 -1.4124975 16711680
-0.081546068 -0.031408213 -1.4330202 16711680
-0.12986952 0.018250596 -1.410839 16711680
-0.077645265 -0.028578877 -1.4317214 16711680
-0.12657073 0.021848993 -1.409487 16711680
-0.073857725 -0.025401592 -1.4305414 16711680
-0.12311573 0.024952892 -1.4077313 16711680
-0.070340432 -0.022290558 -1.4287995 16711680
-0.11941369 0.028010175 -1.4063278 16711680
-0.067087337 -0.018913377 -1.4272306 16711680
-0.11546655 0.030821159 -1.4049186 16711680
-0.1131539 0.030558515 -1.4025356 16711680
-0.06323418 -0.013978759 -1.4224263 16711680
-0.063972987 -0.015247155 -1.4255061 16711680
-0.11188925 0.0336015 -1.4045317 16711680
-0.11028458 0.03323134 -1.4028593 16711680
-0.061053224 -0.010851207 -1.4224766 16711680
-0.061385643 -0.011678306 -1.424719 16711680
-0.10654012 0.035560437 -1.402506 16711680
-0.058866579 -0.0071850419 -1.4215835 16711680
-0.10197398 0.037794571 -1.4017495 16711680
-0.099078432 0.037053719 -1.3995155 16711680
-0.056371152 -0.0011026897 -1.4165734 16711680
-0.056652643 -0.0029575559 -1.4198763 16711680
-0.098339744 0.039813668 -1.4016607 16711680
-0.096109539 0.039548997 -1.4002353 16711680
-0.054488968 0.002252206 -1.4168793 16711680
-0.05480241 0.0007618824 -1.4190528 16711680
-0.091638222 0.041187968 -1.400239 16711680
-0.088309087 0.040561426 -1.3991809 16711680
-0.053300068 0.0091494052 -1.4131429 16711680
-0.053084601 0.006629453 -1.4156431 16711680
-0.088347539 0.042522926 -1.401399 16711680
-0.084879242 0.041654848 -1.3997788 16711680
-0.052587505 0.012709113 -1.4127295 16711680
-0.052417923 0.010292304 -1.4156924 16711680
-0.081119068 0.042563431 -1.3999847 16711680
-0.077791832 0.042464741 -1.3993982 16711680
-0.051828321 0.01926595 -1.4097872 16711680
-0.051922742 0.016317986 -1.411662 16711680
-0.074296497 0.042292975 -1.39915 16711680
-0.070755005 0.041669171 -1.3997923 16711680
-0.066000991 0.039721854 -1.4006826 16711680
-0.062025942 0.037237167 -1.4027625 16711680
-0.058241643 0.033840138 -1.4042675 16711680
-0.055066459 0.029912828 -1.4050756 16711680
-0.052869298 0.025673181 -1.4069223 16711680
-0.051950648 0.022222633 -1.4081563 16711680
-0.063964084 0.038177505 -1.3991808 16711680
-0.061472341 0.03651581 -1.4007885 16711680
-0.058132816 0.033520222 -1.4021139 16711680
-0.055920638 0.030967003 -1.4023954 16711680
-0.13514513 -0.020810125 -1.4240623 16711680
-0.13271511 -0.02425513 -1.4246634 16711680
-0.12966907 -0.027740628 -1.4261802 16711680
-0.1258947 -0.031125143 -1.4276931 16711680
-0.12202434 -0.033838294 -1.4289343 16711680
-0.1185956 -0.035648979 -1.430671 16711680
-0.13870481 -0.011753224 -1.41966 16711680
-0.13752127 -0.015578888 -1.4207454 16711680
-0.13565038 -0.019706869 -1.4218868 16711680
-0.13352765 -0.022972217 -1.4214294 16711680
-0.11946318 -0.035556849 -1.4270785 16711680
-0.11659452 -0.036742128 -1.4295433 16711680
-0.11244909 -0.038080655 -1.4307299 16711680
-0.10846789 -0.038858708 -1.4317774 16711680
-0.13941123 -0.0056412164 -1.4167434 16711680
-0.13881519 -0.0094912238 -1.4175361 16711680
-0.10554599 -0.039329395 -1.4308372 16711680
-0.10169283 -0.039465692 -1.4318143 16711680
-0.13925764 0.00048084953 -1.4139774 16711680
-0.13925523 -0.0027810317 -1.4144813 16711680
-0.09818197 -0.039638359 -1.4308343 16711680
-0.095026135 -0.039240938 -1.4316473 16711680
-0.13759747 0.0038454204 -1.4118818 16711680
-0.091034919 -0.037846047 -1.4304311 16711680
-0.13441205 0.010787574 -1.4108975 16711680
-0.13510656 0.0078890845 -1.4099597 16711680
-0.086764619 -0.035626512 -1.4293705 16711680
-0.084408142 -0.03406065 -1.4309187 16711680
-0.1321978 0.012894439 -1.4089049 16711680
-0.13229942 0.010877788 -1.4075675 16711680
-0.08297433 -0.03331038 -1.4271561 16711680
-0.081701159 -0.032380488 -1.4290768 16711680
-0.12922391 0.015818249 -1.4068667 16711680
-0.12899533 0.013957215 -1.4052172 16711680
-0.07930433 -0.030621085 -1.4250771 16711680
-0.078266442 -0.029886581 -1.4272349 16711680
-0.12593026 0.018961137 -1.4051286 16711680
-0.12519789 0.017387792 -1.4032428 16711680
-0.075386643 -0.027204849 -1.423107 16711680
-0.074652672 -0.026854483 -1.4255223 16711680
-0.12244401 0.022226954 -1.403831 16711680
-0.12132223 0.021012854 -1.4019762 16711680
-0.071650922 -0.023486221 -1.4218048 16711680
-0.07128866 -0.023628976 -1.4242631 16711680
-0.11888405 0.025556214 -1.4030744 16711680
-0.11749553 0.024215035 -1.4011736 16711680
-0.068506815 -0.019772653 -1.4208223 16711680
-0.068025507 -0.020073408 -1.4234004 16711680
-0.11529058 0.028696647 -1.4026113 16711680
-0.11358479 0.027173059 -1.4006985 16711680
-0.065632433 -0.015738731 -1.4198303 16711680
-0.065251485 -0.016669698 -1.4227089 16711680
-0.10931423 0.029624684 -1.4000406 16711680
-0.10642303 0.02814696 -1.3981739 16711680
-0.063877985 -0.0099838395 -1.415163 16711680
-0.063230813 -0.011746101 -1.4185447 16711680
-0.10528236 0.032381691 -1.3996518 16711680
-0.10320887 0.030524798 -1.3978542 16711680
-0.061695252 -0.0068533756 -1.4145126 16711680
-0.060691584 -0.0077129975 -1.4174806 16711680
-0.10174397 0.034849055 -1.3993663 16711680
-0.099347375 0.033621661 -1.397596 16711680
-0.058773588 -0.002802371 -1.4138855 16711680
-0.058306895 -0.0040983502 -1.4168135 16711680
-0.095134541 0.036006726 -1.3970687 16711680
-0.091923587 0.034809459 -1.3953011 16711680
-0.057034817 0.0031388686 -1.4093366 16711680
-0.056481969 0.0012665689 -1.4125692 16711680
-0.091579519 0.038198579 -1.3973017 16711680
-0.088530585 0.037033658 -1.3961052 16711680
-0.055278357 0.007136262 -1.4094157 16711680
-0.054616008 0.0050737001 -1.4120765 16711680
-0.084249929 0.038602609 -1.3960538 16711680
-0.081619501 0.038266461 -1.3944578 16711680
-0.053576399 0.013150056 -1.4056705 16711680
-0.053867001 0.011399407 -1.4081919 16711680
-0.081248417 0.040378604 -1.3967152 16711680
-0.077951923 0.039895684 -1.3950735 16711680
-0.052406352 0.017024402 -1.4052894 16711680
-0.052560776 0.01471849 -1.4082227 16711680
-0.074199513 0.040499806 -1.3952174 16711680
-0.070417121 0.039877992 -1.3950062 16711680
-0.066396557 0.038810618 -1.3959873 16711680
-0.053996634 0.02769351 -1.4009441 16711680
-0.05254541 0.023848234 -1.4021486 16711680
-0.051992804 0.020584472 -1.4041057 16711680
-0.064584754 0.037719112 -1.3957832 16711680
-0.061201878 0.035486501 -1.3968618 16711680
-0.057486054 0.032154329 -1.3983462 16711680
-0.054945089 0.02908084 -1.399646 16711680
-0.13174567 -0.02523648 -1.4216087 16711680
-0.1286702 -0.028666329 -1.4226229 16711680
-0.12530255 -0.031680055 -1.4238931 16711680
-0.12171085 -0.034236796 -1.4256252 16711680
-0.13753587 -0.013329178 -1.4168 16711680
-0.13596147 -0.016904112 -1.4165596 16711680
-0.13398853 -0.020944644 -1.4175832 16711680
-0.1314339 -0.024961349 -1.4189531 16711680
-0.12796193 -0.028890532 -1.4197856 16711680
-0.12438138 -0.032102097 -1.4212193 16711680
-0.12045631 -0.034836251 -1.4233974 16711680
-0.11608551 -0.036989804 -1.424772 16711680
-0.11192889 -0.03843236 -1.4261779 16711680
-0.1087877 -0.03912602 -1.4282181 16711680
-0.1381 -0.0070463112 -1.4135447 16711680
-0.1369943 -0.010916623 -1.4134268 16711680
-0.13570043 -0.015122084 -1.4137709 16711680
-0.10924004 -0.038879979 -1.4244295 16711680
-0.10518557 -0.03942854 -1.4261854 16711680
-0.10169917 -0.039691869 -1.4281195 16711680
-0.13808893 -0.00089089712 -1.4111094 16711680
-0.13716134 -0.0046147611 -1.4104517 16711680
-0.1361651 -0.008528688 -1.4103426 16711680
-0.10177631 -0.03935954 -1.4240714 16711680
-0.098239772 -0.039531257 -1.4260664 16711680
-0.094728902 -0.039349873 -1.4276501 16711680
-0.13608938 0.0014406773 -1.4084522 16711680
-0.13567486 -0.0013207407 -1.4073808 16711680
-0.093969457 -0.038675383 -1.4240471 16711680
-0.091906592 -0.03817581 -1.4261012 16711680
-0.13343689 0.0046923766 -1.4061182 16711680
-0.13342777 0.0012377505 -1.4050113 16711680
-0.090707682 -0.037022978 -1.4220748 16711680
-0.088090524 -0.036046669 -1.4242646 16711680
-0.13062537 0.0084285606 -1.4043723 16711680
-0.084036767 -0.033439614 -1.4229602 16711680
-0.12742005 0.011815296 -1.4025925 16711680
-0.080237992 -0.030560851 -1.421545 16711680
-0.12394368 0.015126391 -1.4010928 16711680
-0.076639518 -0.02729531 -1.4200087 16711680
-0.12009691 0.018088799 -1.3997632 16711680
-0.073434442 -0.023725642 -1.4184455 16711680
-0.11615868 0.020803569 -1.3988628 16711680
-0.11379942 0.018950371 -1.3972591 16711680
-0.071769342 -0.018703416 -1.4140291 16711680
-0.070606381 -0.019928804 -1.4171052 16711680
-0.11240615 0.023756379 -1.3985573 16711680
-0.10970937 0.021304019 -1.397032 16711680
-0.1060072 0.019803621 -1.3964046 16711680
-0.070803732 -0.01178766 -1.4104731 16711680
-0.069606811 -0.014686069 -1.4130799 16711680
-0.067933932 -0.016116602 -1.4163321 16711680
-0.10911876 0.026217021 -1.3983772 16711680
-0.10604297 0.024496458 -1.3970903 16711680
-0.10309038 0.021862227 -1.3961867 16711680
-0.068878546 -0.0088209212 -1.4098577 16711680
-0.066724271 -0.010680706 -1.4128109 16711680
-0.065668352 -0.012695 -1.4157058 16711680
-0.10211609 0.027718559 -1.3966881 16711680
-0.09933839 0.024648249 -1.3955076 16711680
-0.06606736 -0.005114818 -1.408818 16711680
-0.06377653 -0.0067025255 -1.4120164 16711680
-0.097990118 0.030602749 -1.395934 16711680
-0.095658377 0.027961431 -1.3946987 16711680
-0.062824234 -0.0014034039 -1.4077265 16711680
-0.060894478 -0.0026557222 -1.4107406 16711680
-0.094972685 0.03292685 -1.3954948 16711680
-0.091760278 0.031026613 -1.3938888 16711680
-0.059794236 0.0023231269 -1.4066743 16711680
-0.058566414 0.00065017678 -1.4097928 16711680
-0.087602556 0.033399872 -1.393223 16711680
-0.085762307 0.032261379 -1.3913262 16711680
-0.057737984 0.0070987339 -1.402512 16711680
-0.057438765 0.006304008 -1.4052895 16711680
-0.084442556 0.035732422 -1.3933617 16711680
-0.081922531 0.035170291 -1.3915372 16711680
-0.055245988 0.011188616 -1.4021916 16711680
-0.055406995 0.0096841939 -1.404966 16711680
-0.077292673 0.036880646 -1.3910666 16711680
-0.074534699 0.036260273 -1.3891984 16711680
-0.053282846 0.01751833 -1.3979795 16711680
-0.053538781 0.01560222 -1.4006195 16711680
-0.074229829 0.038260557 -1.3915892 16711680
-0.070790045 0.037612908 -1.3905225 16711680
-0.066949904 0.037261862 -1.3911283 16711680
-0.053415157 0.025110951 -1.3965087 16711680
-0.05277751 0.021442436 -1.3977244 16711680
-0.052566282 0.018824821 -1.4002306 16711680
-0.064633846 0.036150541 -1.3911763 16711680
-0.060756661 0.033764303 -1.3922687 16711680
-0.057193369 0.030569982 -1.3936901 16711680
-0.054467905 0.027033325 -1.395309 16711680
-0.13410541 -0.018517299 -1.4136237 16711680
-0.13226385 -0.021587646 -1.4139113 16711680
-0.1295222 -0.025439799 -1.4144685 16711680
-0.12644313 -0.029076084 -1.4156342 16711680
-0.12287949 -0.032270461 -1.4170523 16711680
-0.11899564 -0.034864347 -1.418645 16711680
-0.11516459 -0.036880292 -1.4206644 16711680
-0.1122763 -0.038098454 -1.4223808 16711680
-0.1349009 -0.012283966 -1.4101257 16711680
-0.13339454 -0.016226912 -1.4103893 16711680
-0.13153744 -0.020358417 -1.4109842 16711680
-0.12903024 -0.024259377 -1.4113785 16711680
-0.11670127 -0.035318103 -1.4163139 16711680
-0.11291832 -0.037040997 -1.4184066 16711680
-0.1088798 -0.038211968 -1.4202009 16711680
-0.10532597 -0.039008256 -1.4222938 16711680
-0.13509803 -0.0061943382 -1.407622 16711680
-0.13376474 -0.0098719206 -1.4074168 16711680
-0.13217548 -0.01382545 -1.40711 16711680
-0.10537094 -0.037851125 -1.417801 16711680
-0.10185681 -0.038481526 -1.4201746 16711680
-0.098237254 -0.038946766 -1.4222167 16711680
-0.13340534 -0.0033524055 -1.4048263 16711680
-0.13176867 -0.0070607653 -1.4041749 16711680
-0.098032869 -0.037334226 -1.4176701 16711680
-0.094878562 -0.037902463 -1.4201734 16711680
-0.13196845 0.0028118221 -1.4038547 16711680
-0.13091981 -0.00010734936 -1.4024217 16711680
-0.13007838 -0.0043066796 -1.4020047 16711680
-0.094671279 -0.036093157 -1.4161775 16711680
-0.090950407 -0.035880271 -1.4182671 16711680
-0.088866338 -0.035837356 -1.4210477 16711680
-0.12909245 0.005859653 -1.4019519 16711680
-0.1277905 0.0032251365 -1.4002696 16711680
-0.087114386 -0.033256102 -1.4164994 16711680
-0.085336454 -0.033340286 -1.4194089 16711680
-0.1256841 0.0089025479 -1.4000571 16711680
-0.12437449 0.0064896257 -1.3985323 16711680
-0.083475873 -0.0301813 -1.4148721 16711680
-0.08187177 -0.030387528 -1.4175637 16711680
-0.12234525 0.012264596 -1.3988645 16711680
-0.12040416 0.0096044242 -1.3971472 16711680
-0.080124013 -0.026549043 -1.413304 16711680
-0.07849735 -0.027242569 -1.4163942 16711680
-0.1189777 0.01496041 -1.3979247 16711680
-0.11663917 0.012688408 -1.3964847 16711680
-0.11354946 0.010350227 -1.3955867 16711680
-0.078972794 -0.020690884 -1.4094038 16711680
-0.077179387 -0.022731537 -1.4122107 16711680
-0.075623743 -0.024057653 -1.4153827 16711680
-0.11649774 0.017034722 -1.3974886 16711680
-0.11296205 0.015931394 -1.396341 16711680
-0.10974795 0.012851344 -1.3953556 16711680
-0.0766536 -0.016843677 -1.4085832 16711680
-0.074173763 -0.018858781 -1.4118444 16711680
-0.073545799 -0.021458726 -1.4146675 16711680
-0.10924277 0.01825038 -1.3963515 16711680
-0.10583362 0.015960831 -1.3952832 16711680
-0.10295219 0.013979722 -1.3938994 16711680
-0.075243898 -0.011001593 -1.4049499 16711680
-0.073812425 -0.012713872 -1.4080973 16711680
-0.071976334 -0.014985668 -1.4112643 16711680
-0.10189824 0.018909052 -1.3949283 16711680
-0.099528342 0.016393531 -1.3933986 16711680
-0.072803319 -0.0075685689 -1.4040703 16711680
-0.07107234 -0.0088038575 -1.4073367 16711680
-0.098077133 0.021940071 -1.3941789 16711680
-0.095902078 0.019431662 -1.392548 16711680
-0.069746867 -0.0039759884 -1.4029371 16711680
-0.068116829 -0.004884812 -1.4060131 16711680
-0.094165057 0.025118262 -1.3929876 16711680
-0.09236908 0.02267305 -1.3912551 16711680
-0.066329248 -0.00068541011 -1.4016683 16711680
-0.064776286 -0.0012526857 -1.4047313 16711680
-0.090524934 0.028051982 -1.391892 16711680
-0.08888194 0.026135217 -1.3900238 16711680
-0.062724493 0.0026540007 -1.4005394 16711680
-0.061439823 0.0024648136 -1.4034026 16711680
-0.085177638 0.029239012 -1.388984 16711680
-0.059519328 0.0062765423 -1.399226 16711680
-0.080787197 0.031665094 -1.3878806 16711680
-0.077918306 0.031042188 -1.3856567 16711680
-0.056655042 0.012017737 -1.394142 16711680
-0.056937419 0.010262931 -1.397541 16711680
-0.077244595 0.033752717 -1.3877449 16711680
-0.074911386 0.033605501 -1.3864529 16711680
-0.054716796 0.015478466 -1.394522 16711680
-0.05508868 0.013786714 -1.3966306 16711680
-0.070499249 0.035053469 -1.3865508 16711680
-0.067041166 0.034567848 -1.3858331 16711680
-0.053726699 0.022614231 -1.3911335 16711680
-0.05350785 0.019844851 -1.3933051 16711680
-0.064556427 0.034184642 -1.3867501 16711680
-0.060615398 0.031872485 -1.3876394 16711680
-0.057041775 0.02866967 -1.3890717 16711680
-0.054492511 0.02515424 -1.390762 16711680
-0.12725683 -0.026651118 -1.4119155 16711680
-0.12473644 -0.029366434 -1.4125396 16711680
-0.12189689 -0.03191442 -1.4136831 16711680
-0.11935592 -0.033783499 -1.4150199 16711680
-0.13106498 -0.017061384 -1.407464 16711680
-0.12927489 -0.020695899 -1.4077541 16711680
-0.12672114 -0.024883568 -1.4083964 16711680
-0.12384583 -0.028723869 -1.4096044 16711680
-0.12014365 -0.032041084 -1.4110833 16711680
-0.11603682 -0.034489218 -1.4128196 16711680
-0.11197421 -0.036215942 -1.4146821 16711680
-0.10856567 -0.037292797 -1.4164793 16711680
-0.13113925 -0.011031901 -1.4047649 16711680
-0.12967688 -0.014896577 -1.4047118 16711680
-0.1278751 -0.019016474 -1.4045886 16711680
-0.1260725 -0.022924908 -1.4050663 16711680
-0.11293858 -0.034682263 -1.410297 16711680
-0.10909202 -0.035791852 -1.4120584 16711680
-0.10541479 -0.036691751 -1.4145378 16711680
-0.10228767 -0.037279319 -1.4164009 16711680
-0.12945224 -0.0083888667 -1.4025598 16711680
-0.12753856 -0.012229349 -1.4017529 16711680
-0.12672415 -0.016170334 -1.4017565 16711680
-0.10551131 -0.035296511 -1.4103405 16711680
-0.10174348 -0.035304304 -1.4120975 16711680
-0.098646544 -0.036054857 -1.4148858 16711680
-0.12854019 -0.0019766567 -1.4005437 16711680
-0.12685543 -0.0053896327 -1.4001377 16711680
-0.12476141 -0.0087586576 -1.3990957 16711680
-0.097607516 -0.033085469 -1.4099406 16711680
-0.094899558 -0.034043569 -1.4129581 16711680
-0.091933563 -0.034771163 -1.4151498 16711680
-0.12568521 0.00094293244 -1.3987285 16711680
-0.12342492 -0.0024907161 -1.3979342 16711680
-0.12152532 -0.0050324006 -1.3969281 16711680
-0.093336925 -0.030223139 -1.4081744 16711680
-0.091451049 -0.031160157 -1.4107084 16711680
-0.0887409 -0.032375768 -1.4135536 16711680
-0.12258885 0.0040624291 -1.3973178 16711680
-0.1198765 0.00074452255 -1.3963195 16711680
-0.11804546 -0.0017459886 -1.3953503 16711680
-0.08978039 -0.027016204 -1.4066118 16711680
-0.087917663 -0.0279301 -1.4090961 16711680
-0.085325152 -0.029472899 -1.4122254 16711680
-0.11907958 0.0068733282 -1.3962822 16711680
-0.11644889 0.0042748209 -1.3953991 16711680
-0.11385927 0.0016784184 -1.3941576 16711680
-0.086285703 -0.023062479 -1.4051914 16711680
-0.084386632 -0.024486497 -1.4082029 16711680
-0.082344934 -0.026120353 -1.4109709 16711680
-0.11644018 0.0085676229 -1.39586 16711680
-0.11275733 0.0074812407 -1.3948619 16711680
-0.10987596 0.0045434171 -1.3934413 16711680
-0.083454065 -0.019166619 -1.4040091 16711680
-0.081322536 -0.020774404 -1.4074411 16711680
-0.080579937 -0.023492701 -1.4101721 16711680
-0.10882013 0.010099435 -1.3944297 16711680
-0.10597961 0.007535262 -1.3930578 16711680
-0.10280143 0.005804739 -1.3917948 16711680
-0.081772842 -0.013098655 -1.4002177 16711680
-0.080616623 -0.015157484 -1.4031713 16711680
-0.078931816 -0.01691498 -1.4063762 16711680
-0.10581909 0.012018396 -1.3941584 16711680
-0.10224517 0.010601429 -1.3928455 16711680
-0.099360071 0.008030897 -1.3915484 16711680
-0.079721816 -0.0095502716 -1.3993363 16711680
-0.077766463 -0.011313114 -1.4026655 16711680
-0.076983675 -0.013789386 -1.4056463 16711680
-0.098156787 0.013673522 -1.3923534 16711680
-0.09541259 0.010579656 -1.3910851 16711680
-0.092546113 0.0087842057 -1.390278 16711680
-0.078585729 -0.0037389309 -1.3958853 16711680
-0.077171989 -0.0056844717 -1.3983788 16711680
-0.074939951 -0.007283506 -1.4016873 16711680
-0.094073199 0.016760761 -1.3912879 16711680
-0.091658168 0.013776721 -1.3901721 16711680
-0.089348167 0.010939933 -1.3894671 16711680
-0.07640402 -0.00072411727 -1.3946564 16711680
-0.074045695 -0.0020898338 -1.3972583 16711680
-0.071704991 -0.0032914476 -1.4002236 16711680
-0.090542346 0.020029785 -1.3897692 16711680
-0.088309608 0.017026097 -1.3885767 16711680
-0.086307742 0.013965657 -1.3880092 16711680
-0.073091201 0.0020852974 -1.3933024 16711680
-0.070493922 0.0010483302 -1.3956643 16711680
-0.068182267 -4.3882057e-05 -1.3987147 16711680
-0.087172091 0.02329007 -1.3880664 16711680
-0.08525943 0.020390008 -1.3866055 16711680
-0.084567145 0.016333047 -1.3867385 16711680
-0.07046251 0.003630016 -1.3924025 16711680
-0.066644065 0.0037053768 -1.3940409 16711680
-0.064560048 0.0030081896 -1.397115 16711680
-0.083624922 0.026227372 -1.3864213 16711680
-0.082145929 0.023891686 -1.3847049 16711680
-0.062725946 0.006492761 -1.3924646 16711680
-0.061290544 0.0061739329 -1.3953522 16711680
-0.080517404 0.028893091 -1.3856518 16711680
-0.078586325 0.027718175 -1.3836339 16711680
-0.05890606 0.0099867964 -1.3915584 16711680
-0.058583304 0.0092224069 -1.3944234 16711680
-0.074408293 0.030414943 -1.3830228 16711680
-0.05630346 0.014012303 -1.390245 16711680
-0.070338815 0.031968344 -1.3824924 16711680
-0.067254767 0.032006394 -1.3817334 16711680
-0.054418359 0.020352006 -1.3868517 16711680
-0.054682888 0.017919552 -1.3887324 16711680
-0.064232655 0.031789098 -1.3823661 16711680
-0.060514297 0.029720075 -1.38318 16711680
-0.057184879 0.026732564 -1.384509 16711680
-0.054903496 0.02342312 -1.3860914 16711680
-0.12448884 -0.025445163 -1.405472 16711680
-0.12187596 -0.028650638 -1.4061739 16711680
-0.11866173 -0.031502988 -1.4074028 16711680
-0.11576918 -0.033384081 -1.4089323 16711680
-0.12545046 -0.019971434 -1.4017432 16711680
-0.12371534 -0.023878861 -1.4022621 16711680
-0.12088282 -0.027936719 -1.4031469 16711680
-0.11691976 -0.031528804 -1.4047865 16711680
-0.11267506 -0.033750925 -1.4067076 16711680
-0.10884503 -0.034789409 -1.4083164 16711680
-0.12516245 -0.013864703 -1.3995464 16711680
-0.12441096 -0.017276764 -1.3989203 16711680
-0.12324952 -0.021496706 -1.3987131 16711680
-0.10911644 -0.034155298 -1.4043142 16711680
-0.10533533 -0.034375835 -1.4064893 16711680
-0.10249318 -0.034203302 -1.408556 16711680
-0.12282114 -0.01115031 -1.3969473 16711680
-0.12286232 -0.014487071 -1.3961517 16711680
-0.10164539 -0.033451173 -1.4045879 16711680
-0.098875009 -0.032501567 -1.4064926 16711680
-0.12007524 -0.0072779879 -1.3952117 16711680
-0.094780974 -0.029969234 -1.4053322 16711680
-0.11650758 -0.0040786816 -1.3936732 16711680
-0.091280513 -0.026673671 -1.4037437 16711680
-0.11260795 -0.0014490993 -1.3925956 16711680
-0.10976027 -0.0027611451 -1.390541 16711680
-0.08892443 -0.021454144 -1.3989562 16711680
-0.088533275 -0.023058159 -1.4022444 16711680
-0.1086727 0.0015597856 -1.3922144 16711680
-0.10647079 -0.00047685625 -1.3906354 16711680
-0.086959973 -0.017941423 -1.3983712 16711680
-0.08571101 -0.019136481 -1.40148 16711680
-0.10552888 0.003933372 -1.3919736 16711680
-0.10230106 0.0022815662 -1.3906641 16711680
-0.098803945 1.6395003e-05 -1.3894206 16711680
-0.086252436 -0.011369256 -1.3943963 16711680
-0.084516481 -0.013651319 -1.3977715 16711680
-0.083486356 -0.015827499 -1.4007827 16711680
-0.098442644 0.005043014 -1.3907458 16711680
-0.095270745 0.0021273559 -1.389801 16711680
-0.091169849 -0.0005880096 -1.3896786 16711680
-0.086945817 -0.0043878825 -1.3913707 16711680
-0.084444255 -0.0075867474 -1.3941324 16711680
-0.082103819 -0.0096634701 -1.3973135 16711680
-0.09490937 0.0074534938 -1.3905956 16711680
-0.091832772 0.0057577891 -1.3900545 16711680
-0.088312551 0.0021685231 -1.3901013 16711680
-0.084615596 -0.0010468168 -1.3915573 16711680
-0.081198618 -0.0036694999 -1.3943105 16711680
-0.079887956 -0.0059961807 -1.3966053 16711680
-0.087679669 0.0089091342 -1.3893287 16711680
-0.084738545 0.0055769822 -1.3896973 16711680
-0.081439257 0.0026233373 -1.3910147 16711680
-0.0782004 0.00040963106 -1.3931152 16711680
-0.084227279 0.012491987 -1.3876052 16711680
-0.080990717 0.0091685196 -1.3879576 16711680
-0.077537373 0.0060658893 -1.3893403 16711680
-0.074289285 0.0035799593 -1.3915757 16711680
-0.082648531 0.018813526 -1.3850989 16711680
-0.081167474 0.015710615 -1.385208 16711680
-0.077799395 0.012075298 -1.3855625 16711680
-0.073968843 0.0086245164 -1.3871047 16711680
-0.070385493 0.006070558 -1.3895175 16711680
-0.067664988 0.005086517 -1.3913293 16711680
-0.080335051 0.02158062 -1.3831381 16711680
-0.077882245 0.018227387 -1.3822367 16711680
-0.074827358 0.014084949 -1.3829378 16711680
-0.071083121 0.010712161 -1.3844615 16711680
-0.066984326 0.008451527 -1.3865975 16711680
-0.064247712 0.0071488563 -1.3895692 16711680
-0.07686685 0.024361817 -1.3806182 16711680
-0.076005451 0.021235302 -1.3796395 16711680
-0.063212216 0.0097613782 -1.3847588 16711680
-0.060737241 0.0098796356 -1.3871013 16711680
-0.07332778 0.027177289 -1.3794534 16711680
-0.071932986 0.026125977 -1.3775657 16711680
-0.057958256 0.013640205 -1.3831584 16711680
-0.0577593 0.013225651 -1.3856676 16711680
-0.070412569 0.029269099 -1.3794779 16711680
-0.067538202 0.028890453 -1.3778887 16711680
-0.055662259 0.018245863 -1.3826395 16711680
-0.055962935 0.016161948 -1.3853029 16711680
-0.064077124 0.02934845 -1.3783821 16711680
-0.061137032 0.02757068 -1.3784192 16711680
-0.057205863 0.024043009 -1.3799886 16711680
-0.055537179 0.021724978 -1.3817636 16711680
-0.12151256 -0.02457883 -1.3986781 16711680
-0.11894014 -0.028066888 -1.399253 16711680
-0.11543874 -0.031197552 -1.4006104 16711680
-0.11196978 -0.03313994 -1.4025028 16711680
-0.12243445 -0.019191932 -1.3952128 16711680
-0.12134112 -0.023298435 -1.3960034 16711680
-0.1186199 -0.027495939 -1.396306 16711680
-0.11373902 -0.031876814 -1.3982595 16711680
-0.10971552 -0.033726182 -1.4006321 16711680
-0.10563558 -0.03426645 -1.4019543 16711680
-0.12099947 -0.013087271 -1.3925451 16711680
-0.12179732 -0.015786372 -1.3930024 16711680
-0.10160936 -0.033880591 -1.4010615 16711680
-0.099192083 -0.032931607 -1.4013876 16711680
-0.11912499 -0.010638572 -1.3909379 16711680
-0.096158125 -0.031321075 -1.4000674 16711680
-0.11536589 -0.0073616095 -1.3895149 16711680
-0.092607871 -0.02774756 -1.3985745 16711680
-0.11245988 -0.0054722056 -1.3893383 16711680
-0.11017133 -0.0051767584 -1.3882693 16711680
-0.090220653 -0.023076873 -1.3962405 16711680
-0.090902574 -0.024901617 -1.3979279 16711680
-0.10551804 -0.0037724334 -1.3880976 16711680
-0.10234109 -0.0045898985 -1.3868908 16711680
-0.089293271 -0.016435042 -1.3921157 16711680
-0.088944301 -0.018618006 -1.3947163 16711680
-0.10199762 -0.001488762 -1.3890821 16711680
-0.098904707 -0.0032646954 -1.3878833 16711680
-0.094552323 -0.0055460855 -1.3874998 16711680
-0.090536311 -0.0091220532 -1.3891187 16711680
-0.088522822 -0.012573998 -1.3920289 16711680
-0.087460674 -0.014993018 -1.3949667 16711680
-0.095304742 -0.0013022451 -1.3889847 16711680
-0.092313856 -0.0033447519 -1.3890163 16711680
-0.089089848 -0.0061597768 -1.3903298 16711680
-0.087264143 -0.0085290791 -1.3921959 16711680
-0.075054377 0.017697066 -1.3802629 16711680
-0.072816677 0.014815319 -1.3810858 16711680
-0.069720641 0.012031863 -1.3823297 16711680
-0.066720471 0.010230278 -1.3835807 16711680
-0.073721595 0.019956186 -1.3772662 16711680
-0.071265399 0.01586812 -1.3780719 16711680
-0.067544818 0.012551957 -1.3795199 16711680
-0.063547641 0.010757567 -1.3813524 16711680
-0.071396843 0.023346912 -1.3751231 16711680
-0.059509844 0.012730474 -1.3798219 16711680
-0.066963568 0.025780309 -1.3742703 16711680
-0.063602298 0.024846599 -1.3727456 16711680
-0.057459228 0.019321825 -1.375028 16711680
-0.057034735 0.016947683 -1.3781695 16711680
-0.063797593 0.027051756 -1.3751199 16711680
-0.061330032 0.024957372 -1.3745399 16711680
-0.05800613 0.021977276 -1.375868 16711680
-0.056286883 0.020289559 -1.3781203 16711680
-0.11660049 -0.02973168 -1.3966438 16711680
-0.11573946 -0.030476075 -1.3970618 16711680
-0.1217995 -0.021221526 -1.3900536 16711680
-0.12039327 -0.025099996 -1.3920387 16711680
-0.11783052 -0.028842632 -1.3937019 16711680
-0.11390412 -0.032364044 -1.39528 16711680
-0.10977993 -0.034632131 -1.3962783 16711680
-0.10538208 -0.035951965 -1.3965976 16711680
-0.121519 -0.01558486 -1.387074 16711680
-0.12180668 -0.017785251 -1.3890562 16711680
-0.10188641 -0.03568029 -1.397049 16711680
-0.098923281 -0.035800222 -1.3959582 16711680
-0.11965843 -0.012171958 -1.38596 16711680
-0.095492877 -0.033843301 -1.3956218 16711680
-0.11580134 -0.0089151245 -1.3845375 16711680
-0.092008226 -0.030259069 -1.3940439 16711680
-0.11247946 -0.0075161476 -1.3830732 16711680
-0.10985901 -0.0067650918 -1.3840159 16711680
-0.089986317 -0.02466125 -1.392085 16711680
-0.090215415 -0.027406428 -1.3920387 16711680
-0.10571922 -0.0062142294 -1.3827808 16711680
-0.10237051 -0.006038608 -1.3839635 16711680
-0.089394026 -0.01767504 -1.3891499 16711680
-0.089025535 -0.021219863 -1.389493 16711680
-0.10240108 -0.0059112962 -1.3805941 16711680
-0.099077262 -0.0063454602 -1.3826555 16711680
-0.094830804 -0.0075844415 -1.3838259 16711680
-0.090920158 -0.01107622 -1.3854904 16711680
-0.089210786 -0.015259689 -1.3866744 16711680
-0.087867685 -0.018941376 -1.3863387 16711680
-0.092653297 -0.0083285719 -1.3815807 16711680
-0.090684786 -0.010102511 -1.3823731 16711680
-0.071371369 0.018609801 -1.373919 16711680
-0.069374181 0.015793245 -1.374168 16711680
-0.066084698 0.01284355 -1.3754703 16711680
-0.063399427 0.011443893 -1.3771275 16711680
-0.069758907 0.020313252 -1.3720795 16711680
-0.068139322 0.016999284 -1.3709823 16711680
-0.063836068 0.013039224 -1.3727734 16711680
-0.06110438 0.012543727 -1.3755139 16711680
-0.066791847 0.022567026 -1.3712629 16711680
-0.063642196 0.021143479 -1.3703046 16711680
-0.059726972 0.017631587 -1.3718622 16711680
-0.058700886 0.015416713 -1.3745484 16711680
-0.061181396 0.022729408 -1.372261 16711680
-0.059133872 0.020895634 -1.3730772 16711680
-0.12410687 -0.027159296 -1.3854121 16711680
-0.12210725 -0.02960087 -1.3873637 16711680
-0.11905117 -0.032694239 -1.3894268 16711680
-0.11564629 -0.035738673 -1.3907894 16711680
-0.11198179 -0.038679671 -1.3914242 16711680
-0.10910603 -0.040887367 -1.3914003 16711680
-0.12465911 -0.021013342 -1.3829925 16711680
-0.12359906 -0.023390252 -1.385691 16711680
-0.12150563 -0.026921252 -1.3885363 16711680
-0.11824093 -0.030267119 -1.3911026 16711680
-0.11409861 -0.03396973 -1.3927594 16711680
-0.10997557 -0.037174415 -1.3931975 16711680
-0.1055522 -0.039571434 -1.3929025 16711680
-0.10224833 -0.041096874 -1.3919411 16711680
-0.12327682 -0.017226893 -1.3828318 16711680
-0.12283756 -0.019398686 -1.3861387 16711680
