# .PCD v0.7 - Point Cloud Data file format
VERSION 0.7
FIELDS x y z rgb
SIZE 4 4 4 4
TYPE F F F U
COUNT 1 1 1 1
WIDTH 1118
HEIGHT 1
VIEWPOINT 0 0 0 1 0 0 0
POINTS 1118
DATA ascii
0.121181 0.049977724 -1.4204499 16711680
0.13606854 0.09802942 -1.3999289 16711680
0.13527052 0.094383702 -1.4027393 16711680
0.13431695 0.09001258 -1.4052395 16711680
0.13339341 0.085493013 -1.4072002 16711680
0.13246453 0.080972962 -1.4091411 16711680
0.13153158 0.076465681 -1.4110764 16711680
0.13060848 0.071952716 -1.4130144 16711680
0.12967753 0.067441307 -1.4149516 16711680
0.12875044 0.062923178 -1.4168916 16711680
0.12782098 0.058409795 -1.4188116 16711680
0.12689105 0.053556353 -1.420272 16711680
0.12599164 0.049026318 -1.4209707 16711680
0.14100799 0.097060166 -1.400386 16711680
0.14018919 0.093526863 -1.4031377 16711680
0.13922305 0.08916831 -1.4056492 16711680
0.13828227 0.084660307 -1.4076091 16711680
0.13737573 0.080148518 -1.4095467 16711680
0.13644093 0.075628415 -1.4114876 16711680
0.13552226 0.071117625 -1.4134246 16711680
0.13459688 0.066597641 -1.4153655 16711680
0.13366893 0.062080797 -1.417305 16711680
0.13273168 0.057562828 -1.4192218 16711680
0.13180335 0.052734021 -1.4206561 16711680
0.13100065 0.048297171 -1.4213216 16711680
0.14572069 0.095874786 -1.4007673 16711680
0.14506912 0.092490189 -1.4034644 16711680
0.14413978 0.088314489 -1.4060204 16711680
0.14321946 0.083825044 -1.4080195 16711680
0.14228265 0.07931345 -1.4099568 16711680
0.14136744 0.074796759 -1.4118965 16711680
0.14042252 0.070286475 -1.4138329 16711680
0.13951121 0.065761082 -1.4157764 16711680
0.13857666 0.061251417 -1.4177126 16711680
0.13765258 0.056721836 -1.4195894 16711680
0.13677005 0.051980726 -1.4208621 16711680
0.13589247 0.047760788 -1.4214382 16711680
0.14993098 0.094403714 -1.401105 16711680
0.14998131 0.091473572 -1.4034338 16711680
0.14915478 0.087477252 -1.4062623 16711680
0.148127 0.082986996 -1.4084224 16711680
0.14720035 0.078486055 -1.4103634 16711680
0.14627266 0.073972076 -1.4123024 16711680
0.14533198 0.069449313 -1.4142443 16711680
0.14441572 0.064932048 -1.4161835 16711680
0.14348082 0.060410757 -1.4181169 16711680
0.14263004 0.055732749 -1.4198985 16711680
0.14170149 0.050873313 -1.4208398 16711680
0.14032672 0.04749956 -1.4212453 16711680
0.15321752 0.092953317 -1.4013602 16711680
0.1545061 0.090020083 -1.4032787 16711680
0.15421525 0.086447135 -1.4061248 16711680
0.15315135 0.082157344 -1.4086407 16711680
0.15210727 0.07763651 -1.4107623 16711680
0.15118492 0.073146798 -1.4127351 16711680
0.15025823 0.068622768 -1.4146775 16711680
0.14932781 0.064101942 -1.4165747 16711680
0.14847779 0.059423074 -1.4184048 16711680
0.1476277 0.054643199 -1.4198098 16711680
0.14632435 0.05033436 -1.4203583 16711680
0.14391145 0.047469489 -1.4208757 16711680
0.15769067 0.087966129 -1.4036289 16711680
0.15876968 0.084867388 -1.4057052 16711680
0.15790996 0.081109554 -1.4084476 16711680
0.15720515 0.076758251 -1.4108282 16711680
0.15610427 0.07223361 -1.4129807 16711680
0.1551805 0.067715652 -1.4149202 16711680
0.15438148 0.062994175 -1.416739 16711680
0.1532869 0.058367178 -1.4182106 16711680
0.15236612 0.053838499 -1.4190614 16711680
0.15006737 0.050716467 -1.4196172 16711680
0.16209938 0.082919255 -1.4059054 16711680
0.16272497 0.079683781 -1.4080749 16711680
0.16183764 0.075613946 -1.4106733 16711680
0.16102576 0.071191967 -1.4128833 16711680
0.16010231 0.066667594 -1.4148256 16711680
0.15900671 0.062083051 -1.4164953 16711680
0.15813646 0.057365634 -1.4176588 16711680
0.15616214 0.054014549 -1.4183152 16711680
0.16608456 0.077632666 -1.4082279 16711680
0.16630691 0.074214078 -1.410169 16711680
0.16588344 0.06993077 -1.4123054 16711680
0.16495429 0.065428846 -1.4142387 16711680
0.16361839 0.061076824 -1.4158067 16711680
0.16196918 0.057634585 -1.4168142 16711680
0.16836859 0.068536557 -1.411971 16711680
0.16775256 0.065495431 -1.4132828 16711680
0.095977314 0.087942779 -1.3978275 16711680
0.094602138 0.084404387 -1.3999046 16711680
0.093503028 0.080379486 -1.4019996 16711680
0.092570774 0.07587111 -1.4039296 16711680
0.091994882 0.071494639 -1.4054958 16711680
0.091763854 0.067398511 -1.4066732 16711680
0.10273239 0.095056877 -1.3946005 16711680
0.10073376 0.092625976 -1.3966675 16711680
0.098944195 0.089199826 -1.399361 16711680
0.098021254 0.085277006 -1.402204 16711680
0.096907921 0.080797084 -1.4045494 16711680
0.096050039 0.076294526 -1.4065305 16711680
0.095120847 0.071461961 -1.4081024 16711680
0.094310366 0.066683158 -1.4090385 16711680
0.094423965 0.061993804 -1.409815 16711680
0.095153891 0.058376148 -1.4103444 16711680
0.10854325 0.098578334 -1.3930739 16711680
0.1062778 0.09641701 -1.3952336 16711680
0.10459704 0.093321025 -1.3986347 16711680
0.10299934 0.089828834 -1.4014796 16711680
0.10100849 0.085608587 -1.4037652 16711680
0.098069891 0.071202166 -1.409952 16711680
0.098174557 0.066363379 -1.4115551 16711680
0.098130517 0.061575718 -1.4122734 16711680
0.098080561 0.056808203 -1.41225 16711680
0.099178344 0.053062856 -1.412582 16711680
0.11220312 0.099766724 -1.3937209 16711680
0.11069759 0.097130865 -1.3969915 16711680
0.10879435 0.094417982 -1.3997747 16711680
0.10176391 0.060336314 -1.414399 16711680
0.10225141 0.056044191 -1.4146374 16711680
0.1021966 0.051637702 -1.4143542 16711680
0.11784162 0.10217939 -1.3921508 16711680
0.11654499 0.1004025 -1.3950324 16711680
0.11529594 0.097765669 -1.3981708 16711680
0.10651128 0.054994605 -1.4165717 16711680
0.10635645 0.050634034 -1.4164137 16711680
0.10654075 0.046991266 -1.4157958 16711680
0.122388 0.10233311 -1.3929602 16711680
0.12124012 0.10060485 -1.3963274 16711680
0.11875933 0.09835282 -1.398504 16711680
0.109479 0.053563565 -1.417688 16711680
0.11079271 0.049921751 -1.4181201 16711680
0.11070704 0.046037786 -1.417109 16711680
0.12713809 0.10205431 -1.3937873 16711680
0.12647448 0.10080865 -1.3968397 16711680
0.11570754 0.048332158 -1.419383 16711680
0.11539078 0.045157872 -1.4181757 16711680
0.13207021 0.1014003 -1.3945956 16711680
0.13136671 0.10032576 -1.3974835 16711680
0.12077396 0.047486864 -1.4202485 16711680
0.12035011 0.044514544 -1.4190234 16711680
0.13702583 0.10055606 -1.395101 16711680
0.1366374 0.099492483 -1.3979986 16711680
0.12608178 0.046507426 -1.420753 16711680
0.12531053 0.043734197 -1.4194953 16711680
0.14184603 0.099605516 -1.3951747 16711680
0.14174639 0.098537415 -1.3982468 16711680
0.13085116 0.045618989 -1.4209632 16711680
0.13015682 0.042775437 -1.4195842 16711680
0.14665206 0.098331399 -1.3953978 16711680
0.1466402 0.09732274 -1.3984015 16711680
0.13585158 0.044858597 -1.4209284 16711680
0.13498223 0.042078067 -1.4195008 16711680
0.15116923 0.096845776 -1.3953713 16711680
0.15134689 0.095646068 -1.3985243 16711680
0.14087982 0.044518277 -1.4205381 16711680
0.13978373 0.041530892 -1.4191318 16711680
0.1547921 0.095424354 -1.3950531 16711680
0.15588574 0.093676262 -1.3981929 16711680
0.15613064 0.091056265 -1.4016449 16711680
0.14727603 0.047906116 -1.4201703 16711680
0.14561005 0.043901272 -1.419562 16711680
0.14357908 0.040989924 -1.4184399 16711680
0.16011974 0.091440618 -1.3978925 16711680
0.16016224 0.088755257 -1.4013588 16711680
0.16076237 0.085826993 -1.4039844 16711680
0.15365349 0.051329833 -1.4188244 16711680
0.15174235 0.047862597 -1.418956 16711680
0.15033883 0.043705121 -1.4183886 16711680
0.16357207 0.089231074 -1.3977047 16711680
0.16435742 0.086742826 -1.4002879 16711680
0.1642113 0.083583243 -1.4040527 16711680
0.16497812 0.080648549 -1.4064785 16711680
0.15965375 0.054868001 -1.4175477 16711680
0.15761027 0.051622801 -1.4177995 16711680
0.15613429 0.046885025 -1.4173949 16711680
0.15418251 0.043779116 -1.417223 16711680
0.16749732 0.084421903 -1.4002342 16711680
0.16844523 0.08169879 -1.4028419 16711680
0.16828035 0.078443155 -1.406355 16711680
0.16865291 0.074380867 -1.4090534 16711680
0.16862386 0.070666172 -1.4109757 16711680
0.16704331 0.063020036 -1.4142523 16711680
0.16559488 0.059384953 -1.4154762 16711680
0.16346195 0.055077646 -1.4163904 16711680
0.16204093 0.050514128 -1.4162306 16711680
0.16017212 0.047291603 -1.4160665 16711680
0.17180373 0.079345666 -1.4023817 16711680
0.17236778 0.076245561 -1.4049628 16711680
0.17190704 0.072446272 -1.4080291 16711680
0.17108308 0.068187855 -1.4105999 16711680
0.17013438 0.063575961 -1.4125801 16711680
0.16910724 0.058836944 -1.4138774 16711680
0.16783059 0.054176696 -1.4144659 16711680
0.16593634 0.050562613 -1.4147246 16711680
0.17495455 0.073387921 -1.4046135 16711680
0.17493482 0.070575029 -1.4063938 16711680
0.17447387 0.066529796 -1.4085963 16711680
0.17358251 0.062156949 -1.4104735 16711680
0.17232069 0.057852674 -1.4118576 16711680
0.17108972 0.054785945 -1.412616 16711680
0.090573445 0.082610428 -1.3945098 16711680
0.089570008 0.078906707 -1.3967441 16711680
0.088654339 0.074441686 -1.3986696 16711680
0.088092715 0.070558824 -1.3998214 16711680
0.097987607 0.093637407 -1.389573 16711680
0.09648484 0.091520488 -1.3923696 16711680
0.09425737 0.088098399 -1.3945758 16711680
0.092257679 0.083991617 -1.3966858 16711680
0.090994254 0.079654567 -1.3990866 16711680
0.090075053 0.07514219 -1.4010402 16711680
0.08942765 0.070196696 -1.4025928 16711680
0.089616492 0.065497063 -1.4042498 16711680
0.090154722 0.061061796 -1.4053285 16711680
0.090500504 0.057330217 -1.4051518 16711680
0.10365766 0.097628608 -1.3882743 16711680
0.10139552 0.09559527 -1.3909645 16711680
0.09914884 0.093192495 -1.3935894 16711680
0.097111702 0.090208098 -1.3962778 16711680
0.09179756 0.064533696 -1.4073017 16711680
0.092270948 0.060105946 -1.4077848 16711680
0.093266934 0.05577695 -1.4080081 16711680
0.094410665 0.052167103 -1.4081084 16711680
0.10955861 0.10114397 -1.3866881 16711680
0.1072703 0.099283986 -1.389323 16711680
0.10502281 0.097283907 -1.3920808 16711680
0.096384712 0.054386668 -1.4106343 16711680
0.097112864 0.05064173 -1.4102333 16711680
0.098390877 0.046617135 -1.4100728 16711680
0.11277495 0.10205358 -1.3878934 16711680
0.11091623 0.10068835 -1.3904982 16711680
0.1004038 0.049177472 -1.412673 16711680
0.10121034 0.045852967 -1.4119915 16711680
0.11751561 0.10265383 -1.3886555 16711680
0.1148481 0.10178427 -1.3914833 16711680
0.10370249 0.047931589 -1.414623 16711680
0.1055317 0.044423059 -1.4136299 16711680
0.12263224 0.10260311 -1.3885714 16711680
0.11030526 0.042705301 -1.4143043 16711680
0.12755689 0.10220234 -1.3889349 16711680
0.11509211 0.041550666 -1.4149785 16711680
0.13245399 0.1015961 -1.3894306 16711680
0.11996478 0.040642262 -1.4156188 16711680
0.13740027 0.10075764 -1.3898768 16711680
0.12490799 0.03980504 -1.4160305 16711680
0.14231305 0.099665761 -1.3901525 16711680
0.12986003 0.039056022 -1.4161745 16711680
0.1470836 0.09834449 -1.3906612 16711680
0.13482167 0.038649835 -1.4162946 16711680
0.15185551 0.096730471 -1.3914263 16711680
0.13990025 0.038639922 -1.4164221 16711680
0.15644498 0.09485212 -1.3919339 16711680
0.15746844 0.094186775 -1.394719 16711680
0.14647219 0.040633261 -1.4177135 16711680
0.14489786 0.03862109 -1.4161001 16711680
0.16028284 0.093062416 -1.3915484 16711680
0.16143337 0.092066243 -1.394284 16711680
0.15079413 0.040279839 -1.4164531 16711680
0.14900616 0.03816691 -1.4151031 16711680
0.1654014 0.089508832 -1.3943564 16711680
0.16627163 0.087236129 -1.3976022 16711680
0.15728219 0.043937959 -1.4161308 16711680
0.15537138 0.040679686 -1.4153302 16711680
0.16878435 0.087301642 -1.3938929 16711680
0.16974621 0.0847179 -1.3969144 16711680
0.17067525 0.082121335 -1.3998423 16711680
0.16363767 0.047417529 -1.4147149 16711680
0.16141644 0.043998059 -1.4143605 16711680
0.15919189 0.040621251 -1.4139537 16711680
0.17280822 0.082022347 -1.3962849 16711680
0.17383289 0.079333968 -1.3992344 16711680
0.17464107 0.076239735 -1.4023418 16711680
0.16966023 0.05172731 -1.4129323 16711680
0.16728047 0.047659598 -1.4128492 16711680
0.16503461 0.044243559 -1.412499 16711680
0.17631768 0.076737419 -1.398571 16711680
0.17693792 0.073588513 -1.4012765 16711680
0.17733034 0.069563977 -1.4037044 16711680
0.17707591 0.065034315 -1.4060316 16711680
0.17608719 0.060341828 -1.408069 16711680
0.17454466 0.055797197 -1.4095713 16711680
0.17243361 0.051674079 -1.4106798 16711680
0.17042148 0.048004489 -1.4108927 16711680
0.17914832 0.067037746 -1.402011 16711680
0.17855045 0.063560769 -1.4041775 16711680
0.17773223 0.059506275 -1.4058957 16711680
0.17677549 0.055556692 -1.4069474 16711680
0.091182575 0.085486516 -1.389232 16711680
0.08976227 0.08215671 -1.3916271 16711680
0.088359848 0.077839226 -1.3935359 16711680
0.087439135 0.073330484 -1.3955165 16711680
0.087003469 0.068721294 -1.397391 16711680
0.086863354 0.064466536 -1.3982419 16711680
0.097509034 0.09343949 -1.3861108 16711680
0.09494321 0.090791278 -1.3881153 16711680
0.092516214 0.087459065 -1.390238 16711680
0.091217317 0.084548309 -1.3931171 16711680
0.087788135 0.067781799 -1.4003521 16711680
0.087562181 0.063579157 -1.4004385 16711680
0.08843714 0.059041627 -1.4017164 16711680
0.089648142 0.055156641 -1.4025414 16711680
0.10292047 0.097468778 -1.3847439 16711680
0.10005991 0.095452733 -1.3865579 16711680
0.09149123 0.053342354 -1.4047542 16711680
0.09309002 0.049869597 -1.4051275 16711680
0.10854445 0.10075183 -1.3832824 16711680
0.10602394 0.099349231 -1.3851354 16711680
0.095429294 0.047856227 -1.4071721 16711680
0.0970736 0.044827841 -1.4072496 16711680
0.11265948 0.10192881 -1.3835934 16711680
0.10054471 0.042923279 -1.4088339 16711680
0.11779916 0.1021919 -1.3833413 16711680
0.10521108 0.040918149 -1.4096694 16711680
0.12349654 0.10173986 -1.3818573 16711680
0.12248471 0.10212909 -1.3840169 16711680
0.10971594 0.039846353 -1.4107646 16711680
0.11042833 0.038249873 -1.4091129 16711680
0.12820558 0.10149307 -1.3828868 16711680
0.12753071 0.10184343 -1.3850338 16711680
0.11462595 0.039057225 -1.4119973 16711680
0.11506474 0.037540235 -1.4103389 16711680
0.13301982 0.10093877 -1.3834047 16711680
0.1324029 0.10131992 -1.3859042 16711680
0.11931391 0.038352057 -1.4128823 16711680
0.11981696 0.036642492 -1.4110123 16711680
0.13780519 0.10018855 -1.3839579 16711680
0.13765012 0.10047867 -1.3864737 16711680
0.12473455 0.037536766 -1.4135116 16711680
0.12453578 0.035874091 -1.4115131 16711680
0.14257178 0.099172413 -1.3839949 16711680
0.14259258 0.099400684 -1.3865014 16711680
0.12966815 0.036582813 -1.4134837 16711680
0.1293769 0.034980334 -1.4115719 16711680
0.14732613 0.097951807 -1.3840818 16711680
0.14776307 0.098000228 -1.3864475 16711680
0.13495882 0.035747036 -1.413268 16711680
0.13431801 0.03422717 -1.4114876 16711680
0.15099792 0.096788809 -1.3837243 16711680
0.1523709 0.09646979 -1.386349 16711680
0.13974136 0.035044778 -1.4127301 16711680
0.13834094 0.033299677 -1.4107461 16711680
0.15693595 0.09464889 -1.3869567 16711680
0.14471437 0.035071827 -1.4125181 16711680
0.16151774 0.09242928 -1.3877693 16711680
0.16305028 0.091663763 -1.3908058 16711680
0.1523274 0.037561614 -1.4138674 16711680
0.14988288 0.035603937 -1.412293 16711680
0.16498607 0.090462923 -1.3876654 16711680
0.16666079 0.089483202 -1.3897747 16711680
0.15590547 0.037058406 -1.412282 16711680
0.15369911 0.035516664 -1.4112471 16711680
0.1703804 0.086582564 -1.3904722 16711680
0.17192458 0.084416628 -1.3930066 16711680
0.16285558 0.040670574 -1.4117755 16711680
0.16042948 0.038133621 -1.4112788 16711680
0.17282379 0.083902679 -1.3898706 16711680
0.17422429 0.081486553 -1.3926811 16711680
0.17578986 0.078962609 -1.3950205 16711680
0.16865511 0.044255018 -1.4098772 16711680
0.16607422 0.041600827 -1.4097704 16711680
0.16352379 0.038594157 -1.4093369 16711680
0.17678437 0.078317046 -1.391697 16711680
0.1778333 0.076074205 -1.3947859 16711680
0.17921674 0.072372958 -1.3972592 16711680
0.1793461 0.069083542 -1.4003884 16711680
0.17605908 0.053067587 -1.407245 16711680
0.17435673 0.048841521 -1.4073713 16711680
0.17145026 0.045294948 -1.4080796 16711680
0.16935045 0.042042881 -1.4072411 16711680
0.18050069 0.069809593 -1.396495 16711680
0.18045221 0.066583574 -1.3990787 16711680
0.18006502 0.062324896 -1.4013969 16711680
0.17914256 0.057810985 -1.4033219 16711680
0.17769167 0.053378738 -1.4048178 16711680
0.17633937 0.049537122 -1.4051955 16711680
0.092244476 0.086817324 -1.3835557 16711680
0.090880916 0.084730268 -1.3851368 16711680
0.088895082 0.080539204 -1.3868771 16711680
0.087400958 0.07598488 -1.3888545 16711680
0.086474389 0.071475551 -1.3907897 16711680
0.086055875 0.066722482 -1.3927852 16711680
0.086252451 0.062231552 -1.394829 16711680
0.08659023 0.059334002 -1.395376 16711680
0.09720847 0.092514992 -1.3817751 16711680
0.093945339 0.089172766 -1.3832295 16711680
0.092282459 0.0873845 -1.38588 16711680
0.086774372 0.060554206 -1.3973897 16711680
0.087341987 0.057078753 -1.3970875 16711680
0.088999093 0.052978531 -1.3988719 16711680
0.10229877 0.096425861 -1.3800561 16711680
0.099515602 0.094614863 -1.3816009 16711680
0.090403616 0.050646015 -1.4003739 16711680
0.092237897 0.047457803 -1.4011348 16711680
0.10780263 0.09959273 -1.3787215 16711680
0.10520358 0.098538965 -1.3800097 16711680
0.094229892 0.045099325 -1.4029598 16711680
0.096120909 0.042702273 -1.4032627 16711680
0.112747 0.10078417 -1.3784671 16711680
0.10038761 0.040046636 -1.4046096 16711680
0.11910047 0.10089663 -1.3777117 16711680
0.1173559 0.10117894 -1.3787682 16711680
0.10453331 0.038465567 -1.4056827 16711680
0.1061423 0.037340064 -1.4050597 16711680
0.1232873 0.10095559 -1.3782953 16711680
0.12062816 0.10167974 -1.3807523 16711680
0.10998368 0.036336064 -1.4060625 16711680
0.128111 0.10073917 -1.3789327 16711680
0.1146872 0.035255529 -1.4070063 16711680
0.13327715 0.10003455 -1.3787451 16711680
0.11962423 0.03392677 -1.4072303 16711680
0.13807835 0.099243946 -1.3789529 16711680
0.12443621 0.032900587 -1.4074347 16711680
0.14297242 0.098373607 -1.3798369 16711680
0.12942222 0.032429844 -1.4081525 16711680
0.1477645 0.097229481 -1.3805202 16711680
0.13445121 0.032003898 -1.4085003 16711680
0.15230012 0.095711462 -1.3807594 16711680
0.15393654 0.095567062 -1.38275 16711680
0.14098495 0.03255726 -1.4097885 16711680
0.13912611 0.031623371 -1.4082637 16711680
0.15505044 0.094426274 -1.3802851 16711680
0.15739423 0.093729503 -1.38195 16711680
0.14469241 0.031977233 -1.4084061 16711680
0.14203061 0.031203434 -1.4074779 16711680
0.16195294 0.091421254 -1.3829826 16711680
0.14988799 0.032650828 -1.4082011 16711680
0.16577326 0.089170977 -1.3840208 16711680
0.16785811 0.087781027 -1.3845774 16711680
0.15684408 0.034088954 -1.4076148 16711680
0.1543628 0.033504087 -1.4078661 16711680
0.17091474 0.085301273 -1.3856699 16711680
0.16065273 0.035390373 -1.407093 16711680
0.17311926 0.082828052 -1.3867443 16711680
0.17507517 0.080241218 -1.3879818 16711680
0.16652453 0.03880886 -1.4058101 16711680
0.16370112 0.036983408 -1.4064504 16711680
0.177284 0.07735984 -1.3884628 16711680
0.17915152 0.07462094 -1.3904624 16711680
0.18042387 0.071975708 -1.3930335 16711680
0.17505966 0.0458019 -1.4042922 16711680
0.17259794 0.042737342 -1.4041703 16711680
0.16972145 0.040248193 -1.404338 16711680
0.18088232 0.071515799 -1.3904569 16711680
0.18154018 0.06920483 -1.392626 16711680
0.18217283 0.064672068 -1.3947431 16711680
0.18193568 0.059995729 -1.3968382 16711680
0.18100575 0.055483796 -1.3987832 16711680
0.17935741 0.050979104 -1.4006243 16711680
0.17693561 0.046856418 -1.4022484 16711680
0.17524141 0.044100091 -1.4022394 16711680
0.092283331 0.085308403 -1.3800647 16711680
0.090925649 0.082701147 -1.3804798 16711680
0.08891505 0.078490727 -1.3822249 16711680
0.087403566 0.074013539 -1.3842537 16711680
0.086477339 0.069496647 -1.3861806 16711680
0.08608979 0.064758807 -1.3881358 16711680
0.086301543 0.060203955 -1.3901466 16711680
0.086592078 0.057961181 -1.3923138 16711680
0.097181678 0.090444624 -1.377215 16711680
0.094004095 0.087179065 -1.3786454 16711680
0.092365637 0.083998151 -1.3781389 16711680
0.086878233 0.057241891 -1.3895868 16711680
0.087419108 0.05501331 -1.3923624 16711680
0.089070566 0.050939292 -1.3942882 16711680
0.10244189 0.094601244 -1.3755481 16711680
0.099513456 0.092096165 -1.3758811 16711680
0.090443254 0.048269048 -1.3948674 16711680
0.092322648 0.045392796 -1.3966805 16711680
0.10775763 0.097716391 -1.3743082 16711680
0.10508101 0.096175067 -1.374411 16711680
0.094246179 0.042511687 -1.397431 16711680
0.096039519 0.040761176 -1.3986647 16711680
0.1128798 0.09876059 -1.3736352 16711680
0.10038114 0.037926793 -1.3997649 16711680
0.11893474 0.099354208 -1.3738682 16711680
0.11701561 0.098995715 -1.3733361 16711680
0.10407325 0.036194213 -1.4002888 16711680
0.10585714 0.035683345 -1.4012069 16711680
0.12328118 0.099219918 -1.373734 16711680
0.10992017 0.034220129 -1.4016391 16711680
0.12826169 0.098936334 -1.3739045 16711680
0.11467643 0.032855842 -1.4022927 16711680
0.13327999 0.098507792 -1.3744462 16711680
0.11958888 0.031816125 -1.4030815 16711680
0.13815731 0.097585574 -1.3745774 16711680
0.12450124 0.030853324 -1.4032482 16711680
0.14301158 0.096500434 -1.375109 16711680
0.12940514 0.030286025 -1.4035335 16711680
0.14781907 0.095072478 -1.3756733 16711680
0.14975519 0.092787221 -1.3742152 16711680
0.13696402 0.029754981 -1.4013277 16711680
0.1345045 0.02998326 -1.4036813 16711680
0.15203419 0.094062164 -1.3770485 16711680
0.15324315 0.092354521 -1.3759847 16711680
0.14050823 0.030090597 -1.4026947 16711680
0.13890417 0.030162036 -1.4044961 16711680
0.1572002 0.090936646 -1.3773644 16711680
0.14479603 0.030618668 -1.4032931 16711680
0.16168614 0.088773698 -1.3786347 16711680
0.16353396 0.085766196 -1.3774242 16711680
0.15253574 0.031813037 -1.4006474 16711680
0.1498104 0.031357035 -1.403254 16711680
0.16525489 0.087283477 -1.3801634 16711680
0.16680291 0.085206158 -1.37956 16711680
0.15599379 0.032558408 -1.4021901 16711680
0.15392643 0.03218466 -1.4038121 16711680
0.17051846 0.082854427 -1.3813889 16711680
0.17227477 0.079770662 -1.3814313 16711680
0.16316622 0.035455033 -1.4004242 16711680
0.16050307 0.034077767 -1.4023372 16711680
0.17293787 0.081382513 -1.3838257 16711680
0.17479005 0.077954069 -1.3833528 16711680
0.16638397 0.037107006 -1.4009433 16711680
0.16360809 0.03590079 -1.4032865 16711680
0.17748961 0.075709783 -1.384991 16711680
0.17947365 0.073034167 -1.3855652 16711680
0.17277925 0.040235467 -1.3997004 16711680
0.16984478 0.038726203 -1.4008522 16711680
0.18137583 0.070236601 -1.386495 16711680
0.1826472 0.067253985 -1.3881781 16711680
0.18350998 0.062551126 -1.3902581 16711680
0.18311262 0.058280751 -1.3930706 16711680
0.18212837 0.053488836 -1.3951195 16711680
0.18065512 0.048716053 -1.3962203 16711680
0.17803396 0.044646151 -1.3978881 16711680
0.17551303 0.041951988 -1.3987012 16711680
0.18401629 0.059797786 -1.3892819 16711680
0.18358077 0.057101462 -1.3913059 16711680
0.18271481 0.052873705 -1.3931118 16711680
0.18192606 0.049621284 -1.393653 16711680
0.091276437 0.080210969 -1.3770837 16711680
0.089824922 0.076277241 -1.3778292 16711680
0.088359624 0.071990937 -1.3796213 16711680
0.087376475 0.067215674 -1.3816762 16711680
0.087047771 0.062751435 -1.3836374 16711680
0.086975321 0.059269842 -1.3860718 16711680
0.097668916 0.087975256 -1.3734857 16711680
0.095066234 0.084819764 -1.3741827 16711680
0.092598535 0.080960035 -1.3751098 16711680
0.091487914 0.077211022 -1.3748077 16711680
0.087840572 0.059435897 -1.3824812 16711680
0.087667599 0.056886885 -1.3855118 16711680
0.088543966 0.053076752 -1.3877703 16711680
0.089799717 0.049724981 -1.3899481 16711680
0.10290615 0.091937244 -1.3716851 16711680
0.10006277 0.089167029 -1.3719078 16711680
0.091404796 0.047066867 -1.3899895 16711680
0.093096539 0.044208094 -1.3921775 16711680
0.10857544 0.09527646 -1.3703182 16711680
0.10594672 0.09328486 -1.370181 16711680
0.09526711 0.04128607 -1.3924376 16711680
0.09703061 0.039269194 -1.3943355 16711680
0.11277185 0.095828488 -1.369573 16711680
0.10072997 0.036940038 -1.3948311 16711680
0.12010858 0.097661085 -1.3710328 16711680
0.11787854 0.096207425 -1.3693961 16711680
0.10514867 0.034945622 -1.3957176 16711680
0.10708419 0.034387939 -1.3982368 16711680
0.12363139 0.09701173 -1.3703389 16711680
0.1225356 0.095606059 -1.3686987 16711680
0.10978371 0.033199694 -1.3953946 16711680
0.11050665 0.033117615 -1.3977708 16711680
0.12820648 0.096296996 -1.3700126 16711680
0.12752225 0.094691694 -1.3682258 16711680
0.11458406 0.031802196 -1.3952243 16711680
0.11494503 0.031811066 -1.3977031 16711680
0.13301711 0.095524557 -1.3701124 16711680
0.13291311 0.093683325 -1.3683325 16711680
0.12002949 0.030694198 -1.3953733 16711680
0.11984131 0.030729551 -1.3979149 16711680
0.13787043 0.094751418 -1.3707066 16711680
0.13824175 0.09284728 -1.3691543 16711680
0.12536335 0.030018099 -1.3961319 16711680
0.12458272 0.030029465 -1.3984954 16711680
0.14261989 0.094045453 -1.3718364 16711680
0.14306039 0.091851451 -1.3703091 16711680
0.13025077 0.029836427 -1.3969828 16711680
0.12937497 0.029675741 -1.3994682 16711680
0.1471417 0.093239367 -1.3732134 16711680
0.14762576 0.090687342 -1.3717494 16711680
0.13523233 0.030060839 -1.3977923 16711680
0.13372032 0.02962295 -1.4004042 16711680
0.15207569 0.088901483 -1.3730501 16711680
0.15323678 0.085486606 -1.3720406 16711680
0.14219213 0.031662151 -1.3951498 16711680
0.14002453 0.030572649 -1.3981625 16711680
0.15652665 0.087531351 -1.3745739 16711680
0.15692373 0.084506914 -1.3732798 16711680
0.14598888 0.03189091 -1.3958718 16711680
0.14484482 0.031039678 -1.3987913 16711680
0.16044895 0.086367741 -1.3759716 16711680
0.16148885 0.083501354 -1.374929 16711680
0.15087974 0.032146178 -1.3970369 16711680
0.14912356 0.031419534 -1.3996561 16711680
0.16581021 0.081737101 -1.3763181 16711680
0.16732448 0.078272633 -1.3755608 16711680
0.15792872 0.033895589 -1.3945326 16711680
0.15567905 0.032785065 -1.3973554 16711680
0.16935022 0.080465719 -1.3781486 16711680
0.17059556 0.07723207 -1.3778684 16711680
0.16188027 0.035108715 -1.3959422 16711680
0.15975201 0.033706985 -1.39824 16711680
0.17417212 0.07497213 -1.3795687 16711680
0.1759496 0.072519869 -1.378931 16711680
0.16867733 0.03705512 -1.3941797 16711680
0.16630328 0.036552377 -1.396082 16711680
0.17693956 0.073922619 -1.3815289 16711680
0.17899327 0.070865236 -1.3810488 16711680
0.17237423 0.038564485 -1.3949425 16711680
0.16951215 0.037669711 -1.3971684 16711680
0.18148184 0.068424404 -1.3825709 16711680
0.18319231 0.065129623 -1.3835495 16711680
0.18427616 0.061554506 -1.3856261 16711680
0.18105245 0.045865603 -1.3923656 16711680
0.17854145 0.042512923 -1.39326 16711680
0.17570011 0.040325463 -1.3946496 16711680
0.18453582 0.059457596 -1.3858533 16711680
0.18435498 0.055642657 -1.3875875 16711680
0.18338874 0.050940596 -1.389606 16711680
0.18202946 0.047265161 -1.3911021 16711680
0.090713441 0.074452311 -1.3751616 16711680
0.089485168 0.070101961 -1.3765105 16711680
0.088640846 0.065832928 -1.3782718 16711680
0.088100046 0.061754327 -1.3806198 16711680
0.09815222 0.085652113 -1.3709558 16711680
0.096426964 0.082155995 -1.37061 16711680
0.094123662 0.078256227 -1.3714793 16711680
0.092038408 0.073983453 -1.3728702 16711680
0.090719998 0.068988182 -1.3740944 16711680
0.089787178 0.064457379 -1.3760425 16711680
0.089139752 0.060081828 -1.3788822 16711680
0.089462146 0.055613123 -1.3812404 16711680
0.090188622 0.051762141 -1.3836856 16711680
0.090687573 0.049252942 -1.3865082 16711680
0.10371754 0.089562535 -1.3689229 16711680
0.10146618 0.086253487 -1.3684759 16711680
0.098903246 0.082660101 -1.368457 16711680
0.091969028 0.049171597 -1.3829067 16711680
0.093185872 0.046018191 -1.385805 16711680
0.094237775 0.04350365 -1.3887269 16711680
0.10921495 0.093081638 -1.3678186 16711680
0.10716674 0.089917749 -1.3668401 16711680
0.10481869 0.086665392 -1.3663558 16711680
0.095884994 0.043152682 -1.3850298 16711680
0.097011968 0.040667474 -1.3880419 16711680
0.098536298 0.038362503 -1.3907312 16711680
0.11302373 0.092635691 -1.3664802 16711680
0.11156063 0.090407416 -1.3651235 16711680
0.10074723 0.037662104 -1.3877926 16711680
0.10153839 0.036728889 -1.3904811 16711680
0.11777174 0.09232717 -1.3658324 16711680
0.1155751 0.089961618 -1.3641769 16711680
0.10450366 0.03593348 -1.3873901 16711680
0.1059128 0.034902804 -1.3904808 16711680
0.1227629 0.092295118 -1.3658705 16711680
0.11058906 0.03328082 -1.3911402 16711680
0.1277225 0.091737792 -1.3659468 16711680
0.11536711 0.032007411 -1.391661 16711680
0.13267626 0.090969883 -1.3663596 16711680
0.12036756 0.031112429 -1.3920733 16711680
0.13751337 0.089726202 -1.3669912 16711680
0.12538739 0.030704383 -1.392383 16711680
0.14206259 0.088321954 -1.3680036 16711680
0.1425523 0.085112832 -1.3669862 16711680
0.13165776 0.031947613 -1.389806 16711680
0.13028899 0.030760355 -1.3928119 16711680
0.14647573 0.087300509 -1.3695455 16711680
0.14667499 0.083467767 -1.3686045 16711680
0.14782886 0.079613335 -1.3690097 16711680
0.13865584 0.035052963 -1.3881339 16711680
0.13621598 0.032707907 -1.3904095 16711680
0.1349138 0.031030949 -1.3937135 16711680
0.15021594 0.086339131 -1.3709536 16711680
0.15109086 0.082719207 -1.3704967 16711680
0.15107447 0.078672439 -1.3701825 16711680
0.14217395 0.035378665 -1.3887702 16711680
0.14092332 0.033018798 -1.3918831 16711680
0.13896681 0.031385049 -1.3945396 16711680
0.15583766 0.081721365 -1.3720584 16711680
0.15549494 0.077488482 -1.3713487 16711680
0.1468911 0.035435952 -1.3894535 16711680
0.14583349 0.033182517 -1.3928894 16711680
0.16056649 0.080304503 -1.373301 16711680
0.16031763 0.076673292 -1.3724685 16711680
0.15187071 0.035161134 -1.3902373 16711680
0.15092999 0.033365808 -1.3934423 16711680
0.1641462 0.079421654 -1.3743532 16711680
0.1650756 0.075535394 -1.3736155 16711680
0.15672927 0.035063524 -1.3909875 16711680
0.15504517 0.033549964 -1.3939719 16711680
0.16940674 0.073784232 -1.374856 16711680
0.17024924 0.071376696 -1.3735236 16711680
0.16294138 0.035892755 -1.3887324 16711680
0.16152227 0.035587691 -1.3912483 16711680
0.17286648 0.072887115 -1.3764908 16711680
0.17449412 0.07034038 -1.3755631 16711680
0.16751343 0.036545504 -1.3900414 16711680
0.16530639 0.036139257 -1.3922665 16711680
0.17852023 0.067840986 -1.3770219 16711680
0.18025193 0.065070197 -1.3761241 16711680
0.17485914 0.038422514 -1.3879957 16711680
0.17233787 0.037806794 -1.3899885 16711680
0.18107358 0.066472709 -1.3788017 16711680
0.18287858 0.063290343 -1.3788701 16711680
0.18453388 0.060248487 -1.3806716 16711680
0.18101355 0.043108769 -1.387997 16711680
0.17817914 0.04048679 -1.3886575 16711680
0.17543805 0.039051797 -1.3905566 16711680
0.18496923 0.057795238 -1.3812994 16711680
0.18494287 0.053510174 -1.3831862 16711680
0.18401781 0.049001515 -1.3851202 16711680
0.18229957 0.044941522 -1.3868876 16711680
0.097291328 0.079276517 -1.3682371 16711680
0.095905796 0.075978428 -1.3685623 16711680
0.094337255 0.071543634 -1.3692982 16711680
0.092902035 0.067082919 -1.3707497 16711680
0.091978312 0.06257344 -1.3726808 16711680
0.091621593 0.058228392 -1.3749928 16711680
0.091517955 0.054354951 -1.377787 16711680
0.091597453 0.051655591 -1.3801281 16711680
0.10277711 0.083293855 -1.3658926 16711680
0.10055819 0.079693347 -1.3659203 16711680
0.098274723 0.0757581 -1.366338 16711680
0.09659712 0.071445249 -1.3668349 16711680
0.093385488 0.055843849 -1.3735411 16711680
0.09344922 0.052203812 -1.3764406 16711680
0.094175816 0.04867401 -1.3792541 16711680
0.09480831 0.045794915 -1.3822469 16711680
0.10813373 0.086918667 -1.3646421 16711680
0.1061848 0.083545759 -1.3642277 16711680
0.104207 0.07978829 -1.3637556 16711680
0.097251326 0.045874096 -1.3783031 16711680
0.097886495 0.043173227 -1.3815718 16711680
0.09882234 0.040446274 -1.3846012 16711680
0.11220468 0.087007627 -1.3631659 16711680
0.11056003 0.083316788 -1.3624377 16711680
0.10176527 0.040616699 -1.3807769 16711680
0.10220097 0.038247962 -1.3840542 16711680
0.11798049 0.08967521 -1.3638982 16711680
0.11688 0.086810693 -1.3623949 16711680
0.11434102 0.083447717 -1.3615212 16711680
0.10509743 0.038625214 -1.3807749 16711680
0.10658213 0.036258433 -1.3840079 16711680
0.10678348 0.035131037 -1.3872893 16711680
0.12254616 0.089134037 -1.3636863 16711680
0.12188906 0.086219601 -1.362092 16711680
0.1113151 0.034741431 -1.3841692 16711680
0.11120486 0.033785436 -1.3874418 16711680
0.1274012 0.088187233 -1.3636622 16711680
0.1268588 0.085431539 -1.3622566 16711680
0.11622685 0.033681292 -1.3844761 16711680
0.11600585 0.032746397 -1.387466 16711680
0.13220748 0.087602973 -1.3643209 16711680
0.13189888 0.084182203 -1.3629072 16711680
0.12137702 0.033200849 -1.3848429 16711680
0.12066059 0.032001123 -1.3881179 16711680
0.13643926 0.086613461 -1.3650992 16711680
0.13654451 0.083179757 -1.3641484 16711680
0.13682476 0.079217471 -1.3639407 16711680
0.12780617 0.035442542 -1.3827212 16711680
0.12627108 0.033219337 -1.3855429 16711680
0.12501076 0.031685151 -1.3887523 16711680
0.13953145 0.085980393 -1.365925 16711680
0.14107621 0.082424149 -1.3658673 16711680
0.1408993 0.077884048 -1.3654844 16711680
0.13227783 0.035995938 -1.3834652 16711680
0.13098188 0.033337936 -1.3869442 16711680
0.12837298 0.031646624 -1.3892807 16711680
0.14488223 0.08107467 -1.3675718 16711680
0.14543715 0.076874882 -1.3673251 16711680
0.14604276 0.073222399 -1.3666645 16711680
0.13874358 0.038072318 -1.3816746 16711680
0.1371329 0.036383808 -1.3847476 16711680
0.13531975 0.034036919 -1.3878732 16711680
0.14996609 0.075704277 -1.3688827 16711680
0.14993773 0.072078742 -1.3678148 16711680
0.14299259 0.038262136 -1.3823289 16711680
0.14186436 0.036667004 -1.3857019 16711680
0.15463409 0.074612387 -1.3700529 16711680
0.1545388 0.071123607 -1.3688266 16711680
0.14779398 0.038047194 -1.3829887 16711680
0.14692271 0.03670631 -1.386212 16711680
0.15962043 0.073477089 -1.370874 16711680
0.15939805 0.070300266 -1.3694366 16711680
0.15261748 0.037346222 -1.3835908 16711680
0.15196462 0.036278218 -1.3868389 16711680
0.1642379 0.072407752 -1.3716456 16711680
0.1643758 0.069661036 -1.3701286 16711680
0.15753195 0.036555693 -1.3843945 16711680
0.15708512 0.035900127 -1.3874369 16711680
0.16913687 0.068659358 -1.3710048 16711680
0.16250268 0.036219344 -1.3849443 16711680
0.17379275 0.066698164 -1.371931 16711680
0.1757108 0.063787155 -1.3707424 16711680
0.17021738 0.036906485 -1.3822929 16711680
0.16753253 0.036529291 -1.3850064 16711680
0.17737874 0.065313682 -1.3733979 16711680
0.17902482 0.06325309 -1.3729742 16711680
0.17375976 0.037687752 -1.3839426 16711680
0.17153163 0.037220761 -1.3854476 16711680
0.18253046 0.060839631 -1.3748345 16711680
0.18434319 0.057799526 -1.3752608 16711680
0.18087709 0.040939629 -1.3824741 16711680
0.17814538 0.039351389 -1.3840389 16711680
0.18511017 0.055812828 -1.3768817 16711680
0.18524724 0.051495187 -1.3786166 16711680
0.18431766 0.046974964 -1.3805625 16711680
0.18249202 0.043072995 -1.3823398 16711680
0.095594853 0.068667032 -1.3674921 16711680
0.094733685 0.065130651 -1.3684242 16711680
0.093990847 0.061537821 -1.3699749 16711680
0.093523286 0.058631256 -1.3717275 16711680
0.10226703 0.076949865 -1.3638625 16711680
0.10042815 0.073333681 -1.3640682 16711680
0.098472856 0.068841793 -1.3647563 16711680
0.096755907 0.064412855 -1.3661401 16711680
0.095795296 0.059729774 -1.3681515 16711680
0.095620945 0.055329978 -1.3706989 16711680
0.095919132 0.051440179 -1.3734807 16711680
0.096365258 0.048448201 -1.3760996 16711680
0.10771631 0.080413453 -1.3624624 16711680
0.10564444 0.076847389 -1.3621976 16711680
0.10359439 0.072851494 -1.3619366 16711680
0.1014899 0.069080979 -1.3622689 16711680
0.098095715 0.052471694 -1.3693925 16711680
0.098773494 0.04912129 -1.3721216 16711680
0.099259198 0.046142168 -1.3754935 16711680
0.099893019 0.043683756 -1.3781679 16711680
0.11142449 0.080471143 -1.3614922 16711680
0.10988984 0.076462723 -1.3606906 16711680
0.1073803 0.073348366 -1.3602432 16711680
0.10174732 0.046456579 -1.3718486 16711680
0.10321069 0.043863408 -1.3747503 16711680
0.10337614 0.041466288 -1.378237 16711680
0.11746657 0.083533883 -1.3611284 16711680
0.11598322 0.080031373 -1.3606974 16711680
0.11498676 0.076148883 -1.3598275 16711680
0.10794431 0.041802488 -1.37458 16711680
0.10765599 0.039603975 -1.3781074 16711680
0.10797817 0.037229337 -1.3810039 16711680
0.12189298 0.082940832 -1.3609666 16711680
0.12085225 0.078929253 -1.3603697 16711680
0.12035652 0.075723976 -1.3596194 16711680
0.11309718 0.040107105 -1.3749349 16711680
0.11253978 0.038471315 -1.3777404 16711680
0.11212056 0.036081553 -1.381062 16711680
0.12645991 0.082353324 -1.3612967 16711680
0.12582996 0.078041032 -1.3606871 16711680
0.12532143 0.07492584 -1.359957 16711680
0.11803963 0.039202757 -1.3752978 16711680
0.11750442 0.037591577 -1.3780539 16711680
0.11667289 0.035127208 -1.381537 16711680
0.13089098 0.081314601 -1.3620563 16711680
0.13071518 0.077537745 -1.361658 16711680
0.13064568 0.073738441 -1.3609155 16711680
0.12345818 0.038840327 -1.3759087 16711680
0.12237234 0.036959063 -1.379069 16711680
0.12129475 0.03479939 -1.3820146 16711680
0.13378134 0.080321938 -1.3628789 16711680
0.13536744 0.076687731 -1.3630122 16711680
0.1352673 0.072423421 -1.362141 16711680
0.12837996 0.038980529 -1.3765028 16711680
0.12713562 0.036870953 -1.380096 16711680
0.12453431 0.035003603 -1.3823646 16711680
0.13967691 0.075294793 -1.3644383 16711680
0.13981746 0.0713057 -1.363667 16711680
0.1407333 0.067605473 -1.3632654 16711680
0.13522263 0.040969905 -1.3747007 16711680
0.13326751 0.039240867 -1.3774372 16711680
0.13174315 0.037340421 -1.3806413 16711680
0.14288339 0.074193373 -1.3655647 16711680
0.14427255 0.070384078 -1.3653096 16711680
0.14440651 0.066368587 -1.3646214 16711680
0.13934234 0.041527998 -1.375242 16711680
0.1379202 0.039438006 -1.3786517 16711680
0.13543414 0.037731823 -1.3812093 16711680
0.14902842 0.069154926 -1.3668157 16711680
0.1486806 0.064919092 -1.3660095 16711680
0.14921221 0.061483923 -1.3659098 16711680
0.14556803 0.043820322 -1.3735207 16711680
0.14400491 0.041897289 -1.3759418 16711680
0.14286698 0.039698109 -1.3794569 16711680
0.15399703 0.067851186 -1.3677944 16711680
0.15349448 0.063957937 -1.3670369 16711680
0.15289803 0.060300551 -1.3666495 16711680
0.14948319 0.043887958 -1.3736876 16711680
0.14884217 0.04163263 -1.3766375 16711680
0.14818537 0.039550304 -1.3799465 16711680
0.15895624 0.067012392 -1.3682005 16711680
0.15836488 0.063233182 -1.3673066 16711680
0.15738016 0.059688829 -1.3668998 16711680
0.15391724 0.042948507 -1.3740865 16711680
0.15374148 0.040683508 -1.3769571 16711680
0.15312044 0.038705572 -1.3803549 16711680
0.16388506 0.066261671 -1.3683807 16711680
0.16328916 0.062749743 -1.3671494 16711680
0.16057853 0.059674341 -1.3667583 16711680
0.15685928 0.041796006 -1.3744373 16711680
0.15845543 0.039198987 -1.3772624 16711680
0.15799622 0.03764762 -1.3806775 16711680
0.16864909 0.065180935 -1.3686146 16711680
0.16832703 0.062316392 -1.3671043 16711680
0.1632885 0.037752487 -1.3776584 16711680
0.1628194 0.036904193 -1.3807505 16711680
0.17265311 0.064395644 -1.3694558 16711680
0.17356183 0.06187759 -1.3680359 16711680
0.1683595 0.036930889 -1.3787692 16711680
0.16694519 0.036640584 -1.3813792 16711680
0.17812786 0.060324404 -1.3693935 16711680
0.17329806 0.037306841 -1.3791881 16711680
0.18174577 0.058141392 -1.3705775 16711680
0.18375874 0.055710435 -1.370935 16711680
0.18031655 0.039374784 -1.3778727 16711680
0.17767268 0.03832211 -1.3790673 16711680
0.18505028 0.0533778 -1.3725073 16711680
0.18527302 0.049371555 -1.3741419 16711680
0.18440625 0.04515712 -1.3759493 16711680
0.18262483 0.041572314 -1.3775738 16711680
0.10033229 0.06634514 -1.3627168 16711680
0.099126592 0.06243993 -1.3636615 16711680
0.098332942 0.058383182 -1.3653623 16711680
0.097983241 0.055231884 -1.3674102 16711680
0.10523717 0.06997177 -1.3599625 16711680
0.10308124 0.066259392 -1.36031 16711680
0.10129212 0.061675511 -1.3613408 16711680
0.10021279 0.056645043 -1.3635386 16711680
0.10021915 0.052312218 -1.3663449 16711680
0.10099546 0.048996024 -1.3689407 16711680
0.11076711 0.073286518 -1.3591632 16711680
0.10884404 0.070458598 -1.3582115 16711680
0.10639277 0.066872038 -1.3576366 16711680
0.10274509 0.048990663 -1.3652755 16711680
0.10390723 0.046316631 -1.3685279 16711680
0.10488132 0.044587169 -1.3714331 16711680
0.11503279 0.07283289 -1.3580657 16711680
0.112786 0.070627838 -1.3567017 16711680
0.10732964 0.043813031 -1.3682022 16711680
0.10890534 0.042605571 -1.3710773 16711680
0.12008611 0.072938442 -1.358116 16711680
0.11349658 0.040927753 -1.3718696 16711680
0.12502044 0.072024524 -1.3585036 16711680
0.11848365 0.040118139 -1.3722059 16711680
0.12954722 0.070568442 -1.3593239 16711680
0.13087548 0.067262754 -1.3581569 16711680
0.12541841 0.040905535 -1.3695585 16711680
0.12326065 0.040096149 -1.3724271 16711680
0.134131 0.06943237 -1.3608685 16711680
0.13438666 0.066230096 -1.3597863 16711680
0.12935778 0.041552063 -1.370337 16711680
0.12804796 0.040323813 -1.3734078 16711680
0.13774759 0.068515405 -1.3621556 16711680
0.13876671 0.06482029 -1.3617424 16711680
0.13945121 0.060542397 -1.3613685 16711680
0.1361033 0.044571251 -1.3681273 16711680
0.1341527 0.042325683 -1.3714088 16711680
0.13201883 0.04062672 -1.3741338 16711680
0.14295718 0.063656583 -1.3636419 16711680
0.14286588 0.059258871 -1.3633124 16711680
0.14314887 0.054409523 -1.3640945 16711680
0.14203982 0.049057513 -1.3663912 16711680
0.14004424 0.045556433 -1.3691984 16711680
0.138653 0.042952832 -1.3725449 16711680
0.14678575 0.062481523 -1.3651519 16711680
0.14741442 0.05899097 -1.3653876 16711680
0.14665779 0.054054148 -1.3659666 16711680
0.14577892 0.0494361 -1.3679742 16711680
0.14472817 0.04560459 -1.3711917 16711680
0.14289208 0.043487787 -1.373324 16711680
0.15234894 0.05772718 -1.366715 16711680
0.1513491 0.053441726 -1.3674409 16711680
0.15049514 0.049269836 -1.3692335 16711680
0.14988486 0.045732602 -1.3718643 16711680
0.15757316 0.057115391 -1.3669636 16711680
0.15674987 0.0526089 -1.3677768 16711680
0.15584634 0.048235789 -1.3696545 16711680
0.15498868 0.044539716 -1.3723625 16711680
0.16409209 0.059540011 -1.3663583 16711680
0.16254526 0.056467317 -1.36639 16711680
0.16156 0.051663816 -1.3671924 16711680
0.16054781 0.04680847 -1.3692814 16711680
0.15976226 0.042842213 -1.3722546 16711680
0.1598905 0.040433045 -1.3746697 16711680
0.16815484 0.059238628 -1.3658494 16711680
0.1673196 0.055115629 -1.3652343 16711680
0.16565591 0.050281376 -1.3661559 16711680
0.1646609 0.045538075 -1.3682128 16711680
0.16448081 0.041324381 -1.3711604 16711680
0.16396584 0.038878769 -1.3745916 16711680
0.17306891 0.057984885 -1.365221 16711680
0.17154691 0.055200562 -1.3640345 16711680
0.16821595 0.039012164 -1.3709918 16711680
0.16884705 0.037568972 -1.3740163 16711680
0.17756598 0.056906667 -1.3658725 16711680
0.17822306 0.054893609 -1.364413 16711680
0.17462018 0.037240546 -1.3720222 16711680
0.1735265 0.037211299 -1.3743267 16711680
0.18074939 0.056025155 -1.3672743 16711680
0.18262814 0.053362004 -1.3667181 16711680
0.17954147 0.038338337 -1.3731765 16711680
0.17686096 0.037653785 -1.3751446 16711680
0.18472055 0.05110307 -1.3684363 16711680
0.18500599 0.04775257 -1.3691434 16711680
0.18398231 0.042776354 -1.3712775 16711680
0.18253668 0.040313907 -1.373054 16711680
0.10505506 0.063596383 -1.3576264 16711680
0.10365973 0.059523351 -1.3583882 16711680
0.10277086 0.055092156 -1.3602539 16711680
0.10256641 0.051520467 -1.3628212 16711680
0.109823 0.067178234 -1.3551127 16711680
0.1070641 0.063868023 -1.3554553 16711680
0.10531531 0.059190903 -1.3558857 16711680
0.10404184 0.053012639 -1.3585398 16711680
0.10404463 0.049152922 -1.361756 16711680
0.10543619 0.045919009 -1.3642646 16711680
0.11615651 0.069549732 -1.3542695 16711680
0.11352237 0.068514496 -1.3539208 16711680
0.10828179 0.042973466 -1.3648839 16711680
0.11022244 0.041791596 -1.3661832 16711680
0.11961015 0.069433689 -1.3538784 16711680
0.11358871 0.040309101 -1.3662968 16711680
0.12466811 0.068441495 -1.354452 16711680
0.11877832 0.039652478 -1.3667895 16711680
0.12776588 0.067407906 -1.3556279 16711680
0.12964037 0.065695837 -1.3554763 16711680
0.12444502 0.040444281 -1.3663133 16711680
0.12209455 0.040063605 -1.3672998 16711680
0.13334315 0.063030571 -1.3571622 16711680
0.13492437 0.059918441 -1.3569804 16711680
0.13141842 0.043317933 -1.3640532 16711680
0.12904692 0.042068347 -1.3661665 16711680
0.13666555 0.061958712 -1.3596907 16711680
0.13747704 0.058304198 -1.3593106 16711680
0.13831878 0.053499144 -1.3600179 16711680
0.13728836 0.048435554 -1.3622175 16711680
0.13477848 0.045166992 -1.3649489 16711680
0.13250609 0.04327862 -1.3675723 16711680
0.1405607 0.05698638 -1.3619146 16711680
0.14067739 0.05342878 -1.3625851 16711680
0.13988706 0.04940125 -1.3643742 16711680
0.13845779 0.04680118 -1.3662786 16711680
0.1691954 0.05233271 -1.3642795 16711680
0.16798133 0.048935689 -1.3652679 16711680
0.16716836 0.045014545 -1.366955 16711680
0.16703735 0.041789338 -1.3687974 16711680
0.1726999 0.052294508 -1.3623879 16711680
0.17070703 0.047964759 -1.363212 16711680
0.16976839 0.043263678 -1.3652016 16711680
0.16999008 0.039376013 -1.3679209 16711680
0.17730224 0.05235187 -1.3618301 16711680
0.17426142 0.037329674 -1.3682494 16711680
0.18189831 0.050401188 -1.3630031 16711680
0.18360771 0.047026947 -1.3625697 16711680
0.18205936 0.039217021 -1.3657455 16711680
0.17939372 0.037871875 -1.368348 16711680
0.18431112 0.048936076 -1.3650997 16711680
0.18431556 0.045648783 -1.3650182 16711680
0.18345161 0.041443106 -1.3668243 16711680
0.18233781 0.039414842 -1.3691746 16711680
0.10463786 0.056294486 -1.3564719 16711680
0.10440847 0.055233836 -1.357013 16711680
0.11048681 0.064620391 -1.3501973 16711680
0.10764811 0.061400358 -1.35179 16711680
0.1056689 0.057340033 -1.3535048 16711680
0.10464419 0.052372716 -1.3556465 16711680
0.1048774 0.047960795 -1.3575524 16711680
0.10621676 0.043838225 -1.3591007 16711680
0.11593795 0.067523062 -1.3485869 16711680
0.1134195 0.066650525 -1.34991 16711680
0.10820338 0.041428547 -1.3607576 16711680
0.1101485 0.038938358 -1.3607389 16711680
0.11993281 0.068104088 -1.3488239 16711680
0.11364534 0.037525401 -1.3619586 16711680
0.12502997 0.067024909 -1.3494276 16711680
0.11883675 0.036912315 -1.3623526 16711680
0.12844861 0.065167934 -1.3494673 16711680
0.13013406 0.06380102 -1.3513677 16711680
0.12486352 0.038626097 -1.3622692 16711680
0.12269007 0.037053224 -1.3616414 16711680
0.13328862 0.060821451 -1.3517405 16711680
0.13486117 0.058574367 -1.3540038 16711680
0.13148606 0.04215432 -1.3610554 16711680
0.1289055 0.039681159 -1.3608423 16711680
0.13613872 0.058162138 -1.3509104 16711680
0.13692662 0.055682123 -1.3538628 16711680
0.13793977 0.051855948 -1.3561591 16711680
0.1368978 0.0469326 -1.3583806 16711680
0.13428351 0.043166704 -1.3592815 16711680
0.13238336 0.039763771 -1.3587494 16711680
0.13938995 0.049389195 -1.3546933 16711680
0.1388694 0.046893641 -1.3557665 16711680
0.17418575 0.049146339 -1.3598535 16711680
0.17309113 0.045885142 -1.360243 16711680
0.17224008 0.041720867 -1.3620189 16711680
0.17209142 0.039051399 -1.364203 16711680
0.17701644 0.048721187 -1.3590213 16711680
0.17581724 0.045224942 -1.3579491 16711680
0.17459662 0.039726518 -1.3603345 16711680
0.17476764 0.037760708 -1.3637 16711680
0.18064961 0.04777417 -1.3596953 16711680
0.18167183 0.044336759 -1.3596214 16711680
0.18065535 0.039380819 -1.3617421 16711680
0.17860577 0.037610643 -1.3641591 16711680
0.18353513 0.043775219 -1.3625562 16711680
0.18300512 0.041185457 -1.3636672 16711680
0.10639454 0.061896678 -1.3440351 16711680
0.10497723 0.059132021 -1.3460644 16711680
0.10361774 0.055170253 -1.348436 16711680
0.10273816 0.050867688 -1.3502895 16711680
0.10233963 0.046322286 -1.3515794 16711680
0.10228792 0.04273884 -1.352129 16711680
0.1115662 0.06583935 -1.3427515 16711680
0.10940938 0.063942619 -1.3451616 16711680
0.10690767 0.060553379 -1.3478456 16711680
0.1052954 0.056350484 -1.3507054 16711680
0.10422654 0.051116668 -1.3529598 16711680
0.10395475 0.046026312 -1.3541757 16711680
0.10471758 0.041107707 -1.3549674 16711680
0.10575008 0.037488304 -1.3549243 16711680
0.11523659 0.067165837 -1.3437737 16711680
0.11267237 0.065963037 -1.346571 16711680
