# .PCD v0.7 - Point Cloud Data file format
VERSION 0.7
FIELDS x y z rgb
SIZE 4 4 4 4
TYPE F F F U
COUNT 1 1 1 1
WIDTH 1243
HEIGHT 1
VIEWPOINT 0 0 0 1 0 0 0
POINTS 1243
DATA ascii
-0.253775 -0.037068199 -1.4675601 65280
-0.25092301 -0.037068199 -1.4675601 65280
-0.248072 -0.037068199 -1.4675601 65280
-0.24522001 -0.037068199 -1.4675601 65280
-0.242369 -0.037068199 -1.4675601 65280
-0.239518 -0.037068199 -1.4675601 65280
-0.23666599 -0.037068199 -1.4675601 65280
-0.233815 -0.037068199 -1.4675601 65280
-0.23096301 -0.037068199 -1.4675601 65280
-0.228112 -0.037068199 -1.4675601 65280
-0.225261 -0.037068199 -1.4675601 65280
-0.222409 -0.037068199 -1.4675601 65280
-0.219558 -0.037068199 -1.4675601 65280
-0.21670599 -0.037068199 -1.4675601 65280
-0.213855 -0.037068199 -1.4675601 65280
-0.211004 -0.037068199 -1.4675601 65280
-0.208152 -0.037068199 -1.4675601 65280
-0.205301 -0.037068199 -1.4675601 65280
-0.20244899 -0.037068199 -1.4675601 65280
-0.199598 -0.037068199 -1.4675601 65280
-0.196747 -0.037068199 -1.4675601 65280
-0.193895 -0.037068199 -1.4675601 65280
-0.191044 -0.037068199 -1.4675601 65280
-0.188192 -0.037068199 -1.4675601 65280
-0.185341 -0.037068199 -1.4675601 65280
-0.18249001 -0.037068199 -1.4675601 65280
-0.179638 -0.037068199 -1.4675601 65280
-0.176787 -0.037068199 -1.4675601 65280
-0.161369 -0.0343902 -1.36154 65280
-0.15818501 -0.034273401 -1.35691 65280
-0.155259 -0.034209602 -1.35439 65280
-0.152403 -0.034159198 -1.3523901 65280
-0.14960299 -0.0341199 -1.35084 65280
-0.14684799 -0.0340898 -1.34964 65280
-0.144164 -0.034075201 -1.34907 65280
-0.141546 -0.0340758 -1.34909 65280
-0.138981 -0.0340898 -1.34965 65280
-0.136476 -0.034118898 -1.3508 65280
-0.13403501 -0.034165699 -1.35265 65280
-0.131666 -0.034233101 -1.35532 65280
-0.129245 -0.034289401 -1.35755 65280
-0.126886 -0.034364901 -1.36054 65280
-0.124617 -0.034468401 -1.36464 65280
-0.122646 -0.034660898 -1.37226 65280
-0.128313 -0.037068199 -1.4675601 65280
-0.125462 -0.037068199 -1.4675601 65280
-0.12261 -0.037068199 -1.4675601 65280
-0.119759 -0.037068199 -1.4675601 65280
-0.116907 -0.037068199 -1.4675601 65280
-0.114056 -0.037068199 -1.4675601 65280
-0.111205 -0.037068199 -1.4675601 65280
-0.108353 -0.037068199 -1.4675601 65280
-0.105502 -0.037068199 -1.4675601 65280
-0.10265 -0.037068199 -1.4675601 65280
-0.099799 -0.037068199 -1.4675601 65280
-0.096947603 -0.037068199 -1.4675601 65280
-0.094096199 -0.037068199 -1.4675601 65280
-0.091244802 -0.037068199 -1.4675601 65280
-0.088393398 -0.037068199 -1.4675601 65280
-0.085542001 -0.037068199 -1.4675601 65280
-0.082690597 -0.037068199 -1.4675601 65280
-0.0798392 -0.037068199 -1.4675601 65280
-0.076987803 -0.037068199 -1.4675601 65280
-0.074136399 -0.037068199 -1.4675601 65280
-0.071285002 -0.037068199 -1.4675601 65280
-0.068433598 -0.037068199 -1.4675601 65280
-0.065582201 -0.037068199 -1.4675601 65280
-0.062730797 -0.037068199 -1.4675601 65280
-0.0598794 -0.037068199 -1.4675601 65280
-0.057027999 -0.037068199 -1.4675601 65280
-0.054176599 -0.037068199 -1.4675601 65280
-0.051325198 -0.037068199 -1.4675601 65280
-0.048473801 -0.037068199 -1.4675601 65280
-0.045622401 -0.037068199 -1.4675601 65280
-0.042771 -0.037068199 -1.4675601 65280
-0.0399196 -0.037068199 -1.4675601 65280
-0.037068199 -0.037068199 -1.4675601 65280
-0.034216799 -0.037068199 -1.4675601 65280
-0.031365398 -0.037068199 -1.4675601 65280
-0.028514 -0.037068199 -1.4675601 65280
-0.025662599 -0.037068199 -1.4675601 65280
-0.0228112 -0.037068199 -1.4675601 65280
-0.0199598 -0.037068199 -1.4675601 65280
-0.017108399 -0.037068199 -1.4675601 65280
-0.014257 -0.037068199 -1.4675601 65280
-0.0114056 -0.037068199 -1.4675601 65280
-0.0085541997 -0.037068199 -1.4675601 65280
-0.0057028001 -0.037068199 -1.4675601 65280
-0.0028514001 -0.037068199 -1.4675601 65280
0 -0.037068199 -1.4675601 65280
0.0028514001 -0.037068199 -1.4675601 65280
0.0057028001 -0.037068199 -1.4675601 65280
0.0085541997 -0.037068199 -1.4675601 65280
0.0114056 -0.037068199 -1.4675601 65280
0.014257 -0.037068199 -1.4675601 65280
0.017108399 -0.037068199 -1.4675601 65280
0.0199598 -0.037068199 -1.4675601 65280
0.0228112 -0.037068199 -1.4675601 65280
0.025662599 -0.037068199 -1.4675601 65280
0.028514 -0.037068199 -1.4675601 65280
0.031365398 -0.037068199 -1.4675601 65280
0.034216799 -0.037068199 -1.4675601 65280
0.037068199 -0.037068199 -1.4675601 65280
0.0399196 -0.037068199 -1.4675601 65280
0.042771 -0.037068199 -1.4675601 65280
0.045622401 -0.037068199 -1.4675601 65280
0.048473801 -0.037068199 -1.4675601 65280
0.051325198 -0.037068199 -1.4675601 65280
0.054176599 -0.037068199 -1.4675601 65280
0.057027999 -0.037068199 -1.4675601 65280
0.0598794 -0.037068199 -1.4675601 65280
0.062730797 -0.037068199 -1.4675601 65280
0.065582201 -0.037068199 -1.4675601 65280
0.068433598 -0.037068199 -1.4675601 65280
0.071285002 -0.037068199 -1.4675601 65280
0.074136399 -0.037068199 -1.4675601 65280
0.076987803 -0.037068199 -1.4675601 65280
0.0798392 -0.037068199 -1.4675601 65280
0.082690597 -0.037068199 -1.4675601 65280
0.085542001 -0.037068199 -1.4675601 65280
0.088393398 -0.037068199 -1.4675601 65280
0.091244802 -0.037068199 -1.4675601 65280
0.094096199 -0.037068199 -1.4675601 65280
0.096947603 -0.037068199 -1.4675601 65280
0.099799 -0.037068199 -1.4675601 65280
0.10265 -0.037068199 -1.4675601 65280
0.105502 -0.037068199 -1.4675601 65280
0.108353 -0.037068199 -1.4675601 65280
0.111205 -0.037068199 -1.4675601 65280
0.114056 -0.037068199 -1.4675601 65280
0.116907 -0.037068199 -1.4675601 65280
0.119759 -0.037068199 -1.4675601 65280
0.12261 -0.037068199 -1.4675601 65280
0.125462 -0.037068199 -1.4675601 65280
0.128313 -0.037068199 -1.4675601 65280
0.131164 -0.037068199 -1.4675601 65280
0.13401601 -0.037068199 -1.4675601 65280
0.136867 -0.037068199 -1.4675601 65280
0.13971899 -0.037068199 -1.4675601 65280
0.14257 -0.037068199 -1.4675601 65280
0.145421 -0.037068199 -1.4675601 65280
0.14827301 -0.037068199 -1.4675601 65280
0.151124 -0.037068199 -1.4675601 65280
0.15397599 -0.037068199 -1.4675601 65280
0.156827 -0.037068199 -1.4675601 65280
0.159678 -0.037068199 -1.4675601 65280
0.16253 -0.037068199 -1.4675601 65280
0.165381 -0.037068199 -1.4675601 65280
0.16823301 -0.037068199 -1.4675601 65280
0.171084 -0.037068199 -1.4675601 65280
0.173935 -0.037068199 -1.4675601 65280
0.176787 -0.037068199 -1.4675601 65280
0.179638 -0.037068199 -1.4675601 65280
0.18249001 -0.037068199 -1.4675601 65280
0.185341 -0.037068199 -1.4675601 65280
0.188192 -0.037068199 -1.4675601 65280
0.191044 -0.037068199 -1.4675601 65280
0.193895 -0.037068199 -1.4675601 65280
0.196747 -0.037068199 -1.4675601 65280
0.199598 -0.037068199 -1.4675601 65280
0.20244899 -0.037068199 -1.4675601 65280
0.205301 -0.037068199 -1.4675601 65280
0.208152 -0.037068199 -1.4675601 65280
0.211004 -0.037068199 -1.4675601 65280
0.213855 -0.037068199 -1.4675601 65280
0.21670599 -0.037068199 -1.4675601 65280
0.219558 -0.037068199 -1.4675601 65280
0.222409 -0.037068199 -1.4675601 65280
0.225261 -0.037068199 -1.4675601 65280
0.228112 -0.037068199 -1.4675601 65280
0.23096301 -0.037068199 -1.4675601 65280
0.233815 -0.037068199 -1.4675601 65280
0.23666599 -0.037068199 -1.4675601 65280
0.239518 -0.037068199 -1.4675601 65280
0.242369 -0.037068199 -1.4675601 65280
0.24522001 -0.037068199 -1.4675601 65280
0.248072 -0.037068199 -1.4675601 65280
0.25092301 -0.037068199 -1.4675601 65280
0.253775 -0.037068199 -1.4675601 65280
0.25662601 -0.037068199 -1.4675601 65280
0.25947699 -0.037068199 -1.4675601 65280
0.26232901 -0.037068199 -1.4675601 65280
0.26517999 -0.037068199 -1.4675601 65280
0.26803201 -0.037068199 -1.4675601 65280
0.27088299 -0.037068199 -1.4675601 65280
0.273734 -0.037068199 -1.4675601 65280
0.276586 -0.037068199 -1.4675601 65280
0.27943701 -0.037068199 -1.4675601 65280
0.282289 -0.037068199 -1.4675601 65280
0.28514001 -0.037068199 -1.4675601 65280
0.28799099 -0.037068199 -1.4675601 65280
0.29084301 -0.037068199 -1.4675601 65280
0.29369399 -0.037068199 -1.4675601 65280
0.29654601 -0.037068199 -1.4675601 65280
0.29939699 -0.037068199 -1.4675601 65280
0.302248 -0.037068199 -1.4675601 65280
0.30509999 -0.037068199 -1.4675601 65280
0.307951 -0.037068199 -1.4675601 65280
0.310803 -0.037068199 -1.4675601 65280
0.31365401 -0.037068199 -1.4675601 65280
0.31650501 -0.037068199 -1.4675601 65280
0.31935701 -0.037068199 -1.4675601 65280
0.32220799 -0.037068199 -1.4675601 65280
0.32506001 -0.037068199 -1.4675601 65280
0.32791099 -0.037068199 -1.4675601 65280
0.330762 -0.037068199 -1.4675601 65280
0.33361399 -0.037068199 -1.4675601 65280
0.336465 -0.037068199 -1.4675601 65280
0.33931699 -0.037068199 -1.4675601 65280
0.342168 -0.037068199 -1.4675601 65280
0.34501901 -0.037068199 -1.4675601 65280
0.34787101 -0.037068199 -1.4675601 65280
0.35072199 -0.037068199 -1.4675601 65280
0.35357401 -0.037068199 -1.4675601 65280
0.35642499 -0.037068199 -1.4675601 65280
0.359276 -0.037068199 -1.4675601 65280
0.36212799 -0.037068199 -1.4675601 65280
0.364979 -0.037068199 -1.4675601 65280
0.36783099 -0.037068199 -1.4675601 65280
0.370682 -0.037068199 -1.4675601 65280
0.37353301 -0.037068199 -1.4675601 65280
0.376385 -0.037068199 -1.4675601 65280
0.37923601 -0.037068199 -1.4675601 65280
0.38208801 -0.037068199 -1.4675601 65280
0.38493899 -0.037068199 -1.4675601 65280
0.38778999 -0.037068199 -1.4675601 65280
0.39064199 -0.037068199 -1.4675601 65280
0.393493 -0.037068199 -1.4675601 65280
0.39634499 -0.037068199 -1.4675601 65280
-0.39883101 -0.034185499 -1.46622 65280
-0.395982 -0.034185499 -1.46622 65280
-0.39313301 -0.034185499 -1.46622 65280
-0.390284 -0.034185499 -1.46622 65280
-0.38743499 -0.034185499 -1.46622 65280
-0.38458699 -0.034185499 -1.46622 65280
-0.38173801 -0.034185499 -1.46622 65280
-0.37888899 -0.034185499 -1.46622 65280
-0.37604001 -0.034185499 -1.46622 65280
-0.373191 -0.034185499 -1.46622 65280
-0.370343 -0.034185499 -1.46622 65280
-0.36749399 -0.034185499 -1.46622 65280
-0.364645 -0.034185499 -1.46622 65280
-0.36179599 -0.034185499 -1.46622 65280
-0.35894701 -0.034185499 -1.46622 65280
-0.35609901 -0.034185499 -1.46622 65280
-0.35325 -0.034185499 -1.46622 65280
-0.35040101 -0.034185499 -1.46622 65280
-0.347552 -0.034185499 -1.46622 65280
-0.344704 -0.034185499 -1.46622 65280
-0.34185499 -0.034185499 -1.46622 65280
-0.33900601 -0.034185499 -1.46622 65280
-0.33615699 -0.034185499 -1.46622 65280
-0.33330801 -0.034185499 -1.46622 65280
-0.33046001 -0.034185499 -1.46622 65280
-0.327611 -0.034185499 -1.46622 65280
-0.32476199 -0.034185499 -1.46622 65280
-0.321913 -0.034185499 -1.46622 65280
-0.31906399 -0.034185499 -1.46622 65280
-0.31621599 -0.034185499 -1.46622 65280
-0.31336701 -0.034185499 -1.46622 65280
-0.310518 -0.034185499 -1.46622 65280
-0.30766901 -0.034185499 -1.46622 65280
-0.30482 -0.034185499 -1.46622 65280
-0.301972 -0.034185499 -1.46622 65280
-0.29912299 -0.034185499 -1.46622 65280
-0.29627401 -0.034185499 -1.46622 65280
-0.29342499 -0.034185499 -1.46622 65280
-0.29057699 -0.034185499 -1.46622 65280
-0.28772801 -0.034185499 -1.46622 65280
-0.284879 -0.034185499 -1.46622 65280
-0.28202999 -0.034185499 -1.46622 65280
-0.279181 -0.034185499 -1.46622 65280
-0.276333 -0.034185499 -1.46622 65280
-0.27348399 -0.034185499 -1.46622 65280
-0.27063501 -0.034185499 -1.46622 65280
-0.267786 -0.034185499 -1.46622 65280
-0.26493701 -0.034185499 -1.46622 65280
-0.26208901 -0.034185499 -1.46622 65280
-0.25924 -0.034185499 -1.46622 65280
-0.25639099 -0.034185499 -1.46622 65280
-0.25354201 -0.034185499 -1.46622 65280
-0.25069401 -0.034185499 -1.46622 65280
-0.24784499 -0.034185499 -1.46622 65280
-0.244996 -0.034185499 -1.46622 65280
-0.242147 -0.034185499 -1.46622 65280
-0.239298 -0.034185499 -1.46622 65280
-0.23645 -0.034185499 -1.46622 65280
-0.233601 -0.034185499 -1.46622 65280
-0.23075201 -0.034185499 -1.46622 65280
-0.22790299 -0.034185499 -1.46622 65280
-0.225054 -0.034185499 -1.46622 65280
-0.222206 -0.034185499 -1.46622 65280
-0.219357 -0.034185499 -1.46622 65280
-0.216508 -0.034185499 -1.46622 65280
-0.213659 -0.034185499 -1.46622 65280
-0.21081001 -0.034185499 -1.46622 65280
-0.20796201 -0.034185499 -1.46622 65280
-0.20511299 -0.034185499 -1.46622 65280
-0.202264 -0.034185499 -1.46622 65280
-0.199415 -0.034185499 -1.46622 65280
-0.196566 -0.034185499 -1.46622 65280
-0.193718 -0.034185499 -1.46622 65280
-0.190869 -0.034185499 -1.46622 65280
-0.18802001 -0.034185499 -1.46622 65280
-0.18517099 -0.034185499 -1.46622 65280
-0.18232299 -0.034185499 -1.46622 65280
-0.179474 -0.034185499 -1.46622 65280
-0.176625 -0.034185499 -1.46622 65280
-0.160972 -0.031666599 -1.35818 65280
-0.15789799 -0.031579599 -1.35446 65280
-0.155054 -0.0315364 -1.3526 65280
-0.152252 -0.0315005 -1.35106 65280
-0.14949299 -0.031472199 -1.3498501 65280
-0.146773 -0.0314514 -1.34896 65280
-0.144107 -0.031441599 -1.3485399 65280
-0.14150301 -0.031445201 -1.34869 65280
-0.138945 -0.031459302 -1.34929 65280
-0.136426 -0.031482901 -1.3503 65280
-0.133946 -0.031516701 -1.35176 65280
-0.13152499 -0.031566001 -1.35387 65280
-0.129094 -0.031614799 -1.35596 65280
-0.126711 -0.031677701 -1.35866 65280
-0.124399 -0.031761501 -1.36226 65280
-0.122308 -0.031906299 -1.36847 65280
-0.128196 -0.034185499 -1.46622 65280
-0.125347 -0.034185499 -1.46622 65280
-0.122498 -0.034185499 -1.46622 65280
-0.119649 -0.034185499 -1.46622 65280
-0.1168 -0.034185499 -1.46622 65280
-0.113952 -0.034185499 -1.46622 65280
-0.111103 -0.034185499 -1.46622 65280
-0.108254 -0.034185499 -1.46622 65280
-0.105405 -0.034185499 -1.46622 65280
-0.102556 -0.034185499 -1.46622 65280
-0.099707603 -0.034185499 -1.46622 65280
-0.096858799 -0.034185499 -1.46622 65280
-0.0940101 -0.034185499 -1.46622 65280
-0.091161303 -0.034185499 -1.46622 65280
-0.088312499 -0.034185499 -1.46622 65280
-0.085463703 -0.034185499 -1.46622 65280
-0.082614899 -0.034185499 -1.46622 65280
-0.079766102 -0.034185499 -1.46622 65280
-0.076917298 -0.034185499 -1.46622 65280
-0.074068502 -0.034185499 -1.46622 65280
-0.071219698 -0.034185499 -1.46622 65280
-0.068370998 -0.034185499 -1.46622 65280
-0.065522201 -0.034185499 -1.46622 65280
-0.062673397 -0.034185499 -1.46622 65280
-0.059824601 -0.034185499 -1.46622 65280
-0.056975801 -0.034185499 -1.46622 65280
-0.054127 -0.034185499 -1.46622 65280
-0.0512782 -0.034185499 -1.46622 65280
-0.0484294 -0.034185499 -1.46622 65280
-0.045580599 -0.034185499 -1.46622 65280
-0.042731799 -0.034185499 -1.46622 65280
-0.039883099 -0.034185499 -1.46622 65280
-0.037034299 -0.034185499 -1.46622 65280
-0.034185499 -0.034185499 -1.46622 65280
-0.031336699 -0.034185499 -1.46622 65280
-0.0284879 -0.034185499 -1.46622 65280
-0.0256391 -0.034185499 -1.46622 65280
-0.0227903 -0.034185499 -1.46622 65280
-0.019941499 -0.034185499 -1.46622 65280
-0.017092699 -0.034185499 -1.46622 65280
-0.0142439 -0.034185499 -1.46622 65280
-0.0113952 -0.034185499 -1.46622 65280
-0.0085463701 -0.034185499 -1.46622 65280
-0.0056975801 -0.034185499 -1.46622 65280
-0.00284879 -0.034185499 -1.46622 65280
0 -0.034185499 -1.46622 65280
0.00284879 -0.034185499 -1.46622 65280
0.0056975801 -0.034185499 -1.46622 65280
0.0085463701 -0.034185499 -1.46622 65280
0.0113952 -0.034185499 -1.46622 65280
0.0142439 -0.034185499 -1.46622 65280
0.017092699 -0.034185499 -1.46622 65280
0.019941499 -0.034185499 -1.46622 65280
0.0227903 -0.034185499 -1.46622 65280
0.0256391 -0.034185499 -1.46622 65280
0.0284879 -0.034185499 -1.46622 65280
0.031336699 -0.034185499 -1.46622 65280
0.034185499 -0.034185499 -1.46622 65280
0.037034299 -0.034185499 -1.46622 65280
0.039883099 -0.034185499 -1.46622 65280
0.042731799 -0.034185499 -1.46622 65280
0.045580599 -0.034185499 -1.46622 65280
0.0484294 -0.034185499 -1.46622 65280
0.0512782 -0.034185499 -1.46622 65280
0.054127 -0.034185499 -1.46622 65280
0.056975801 -0.034185499 -1.46622 65280
0.059824601 -0.034185499 -1.46622 65280
0.062673397 -0.034185499 -1.46622 65280
0.065522201 -0.034185499 -1.46622 65280
0.068370998 -0.034185499 -1.46622 65280
0.071219698 -0.034185499 -1.46622 65280
0.074068502 -0.034185499 -1.46622 65280
0.076917298 -0.034185499 -1.46622 65280
0.079766102 -0.034185499 -1.46622 65280
0.082614899 -0.034185499 -1.46622 65280
0.085463703 -0.034185499 -1.46622 65280
0.088312499 -0.034185499 -1.46622 65280
0.091161303 -0.034185499 -1.46622 65280
0.0940101 -0.034185499 -1.46622 65280
0.096858799 -0.034185499 -1.46622 65280
0.099707603 -0.034185499 -1.46622 65280
0.102556 -0.034185499 -1.46622 65280
0.105405 -0.034185499 -1.46622 65280
0.108254 -0.034185499 -1.46622 65280
0.111103 -0.034185499 -1.46622 65280
0.113952 -0.034185499 -1.46622 65280
0.1168 -0.034185499 -1.46622 65280
0.119649 -0.034185499 -1.46622 65280
0.122498 -0.034185499 -1.46622 65280
0.125347 -0.034185499 -1.46622 65280
0.128196 -0.034185499 -1.46622 65280
0.131044 -0.034185499 -1.46622 65280
0.133893 -0.034185499 -1.46622 65280
0.136742 -0.034185499 -1.46622 65280
0.13959099 -0.034185499 -1.46622 65280
0.14243899 -0.034185499 -1.46622 65280
0.14528801 -0.034185499 -1.46622 65280
0.148137 -0.034185499 -1.46622 65280
0.150986 -0.034185499 -1.46622 65280
0.153835 -0.034185499 -1.46622 65280
0.156683 -0.034185499 -1.46622 65280
0.159532 -0.034185499 -1.46622 65280
0.16238099 -0.034185499 -1.46622 65280
0.16523001 -0.034185499 -1.46622 65280
0.168079 -0.034185499 -1.46622 65280
0.170927 -0.034185499 -1.46622 65280
0.173776 -0.034185499 -1.46622 65280
0.176625 -0.034185499 -1.46622 65280
0.179474 -0.034185499 -1.46622 65280
0.18232299 -0.034185499 -1.46622 65280
0.18517099 -0.034185499 -1.46622 65280
0.18802001 -0.034185499 -1.46622 65280
0.190869 -0.034185499 -1.46622 65280
0.193718 -0.034185499 -1.46622 65280
0.196566 -0.034185499 -1.46622 65280
0.199415 -0.034185499 -1.46622 65280
0.202264 -0.034185499 -1.46622 65280
0.20511299 -0.034185499 -1.46622 65280
0.20796201 -0.034185499 -1.46622 65280
0.21081001 -0.034185499 -1.46622 65280
0.213659 -0.034185499 -1.46622 65280
0.216508 -0.034185499 -1.46622 65280
0.219357 -0.034185499 -1.46622 65280
0.222206 -0.034185499 -1.46622 65280
0.225054 -0.034185499 -1.46622 65280
0.22790299 -0.034185499 -1.46622 65280
0.23075201 -0.034185499 -1.46622 65280
0.233601 -0.034185499 -1.46622 65280
0.23645 -0.034185499 -1.46622 65280
0.239298 -0.034185499 -1.46622 65280
0.242147 -0.034185499 -1.46622 65280
0.244996 -0.034185499 -1.46622 65280
0.24784499 -0.034185499 -1.46622 65280
0.25069401 -0.034185499 -1.46622 65280
0.25354201 -0.034185499 -1.46622 65280
0.25639099 -0.034185499 -1.46622 65280
0.25924 -0.034185499 -1.46622 65280
0.26208901 -0.034185499 -1.46622 65280
0.26493701 -0.034185499 -1.46622 65280
0.267786 -0.034185499 -1.46622 65280
0.27063501 -0.034185499 -1.46622 65280
0.27348399 -0.034185499 -1.46622 65280
0.276333 -0.034185499 -1.46622 65280
0.279181 -0.034185499 -1.46622 65280
0.28202999 -0.034185499 -1.46622 65280
0.284879 -0.034185499 -1.46622 65280
0.28772801 -0.034185499 -1.46622 65280
0.29057699 -0.034185499 -1.46622 65280
0.29342499 -0.034185499 -1.46622 65280
0.29627401 -0.034185499 -1.46622 65280
0.29912299 -0.034185499 -1.46622 65280
0.301972 -0.034185499 -1.46622 65280
0.30482 -0.034185499 -1.46622 65280
0.30766901 -0.034185499 -1.46622 65280
0.310518 -0.034185499 -1.46622 65280
0.31336701 -0.034185499 -1.46622 65280
0.31621599 -0.034185499 -1.46622 65280
0.31906399 -0.034185499 -1.46622 65280
0.321913 -0.034185499 -1.46622 65280
0.32476199 -0.034185499 -1.46622 65280
0.327611 -0.034185499 -1.46622 65280
0.33046001 -0.034185499 -1.46622 65280
0.33330801 -0.034185499 -1.46622 65280
0.33615699 -0.034185499 -1.46622 65280
0.33900601 -0.034185499 -1.46622 65280
0.34185499 -0.034185499 -1.46622 65280
0.344704 -0.034185499 -1.46622 65280
0.347552 -0.034185499 -1.46622 65280
0.35040101 -0.034185499 -1.46622 65280
0.35325 -0.034185499 -1.46622 65280
0.35609901 -0.034185499 -1.46622 65280
0.35894701 -0.034185499 -1.46622 65280
0.36179599 -0.034185499 -1.46622 65280
0.364645 -0.034185499 -1.46622 65280
0.36749399 -0.034185499 -1.46622 65280
0.370343 -0.034185499 -1.46622 65280
0.373191 -0.034185499 -1.46622 65280
0.37604001 -0.034185499 -1.46622 65280
0.37888899 -0.034185499 -1.46622 65280
0.38173801 -0.034185499 -1.46622 65280
0.38458699 -0.034185499 -1.46622 65280
0.38743499 -0.034185499 -1.46622 65280
0.390284 -0.034185499 -1.46622 65280
0.39313301 -0.034185499 -1.46622 65280
0.395982 -0.034185499 -1.46622 65280
-0.40131199 -0.031307999 -1.46488 65280
-0.39846599 -0.031307999 -1.46488 65280
-0.39561999 -0.031307999 -1.46488 65280
-0.392773 -0.031307999 -1.46488 65280
-0.389927 -0.031307999 -1.46488 65280
-0.387081 -0.031307999 -1.46488 65280
-0.38423499 -0.031307999 -1.46488 65280
-0.38138899 -0.031307999 -1.46488 65280
-0.37854299 -0.031307999 -1.46488 65280
-0.375696 -0.031307999 -1.46488 65280
-0.37285 -0.031307999 -1.46488 65280
-0.370004 -0.031307999 -1.46488 65280
-0.367158 -0.031307999 -1.46488 65280
-0.36431199 -0.031307999 -1.46488 65280
-0.36146501 -0.031307999 -1.46488 65280
-0.358619 -0.031307999 -1.46488 65280
-0.355773 -0.031307999 -1.46488 65280
-0.352927 -0.031307999 -1.46488 65280
-0.350081 -0.031307999 -1.46488 65280
-0.34723401 -0.031307999 -1.46488 65280
-0.34438801 -0.031307999 -1.46488 65280
-0.34154201 -0.031307999 -1.46488 65280
-0.338696 -0.031307999 -1.46488 65280
-0.33585 -0.031307999 -1.46488 65280
-0.333004 -0.031307999 -1.46488 65280
-0.33015701 -0.031307999 -1.46488 65280
-0.32731101 -0.031307999 -1.46488 65280
-0.32446501 -0.031307999 -1.46488 65280
-0.321619 -0.031307999 -1.46488 65280
-0.318773 -0.031307999 -1.46488 65280
-0.31592599 -0.031307999 -1.46488 65280
-0.31308001 -0.031307999 -1.46488 65280
-0.31023401 -0.031307999 -1.46488 65280
-0.30738801 -0.031307999 -1.46488 65280
-0.30454201 -0.031307999 -1.46488 65280
-0.301696 -0.031307999 -1.46488 65280
-0.29884899 -0.031307999 -1.46488 65280
-0.29600301 -0.031307999 -1.46488 65280
-0.29315701 -0.031307999 -1.46488 65280
-0.29031101 -0.031307999 -1.46488 65280
-0.28746501 -0.031307999 -1.46488 65280
-0.28461799 -0.031307999 -1.46488 65280
-0.28177199 -0.031307999 -1.46488 65280
-0.27892601 -0.031307999 -1.46488 65280
-0.27608001 -0.031307999 -1.46488 65280
-0.27323401 -0.031307999 -1.46488 65280
-0.27038801 -0.031307999 -1.46488 65280
-0.26754099 -0.031307999 -1.46488 65280
-0.26469499 -0.031307999 -1.46488 65280
-0.26184899 -0.031307999 -1.46488 65280
-0.25900301 -0.031307999 -1.46488 65280
-0.25615701 -0.031307999 -1.46488 65280
-0.25330999 -0.031307999 -1.46488 65280
-0.25046399 -0.031307999 -1.46488 65280
-0.247618 -0.031307999 -1.46488 65280
-0.244772 -0.031307999 -1.46488 65280
-0.241926 -0.031307999 -1.46488 65280
-0.239079 -0.031307999 -1.46488 65280
-0.236233 -0.031307999 -1.46488 65280
-0.23338699 -0.031307999 -1.46488 65280
-0.23054101 -0.031307999 -1.46488 65280
-0.227695 -0.031307999 -1.46488 65280
-0.224849 -0.031307999 -1.46488 65280
-0.222002 -0.031307999 -1.46488 65280
-0.219156 -0.031307999 -1.46488 65280
-0.21630999 -0.031307999 -1.46488 65280
-0.21346401 -0.031307999 -1.46488 65280
-0.210618 -0.031307999 -1.46488 65280
-0.207771 -0.031307999 -1.46488 65280
-0.204925 -0.031307999 -1.46488 65280
-0.202079 -0.031307999 -1.46488 65280
-0.199233 -0.031307999 -1.46488 65280
-0.19638699 -0.031307999 -1.46488 65280
-0.19354101 -0.031307999 -1.46488 65280
-0.190694 -0.031307999 -1.46488 65280
-0.187848 -0.031307999 -1.46488 65280
-0.185002 -0.031307999 -1.46488 65280
-0.182156 -0.031307999 -1.46488 65280
-0.17930999 -0.031307999 -1.46488 65280
-0.164305 -0.029150899 -1.36395 65280
-0.160761 -0.028989701 -1.35641 65280
-0.15777101 -0.028924599 -1.3533601 65280
-0.15492301 -0.028883999 -1.35146 65280
-0.152147 -0.0288554 -1.3501199 65280
-0.149413 -0.028834101 -1.34912 65280
-0.14672001 -0.028820001 -1.34846 65280
-0.144072 -0.0288145 -1.34821 65280
-0.141471 -0.028818199 -1.34838 65280
-0.138907 -0.0288298 -1.34892 65280
-0.136373 -0.028848 -1.34978 65280
-0.133867 -0.028873401 -1.35096 65280
-0.131411 -0.028910501 -1.3527 65280
-0.128975 -0.0289535 -1.35471 65280
-0.12658501 -0.0290091 -1.3573101 65280
-0.124257 -0.0290814 -1.3607 65280
-0.122097 -0.029197101 -1.36611 65280
-0.120407 -0.029432699 -1.37714 65280
-0.125232 -0.031307999 -1.46488 65280
-0.122386 -0.031307999 -1.46488 65280
-0.11954 -0.031307999 -1.46488 65280
-0.116694 -0.031307999 -1.46488 65280
-0.113847 -0.031307999 -1.46488 65280
-0.111001 -0.031307999 -1.46488 65280
-0.108155 -0.031307999 -1.46488 65280
-0.105309 -0.031307999 -1.46488 65280
-0.102463 -0.031307999 -1.46488 65280
-0.099616498 -0.031307999 -1.46488 65280
-0.096770301 -0.031307999 -1.46488 65280
-0.093924098 -0.031307999 -1.46488 65280
-0.091077901 -0.031307999 -1.46488 65280
-0.088231698 -0.031307999 -1.46488 65280
-0.085385501 -0.031307999 -1.46488 65280
-0.082539298 -0.031307999 -1.46488 65280
-0.079693198 -0.031307999 -1.46488 65280
-0.076847002 -0.031307999 -1.46488 65280
-0.074000798 -0.031307999 -1.46488 65280
-0.071154602 -0.031307999 -1.46488 65280
-0.068308398 -0.031307999 -1.46488 65280
-0.065462202 -0.031307999 -1.46488 65280
-0.062616102 -0.031307999 -1.46488 65280
-0.059769899 -0.031307999 -1.46488 65280
-0.056923699 -0.031307999 -1.46488 65280
-0.054077499 -0.031307999 -1.46488 65280
-0.051231299 -0.031307999 -1.46488 65280
-0.048385099 -0.031307999 -1.46488 65280
-0.045538899 -0.031307999 -1.46488 65280
-0.042692799 -0.031307999 -1.46488 65280
-0.039846599 -0.031307999 -1.46488 65280
-0.037000399 -0.031307999 -1.46488 65280
-0.034154199 -0.031307999 -1.46488 65280
-0.031307999 -0.031307999 -1.46488 65280
-0.028461801 -0.031307999 -1.46488 65280
-0.0256157 -0.031307999 -1.46488 65280
-0.0227695 -0.031307999 -1.46488 65280
-0.0199233 -0.031307999 -1.46488 65280
-0.0170771 -0.031307999 -1.46488 65280
-0.0142309 -0.031307999 -1.46488 65280
-0.0113847 -0.031307999 -1.46488 65280
-0.0085385498 -0.031307999 -1.46488 65280
-0.0056923698 -0.031307999 -1.46488 65280
-0.00284618 -0.031307999 -1.46488 65280
0 -0.031307999 -1.46488 65280
0.00284618 -0.031307999 -1.46488 65280
0.0056923698 -0.031307999 -1.46488 65280
0.0085385498 -0.031307999 -1.46488 65280
0.0113847 -0.031307999 -1.46488 65280
0.0142309 -0.031307999 -1.46488 65280
0.0170771 -0.031307999 -1.46488 65280
0.0199233 -0.031307999 -1.46488 65280
0.0227695 -0.031307999 -1.46488 65280
0.0256157 -0.031307999 -1.46488 65280
0.028461801 -0.031307999 -1.46488 65280
0.031307999 -0.031307999 -1.46488 65280
0.034154199 -0.031307999 -1.46488 65280
0.037000399 -0.031307999 -1.46488 65280
0.039846599 -0.031307999 -1.46488 65280
0.042692799 -0.031307999 -1.46488 65280
0.045538899 -0.031307999 -1.46488 65280
0.048385099 -0.031307999 -1.46488 65280
0.051231299 -0.031307999 -1.46488 65280
0.054077499 -0.031307999 -1.46488 65280
0.056923699 -0.031307999 -1.46488 65280
0.059769899 -0.031307999 -1.46488 65280
0.062616102 -0.031307999 -1.46488 65280
0.065462202 -0.031307999 -1.46488 65280
0.068308398 -0.031307999 -1.46488 65280
0.071154602 -0.031307999 -1.46488 65280
0.074000798 -0.031307999 -1.46488 65280
0.076847002 -0.031307999 -1.46488 65280
0.079693198 -0.031307999 -1.46488 65280
0.082539298 -0.031307999 -1.46488 65280
0.085385501 -0.031307999 -1.46488 65280
0.088231698 -0.031307999 -1.46488 65280
0.091077901 -0.031307999 -1.46488 65280
0.093924098 -0.031307999 -1.46488 65280
0.096770301 -0.031307999 -1.46488 65280
0.099616498 -0.031307999 -1.46488 65280
0.102463 -0.031307999 -1.46488 65280
0.105309 -0.031307999 -1.46488 65280
0.108155 -0.031307999 -1.46488 65280
0.111001 -0.031307999 -1.46488 65280
0.113847 -0.031307999 -1.46488 65280
0.116694 -0.031307999 -1.46488 65280
0.11954 -0.031307999 -1.46488 65280
0.122386 -0.031307999 -1.46488 65280
0.125232 -0.031307999 -1.46488 65280
0.128078 -0.031307999 -1.46488 65280
0.130924 -0.031307999 -1.46488 65280
0.133771 -0.031307999 -1.46488 65280
0.136617 -0.031307999 -1.46488 65280
0.13946301 -0.031307999 -1.46488 65280
0.142309 -0.031307999 -1.46488 65280
0.145155 -0.031307999 -1.46488 65280
0.148002 -0.031307999 -1.46488 65280
0.150848 -0.031307999 -1.46488 65280
0.153694 -0.031307999 -1.46488 65280
0.15654001 -0.031307999 -1.46488 65280
0.15938599 -0.031307999 -1.46488 65280
0.162233 -0.031307999 -1.46488 65280
0.165079 -0.031307999 -1.46488 65280
0.167925 -0.031307999 -1.46488 65280
0.170771 -0.031307999 -1.46488 65280
0.17361701 -0.031307999 -1.46488 65280
0.17646299 -0.031307999 -1.46488 65280
0.17930999 -0.031307999 -1.46488 65280
0.182156 -0.031307999 -1.46488 65280
0.185002 -0.031307999 -1.46488 65280
0.187848 -0.031307999 -1.46488 65280
0.190694 -0.031307999 -1.46488 65280
0.19354101 -0.031307999 -1.46488 65280
0.19638699 -0.031307999 -1.46488 65280
0.199233 -0.031307999 -1.46488 65280
0.202079 -0.031307999 -1.46488 65280
0.204925 -0.031307999 -1.46488 65280
0.207771 -0.031307999 -1.46488 65280
0.210618 -0.031307999 -1.46488 65280
0.21346401 -0.031307999 -1.46488 65280
0.21630999 -0.031307999 -1.46488 65280
0.219156 -0.031307999 -1.46488 65280
0.222002 -0.031307999 -1.46488 65280
0.224849 -0.031307999 -1.46488 65280
0.227695 -0.031307999 -1.46488 65280
0.23054101 -0.031307999 -1.46488 65280
0.23338699 -0.031307999 -1.46488 65280
0.236233 -0.031307999 -1.46488 65280
0.239079 -0.031307999 -1.46488 65280
0.241926 -0.031307999 -1.46488 65280
0.244772 -0.031307999 -1.46488 65280
0.247618 -0.031307999 -1.46488 65280
0.25046399 -0.031307999 -1.46488 65280
0.25330999 -0.031307999 -1.46488 65280
0.25615701 -0.031307999 -1.46488 65280
0.25900301 -0.031307999 -1.46488 65280
0.26184899 -0.031307999 -1.46488 65280
0.26469499 -0.031307999 -1.46488 65280
0.26754099 -0.031307999 -1.46488 65280
0.27038801 -0.031307999 -1.46488 65280
0.27323401 -0.031307999 -1.46488 65280
0.27608001 -0.031307999 -1.46488 65280
0.27892601 -0.031307999 -1.46488 65280
0.28177199 -0.031307999 -1.46488 65280
0.28461799 -0.031307999 -1.46488 65280
0.28746501 -0.031307999 -1.46488 65280
0.29031101 -0.031307999 -1.46488 65280
0.29315701 -0.031307999 -1.46488 65280
0.29600301 -0.031307999 -1.46488 65280
0.29884899 -0.031307999 -1.46488 65280
0.301696 -0.031307999 -1.46488 65280
0.30454201 -0.031307999 -1.46488 65280
0.30738801 -0.031307999 -1.46488 65280
0.31023401 -0.031307999 -1.46488 65280
0.31308001 -0.031307999 -1.46488 65280
0.31592599 -0.031307999 -1.46488 65280
0.318773 -0.031307999 -1.46488 65280
0.321619 -0.031307999 -1.46488 65280
0.32446501 -0.031307999 -1.46488 65280
0.32731101 -0.031307999 -1.46488 65280
0.33015701 -0.031307999 -1.46488 65280
0.333004 -0.031307999 -1.46488 65280
0.33585 -0.031307999 -1.46488 65280
0.338696 -0.031307999 -1.46488 65280
0.34154201 -0.031307999 -1.46488 65280
0.34438801 -0.031307999 -1.46488 65280
0.34723401 -0.031307999 -1.46488 65280
0.350081 -0.031307999 -1.46488 65280
0.352927 -0.031307999 -1.46488 65280
0.355773 -0.031307999 -1.46488 65280
0.358619 -0.031307999 -1.46488 65280
0.36146501 -0.031307999 -1.46488 65280
0.36431199 -0.031307999 -1.46488 65280
0.367158 -0.031307999 -1.46488 65280
0.370004 -0.031307999 -1.46488 65280
0.37285 -0.031307999 -1.46488 65280
0.375696 -0.031307999 -1.46488 65280
0.37854299 -0.031307999 -1.46488 65280
0.38138899 -0.031307999 -1.46488 65280
0.38423499 -0.031307999 -1.46488 65280
0.387081 -0.031307999 -1.46488 65280
0.389927 -0.031307999 -1.46488 65280
0.392773 -0.031307999 -1.46488 65280
0.39561999 -0.031307999 -1.46488 65280
0.39846599 -0.031307999 -1.46488 65280
-0.40094501 -0.0284358 -1.46354 65280
-0.398101 -0.0284358 -1.46354 65280
-0.39525801 -0.0284358 -1.46354 65280
-0.392414 -0.0284358 -1.46354 65280
-0.38957101 -0.0284358 -1.46354 65280
-0.38672701 -0.0284358 -1.46354 65280
-0.383883 -0.0284358 -1.46354 65280
-0.38104001 -0.0284358 -1.46354 65280
-0.378196 -0.0284358 -1.46354 65280
-0.37535301 -0.0284358 -1.46354 65280
-0.372509 -0.0284358 -1.46354 65280
-0.36966601 -0.0284358 -1.46354 65280
-0.366822 -0.0284358 -1.46354 65280
-0.363978 -0.0284358 -1.46354 65280
-0.36113501 -0.0284358 -1.46354 65280
-0.358291 -0.0284358 -1.46354 65280
-0.35544801 -0.0284358 -1.46354 65280
-0.352604 -0.0284358 -1.46354 65280
-0.34976101 -0.0284358 -1.46354 65280
-0.346917 -0.0284358 -1.46354 65280
-0.344073 -0.0284358 -1.46354 65280
-0.34123001 -0.0284358 -1.46354 65280
-0.338386 -0.0284358 -1.46354 65280
-0.33554301 -0.0284358 -1.46354 65280
-0.332699 -0.0284358 -1.46354 65280
-0.329855 -0.0284358 -1.46354 65280
-0.327012 -0.0284358 -1.46354 65280
-0.324168 -0.0284358 -1.46354 65280
-0.321325 -0.0284358 -1.46354 65280
-0.318481 -0.0284358 -1.46354 65280
-0.31563801 -0.0284358 -1.46354 65280
-0.312794 -0.0284358 -1.46354 65280
-0.30994999 -0.0284358 -1.46354 65280
-0.307107 -0.0284358 -1.46354 65280
-0.304263 -0.0284358 -1.46354 65280
-0.30142 -0.0284358 -1.46354 65280
-0.298576 -0.0284358 -1.46354 65280
-0.29573199 -0.0284358 -1.46354 65280
-0.292889 -0.0284358 -1.46354 65280
-0.29004499 -0.0284358 -1.46354 65280
-0.287202 -0.0284358 -1.46354 65280
-0.28435799 -0.0284358 -1.46354 65280
-0.281515 -0.0284358 -1.46354 65280
-0.278671 -0.0284358 -1.46354 65280
-0.27582699 -0.0284358 -1.46354 65280
-0.272984 -0.0284358 -1.46354 65280
-0.27013999 -0.0284358 -1.46354 65280
-0.267297 -0.0284358 -1.46354 65280
-0.26445299 -0.0284358 -1.46354 65280
-0.26160899 -0.0284358 -1.46354 65280
-0.258766 -0.0284358 -1.46354 65280
-0.25592199 -0.0284358 -1.46354 65280
-0.253079 -0.0284358 -1.46354 65280
-0.25023499 -0.0284358 -1.46354 65280
-0.247392 -0.0284358 -1.46354 65280
-0.24454799 -0.0284358 -1.46354 65280
-0.241704 -0.0284358 -1.46354 65280
-0.23886099 -0.0284358 -1.46354 65280
-0.236017 -0.0284358 -1.46354 65280
-0.233174 -0.0284358 -1.46354 65280
-0.23033001 -0.0284358 -1.46354 65280
-0.227487 -0.0284358 -1.46354 65280
-0.22464301 -0.0284358 -1.46354 65280
-0.221799 -0.0284358 -1.46354 65280
-0.21895599 -0.0284358 -1.46354 65280
-0.216112 -0.0284358 -1.46354 65280
-0.213269 -0.0284358 -1.46354 65280
-0.210425 -0.0284358 -1.46354 65280
-0.207581 -0.0284358 -1.46354 65280
-0.20473801 -0.0284358 -1.46354 65280
-0.201894 -0.0284358 -1.46354 65280
-0.19905099 -0.0284358 -1.46354 65280
-0.196207 -0.0284358 -1.46354 65280
-0.19336399 -0.0284358 -1.46354 65280
-0.19052 -0.0284358 -1.46354 65280
-0.187676 -0.0284358 -1.46354 65280
-0.18483301 -0.0284358 -1.46354 65280
-0.181989 -0.0284358 -1.46354 65280
-0.17914601 -0.0284358 -1.46354 65280
-0.16396999 -0.0264467 -1.36116 65280
-0.160629 -0.026332701 -1.3552901 65280
-0.15767799 -0.026279701 -1.3525701 65280
-0.154846 -0.0262451 -1.35079 65280
-0.152072 -0.0262194 -1.34946 65280
-0.149344 -0.026200701 -1.3485 65280
-0.14667 -0.026191 -1.348 65280
-0.144036 -0.0261884 -1.34787 65280
-0.14143801 -0.0261923 -1.34807 65280
-0.13887 -0.0262019 -1.34857 65280
-0.136328 -0.026216799 -1.3493299 65280
-0.13381401 -0.026238 -1.35042 65280
-0.131328 -0.026265699 -1.35185 65280
-0.128894 -0.0263048 -1.35386 65280
-0.12650999 -0.0263562 -1.35651 65280
-0.124188 -0.026423 -1.3599401 65280
-0.122024 -0.026527001 -1.36529 65280
-0.119994 -0.026665401 -1.37242 65280
-0.121427 -0.027597001 -1.42037 65280
-0.122274 -0.0284358 -1.46354 65280
-0.11943 -0.0284358 -1.46354 65280
-0.116587 -0.0284358 -1.46354 65280
-0.113743 -0.0284358 -1.46354 65280
-0.1109 -0.0284358 -1.46354 65280
-0.108056 -0.0284358 -1.46354 65280
-0.105213 -0.0284358 -1.46354 65280
-0.102369 -0.0284358 -1.46354 65280
-0.099525303 -0.0284358 -1.46354 65280
-0.096681803 -0.0284358 -1.46354 65280
-0.0938382 -0.0284358 -1.46354 65280
-0.090994596 -0.0284358 -1.46354 65280
-0.088151 -0.0284358 -1.46354 65280
-0.085307397 -0.0284358 -1.46354 65280
-0.082463898 -0.0284358 -1.46354 65280
-0.079620302 -0.0284358 -1.46354 65280
-0.076776698 -0.0284358 -1.46354 65280
-0.073933102 -0.0284358 -1.46354 65280
-0.071089499 -0.0284358 -1.46354 65280
-0.068245903 -0.0284358 -1.46354 65280
-0.065402403 -0.0284358 -1.46354 65280
-0.0625588 -0.0284358 -1.46354 65280
-0.0597152 -0.0284358 -1.46354 65280
-0.0568716 -0.0284358 -1.46354 65280
-0.054028001 -0.0284358 -1.46354 65280
-0.051184501 -0.0284358 -1.46354 65280
-0.048340902 -0.0284358 -1.46354 65280
-0.045497298 -0.0284358 -1.46354 65280
-0.042653698 -0.0284358 -1.46354 65280
-0.039810099 -0.0284358 -1.46354 65280
-0.0369666 -0.0284358 -1.46354 65280
-0.034123 -0.0284358 -1.46354 65280
-0.0312794 -0.0284358 -1.46354 65280
-0.0284358 -0.0284358 -1.46354 65280
-0.0255922 -0.0284358 -1.46354 65280
-0.022748601 -0.0284358 -1.46354 65280
-0.0199051 -0.0284358 -1.46354 65280
-0.0170615 -0.0284358 -1.46354 65280
-0.0142179 -0.0284358 -1.46354 65280
-0.0113743 -0.0284358 -1.46354 65280
-0.0085307397 -0.0284358 -1.46354 65280
-0.00568716 -0.0284358 -1.46354 65280
-0.00284358 -0.0284358 -1.46354 65280
0 -0.0284358 -1.46354 65280
0.00284358 -0.0284358 -1.46354 65280
0.00568716 -0.0284358 -1.46354 65280
0.0085307397 -0.0284358 -1.46354 65280
0.0113743 -0.0284358 -1.46354 65280
0.0142179 -0.0284358 -1.46354 65280
0.0170615 -0.0284358 -1.46354 65280
0.0199051 -0.0284358 -1.46354 65280
0.022748601 -0.0284358 -1.46354 65280
0.0255922 -0.0284358 -1.46354 65280
0.0284358 -0.0284358 -1.46354 65280
0.0312794 -0.0284358 -1.46354 65280
0.034123 -0.0284358 -1.46354 65280
0.0369666 -0.0284358 -1.46354 65280
0.039810099 -0.0284358 -1.46354 65280
0.042653698 -0.0284358 -1.46354 65280
0.045497298 -0.0284358 -1.46354 65280
0.048340902 -0.0284358 -1.46354 65280
0.051184501 -0.0284358 -1.46354 65280
0.054028001 -0.0284358 -1.46354 65280
0.0568716 -0.0284358 -1.46354 65280
0.0597152 -0.0284358 -1.46354 65280
0.0625588 -0.0284358 -1.46354 65280
0.065402403 -0.0284358 -1.46354 65280
0.068245903 -0.0284358 -1.46354 65280
0.071089499 -0.0284358 -1.46354 65280
0.073933102 -0.0284358 -1.46354 65280
0.076776698 -0.0284358 -1.46354 65280
0.079620302 -0.0284358 -1.46354 65280
0.082463898 -0.0284358 -1.46354 65280
0.085307397 -0.0284358 -1.46354 65280
0.088151 -0.0284358 -1.46354 65280
0.090994596 -0.0284358 -1.46354 65280
0.0938382 -0.0284358 -1.46354 65280
0.096681803 -0.0284358 -1.46354 65280
0.099525303 -0.0284358 -1.46354 65280
0.102369 -0.0284358 -1.46354 65280
0.105213 -0.0284358 -1.46354 65280
0.108056 -0.0284358 -1.46354 65280
0.1109 -0.0284358 -1.46354 65280
0.113743 -0.0284358 -1.46354 65280
0.116587 -0.0284358 -1.46354 65280
0.11943 -0.0284358 -1.46354 65280
0.122274 -0.0284358 -1.46354 65280
0.125118 -0.0284358 -1.46354 65280
0.12796099 -0.0284358 -1.46354 65280
0.130805 -0.0284358 -1.46354 65280
0.13364799 -0.0284358 -1.46354 65280
0.136492 -0.0284358 -1.46354 65280
0.13933501 -0.0284358 -1.46354 65280
0.142179 -0.0284358 -1.46354 65280
0.145023 -0.0284358 -1.46354 65280
0.147866 -0.0284358 -1.46354 65280
0.15071 -0.0284358 -1.46354 65280
0.15355299 -0.0284358 -1.46354 65280
0.156397 -0.0284358 -1.46354 65280
0.15924101 -0.0284358 -1.46354 65280
0.162084 -0.0284358 -1.46354 65280
0.164928 -0.0284358 -1.46354 65280
0.167771 -0.0284358 -1.46354 65280
0.170615 -0.0284358 -1.46354 65280
0.173458 -0.0284358 -1.46354 65280
0.176302 -0.0284358 -1.46354 65280
0.17914601 -0.0284358 -1.46354 65280
0.181989 -0.0284358 -1.46354 65280
0.18483301 -0.0284358 -1.46354 65280
0.187676 -0.0284358 -1.46354 65280
0.19052 -0.0284358 -1.46354 65280
0.19336399 -0.0284358 -1.46354 65280
0.196207 -0.0284358 -1.46354 65280
0.19905099 -0.0284358 -1.46354 65280
0.201894 -0.0284358 -1.46354 65280
0.20473801 -0.0284358 -1.46354 65280
0.207581 -0.0284358 -1.46354 65280
0.210425 -0.0284358 -1.46354 65280
0.213269 -0.0284358 -1.46354 65280
0.216112 -0.0284358 -1.46354 65280
0.21895599 -0.0284358 -1.46354 65280
0.221799 -0.0284358 -1.46354 65280
0.22464301 -0.0284358 -1.46354 65280
0.227487 -0.0284358 -1.46354 65280
0.23033001 -0.0284358 -1.46354 65280
0.233174 -0.0284358 -1.46354 65280
0.236017 -0.0284358 -1.46354 65280
0.23886099 -0.0284358 -1.46354 65280
0.241704 -0.0284358 -1.46354 65280
0.24454799 -0.0284358 -1.46354 65280
0.247392 -0.0284358 -1.46354 65280
0.25023499 -0.0284358 -1.46354 65280
0.253079 -0.0284358 -1.46354 65280
0.25592199 -0.0284358 -1.46354 65280
0.258766 -0.0284358 -1.46354 65280
0.26160899 -0.0284358 -1.46354 65280
0.26445299 -0.0284358 -1.46354 65280
0.267297 -0.0284358 -1.46354 65280
0.27013999 -0.0284358 -1.46354 65280
0.272984 -0.0284358 -1.46354 65280
0.27582699 -0.0284358 -1.46354 65280
0.278671 -0.0284358 -1.46354 65280
0.281515 -0.0284358 -1.46354 65280
0.28435799 -0.0284358 -1.46354 65280
0.287202 -0.0284358 -1.46354 65280
0.29004499 -0.0284358 -1.46354 65280
0.292889 -0.0284358 -1.46354 65280
0.29573199 -0.0284358 -1.46354 65280
0.298576 -0.0284358 -1.46354 65280
0.30142 -0.0284358 -1.46354 65280
0.304263 -0.0284358 -1.46354 65280
0.307107 -0.0284358 -1.46354 65280
0.30994999 -0.0284358 -1.46354 65280
0.312794 -0.0284358 -1.46354 65280
0.31563801 -0.0284358 -1.46354 65280
0.318481 -0.0284358 -1.46354 65280
0.321325 -0.0284358 -1.46354 65280
0.324168 -0.0284358 -1.46354 65280
0.327012 -0.0284358 -1.46354 65280
0.329855 -0.0284358 -1.46354 65280
0.332699 -0.0284358 -1.46354 65280
0.33554301 -0.0284358 -1.46354 65280
0.338386 -0.0284358 -1.46354 65280
0.34123001 -0.0284358 -1.46354 65280
0.344073 -0.0284358 -1.46354 65280
0.346917 -0.0284358 -1.46354 65280
0.34976101 -0.0284358 -1.46354 65280
0.352604 -0.0284358 -1.46354 65280
0.35544801 -0.0284358 -1.46354 65280
0.358291 -0.0284358 -1.46354 65280
0.36113501 -0.0284358 -1.46354 65280
0.363978 -0.0284358 -1.46354 65280
0.366822 -0.0284358 -1.46354 65280
0.36966601 -0.0284358 -1.46354 65280
0.372509 -0.0284358 -1.46354 65280
0.37535301 -0.0284358 -1.46354 65280
0.378196 -0.0284358 -1.46354 65280
0.38104001 -0.0284358 -1.46354 65280
0.383883 -0.0284358 -1.46354 65280
0.38672701 -0.0284358 -1.46354 65280
0.38957101 -0.0284358 -1.46354 65280
0.392414 -0.0284358 -1.46354 65280
0.39525801 -0.0284358 -1.46354 65280
0.398101 -0.0284358 -1.46354 65280
-0.40057901 -0.025568901 -1.4622 65280
-0.39773801 -0.025568901 -1.4622 65280
-0.39489701 -0.025568901 -1.4622 65280
-0.39205599 -0.025568901 -1.4622 65280
-0.38921499 -0.025568901 -1.4622 65280
-0.386374 -0.025568901 -1.4622 65280
-0.383533 -0.025568901 -1.4622 65280
-0.38069201 -0.025568901 -1.4622 65280
-0.37785101 -0.025568901 -1.4622 65280
-0.37501001 -0.025568901 -1.4622 65280
-0.37216899 -0.025568901 -1.4622 65280
-0.36932799 -0.025568901 -1.4622 65280
-0.366487 -0.025568901 -1.4622 65280
-0.363646 -0.025568901 -1.4622 65280
-0.360805 -0.025568901 -1.4622 65280
-0.35796401 -0.025568901 -1.4622 65280
-0.35512301 -0.025568901 -1.4622 65280
-0.35228199 -0.025568901 -1.4622 65280
-0.34944099 -0.025568901 -1.4622 65280
-0.3466 -0.025568901 -1.4622 65280
-0.343759 -0.025568901 -1.4622 65280
-0.340918 -0.025568901 -1.4622 65280
-0.33807701 -0.025568901 -1.4622 65280
-0.33523601 -0.025568901 -1.4622 65280
-0.33239499 -0.025568901 -1.4622 65280
-0.32955399 -0.025568901 -1.4622 65280
-0.326713 -0.025568901 -1.4622 65280
-0.323872 -0.025568901 -1.4622 65280
-0.321031 -0.025568901 -1.4622 65280
-0.31819001 -0.025568901 -1.4622 65280
-0.31534901 -0.025568901 -1.4622 65280
-0.31250799 -0.025568901 -1.4622 65280
-0.30966699 -0.025568901 -1.4622 65280
-0.306826 -0.025568901 -1.4622 65280
-0.303985 -0.025568901 -1.4622 65280
-0.301144 -0.025568901 -1.4622 65280
-0.29830301 -0.025568901 -1.4622 65280
-0.29546201 -0.025568901 -1.4622 65280
-0.29262099 -0.025568901 -1.4622 65280
-0.289781 -0.025568901 -1.4622 65280
-0.28694001 -0.025568901 -1.4622 65280
-0.28409901 -0.025568901 -1.4622 65280
-0.28125799 -0.025568901 -1.4622 65280
-0.27841699 -0.025568901 -1.4622 65280
-0.275576 -0.025568901 -1.4622 65280
-0.272735 -0.025568901 -1.4622 65280
-0.269894 -0.025568901 -1.4622 65280
-0.26705301 -0.025568901 -1.4622 65280
-0.26421201 -0.025568901 -1.4622 65280
-0.26137099 -0.025568901 -1.4622 65280
-0.25852999 -0.025568901 -1.4622 65280
-0.255689 -0.025568901 -1.4622 65280
-0.252848 -0.025568901 -1.4622 65280
-0.250007 -0.025568901 -1.4622 65280
-0.24716599 -0.025568901 -1.4622 65280
-0.244325 -0.025568901 -1.4622 65280
-0.241484 -0.025568901 -1.4622 65280
-0.23864301 -0.025568901 -1.4622 65280
-0.23580199 -0.025568901 -1.4622 65280
-0.232961 -0.025568901 -1.4622 65280
-0.23012 -0.025568901 -1.4622 65280
-0.22727901 -0.025568901 -1.4622 65280
-0.224438 -0.025568901 -1.4622 65280
-0.221597 -0.025568901 -1.4622 65280
-0.21875601 -0.025568901 -1.4622 65280
-0.21591499 -0.025568901 -1.4622 65280
-0.213074 -0.025568901 -1.4622 65280
-0.210233 -0.025568901 -1.4622 65280
-0.20739201 -0.025568901 -1.4622 65280
-0.204551 -0.025568901 -1.4622 65280
-0.20171 -0.025568901 -1.4622 65280
-0.198869 -0.025568901 -1.4622 65280
-0.19602799 -0.025568901 -1.4622 65280
-0.193187 -0.025568901 -1.4622 65280
-0.190346 -0.025568901 -1.4622 65280
-0.18750501 -0.025568901 -1.4622 65280
-0.184664 -0.025568901 -1.4622 65280
-0.181823 -0.025568901 -1.4622 65280
-0.178982 -0.025568901 -1.4622 65280
-0.16383401 -0.0237823 -1.3600399 65280
-0.160558 -0.023688899 -1.3547 65280
-0.157616 -0.023642501 -1.3520401 65280
-0.154791 -0.023612199 -1.35031 65280
-0.152026 -0.0235903 -1.3490601 65280
-0.149308 -0.023575 -1.3481801 65280
-0.146633 -0.023566 -1.3476599 65280
-0.14401101 -0.0235654 -1.34763 65280
-0.141418 -0.023569601 -1.34787 65280
-0.13885 -0.023578299 -1.34837 65280
-0.13630401 -0.0235912 -1.3491 65280
-0.13379 -0.0236101 -1.35019 65280
-0.1313 -0.0236341 -1.35156 65280
-0.12886401 -0.0236689 -1.35355 65280
-0.126486 -0.0237161 -1.35625 65280
-0.124184 -0.023779999 -1.3599 65280
-0.12205 -0.023879301 -1.36558 65280
-0.119975 -0.0239951 -1.3722 65280
-0.120969 -0.0247437 -1.41502 65280
-0.118582 -0.0248194 -1.41935 65280
-0.119321 -0.025568901 -1.4622 65280
-0.11648 -0.025568901 -1.4622 65280
-0.113639 -0.025568901 -1.4622 65280
-0.110798 -0.025568901 -1.4622 65280
-0.107957 -0.025568901 -1.4622 65280
-0.105116 -0.025568901 -1.4622 65280
-0.102275 -0.025568901 -1.4622 65280
-0.099434502 -0.025568901 -1.4622 65280
-0.096593499 -0.025568901 -1.4622 65280
-0.093752503 -0.025568901 -1.4622 65280
-0.0909115 -0.025568901 -1.4622 65280
-0.088070497 -0.025568901 -1.4622 65280
-0.085229598 -0.025568901 -1.4622 65280
-0.082388602 -0.025568901 -1.4622 65280
-0.079547599 -0.025568901 -1.4622 65280
-0.076706603 -0.025568901 -1.4622 65280
-0.0738656 -0.025568901 -1.4622 65280
-0.071024597 -0.025568901 -1.4622 65280
-0.068183698 -0.025568901 -1.4622 65280
-0.065342702 -0.025568901 -1.4622 65280
-0.062501699 -0.025568901 -1.4622 65280
-0.059660699 -0.025568901 -1.4622 65280
-0.0568197 -0.025568901 -1.4622 65280
-0.0539787 -0.025568901 -1.4622 65280
-0.051137701 -0.025568901 -1.4622 65280
-0.048296802 -0.025568901 -1.4622 65280
-0.045455799 -0.025568901 -1.4622 65280
-0.042614799 -0.025568901 -1.4622 65280
-0.039773799 -0.025568901 -1.4622 65280
-0.0369328 -0.025568901 -1.4622 65280
-0.0340918 -0.025568901 -1.4622 65280
-0.031250801 -0.025568901 -1.4622 65280
-0.0284099 -0.025568901 -1.4622 65280
-0.025568901 -0.025568901 -1.4622 65280
-0.022727899 -0.025568901 -1.4622 65280
-0.0198869 -0.025568901 -1.4622 65280
-0.0170459 -0.025568901 -1.4622 65280
-0.0142049 -0.025568901 -1.4622 65280
-0.0113639 -0.025568901 -1.4622 65280
-0.0085229604 -0.025568901 -1.4622 65280
-0.0056819702 -0.025568901 -1.4622 65280
-0.00284099 -0.025568901 -1.4622 65280
0 -0.025568901 -1.4622 65280
0.00284099 -0.025568901 -1.4622 65280
0.0056819702 -0.025568901 -1.4622 65280
0.0085229604 -0.025568901 -1.4622 65280
0.0113639 -0.025568901 -1.4622 65280
0.0142049 -0.025568901 -1.4622 65280
0.0170459 -0.025568901 -1.4622 65280
0.0198869 -0.025568901 -1.4622 65280
0.022727899 -0.025568901 -1.4622 65280
0.025568901 -0.025568901 -1.4622 65280
0.0284099 -0.025568901 -1.4622 65280
0.031250801 -0.025568901 -1.4622 65280
0.0340918 -0.025568901 -1.4622 65280
0.0369328 -0.025568901 -1.4622 65280
0.039773799 -0.025568901 -1.4622 65280
0.042614799 -0.025568901 -1.4622 65280
0.045455799 -0.025568901 -1.4622 65280
0.048296802 -0.025568901 -1.4622 65280
0.051137701 -0.025568901 -1.4622 65280
0.0539787 -0.025568901 -1.4622 65280
0.0568197 -0.025568901 -1.4622 65280
0.059660699 -0.025568901 -1.4622 65280
0.062501699 -0.025568901 -1.4622 65280
0.065342702 -0.025568901 -1.4622 65280
0.068183698 -0.025568901 -1.4622 65280
0.071024597 -0.025568901 -1.4622 65280
0.0738656 -0.025568901 -1.4622 65280
0.076706603 -0.025568901 -1.4622 65280
0.079547599 -0.025568901 -1.4622 65280
