# .PCD v0.7 - Point Cloud Data file format
VERSION 0.7
FIELDS x y z rgb
SIZE 4 4 4 4
TYPE F F F U
COUNT 1 1 1 1
WIDTH 1284
HEIGHT 1
VIEWPOINT 0 0 0 1 0 0 0
POINTS 1284
DATA ascii
0.29086801 0.0526332 -1.42575 65280
0.29363799 0.0526332 -1.42575 65280
0.296408 0.0526332 -1.42575 65280
0.299178 0.0526332 -1.42575 65280
0.30194801 0.0526332 -1.42575 65280
0.30471799 0.0526332 -1.42575 65280
0.30748901 0.0526332 -1.42575 65280
0.31025901 0.0526332 -1.42575 65280
0.31302899 0.0526332 -1.42575 65280
0.315799 0.0526332 -1.42575 65280
0.318569 0.0526332 -1.42575 65280
0.32133901 0.0526332 -1.42575 65280
0.32411 0.0526332 -1.42575 65280
0.32688001 0.0526332 -1.42575 65280
0.32965001 0.0526332 -1.42575 65280
0.33241999 0.0526332 -1.42575 65280
0.33519 0.0526332 -1.42575 65280
0.33796 0.0526332 -1.42575 65280
0.34073099 0.0526332 -1.42575 65280
0.343501 0.0526332 -1.42575 65280
0.34627101 0.0526332 -1.42575 65280
0.34904099 0.0526332 -1.42575 65280
0.35181099 0.0526332 -1.42575 65280
0.354581 0.0526332 -1.42575 65280
0.35735199 0.0526332 -1.42575 65280
0.360122 0.0526332 -1.42575 65280
0.362892 0.0526332 -1.42575 65280
0.36566201 0.0526332 -1.42575 65280
0.36843199 0.0526332 -1.42575 65280
0.37120199 0.0526332 -1.42575 65280
0.37397301 0.0526332 -1.42575 65280
0.37674299 0.0526332 -1.42575 65280
0.379513 0.0526332 -1.42575 65280
0.382283 0.0526332 -1.42575 65280
0.38505301 0.0526332 -1.42575 65280
0.38782299 0.0526332 -1.42575 65280
0.39059401 0.0526332 -1.42575 65280
0.39336401 0.0526332 -1.42575 65280
0.39613399 0.0526332 -1.42575 65280
-0.401317 0.0553541 -1.42449 65280
-0.39854899 0.0553541 -1.42449 65280
-0.39578199 0.0553541 -1.42449 65280
-0.39301401 0.0553541 -1.42449 65280
-0.390246 0.0553541 -1.42449 65280
-0.38747901 0.0553541 -1.42449 65280
-0.384711 0.0553541 -1.42449 65280
-0.38194299 0.0553541 -1.42449 65280
-0.37917501 0.0553541 -1.42449 65280
-0.37640801 0.0553541 -1.42449 65280
-0.37364 0.0553541 -1.42449 65280
-0.37087199 0.0553541 -1.42449 65280
-0.36810499 0.0553541 -1.42449 65280
-0.36533701 0.0553541 -1.42449 65280
-0.362569 0.0553541 -1.42449 65280
-0.35980099 0.0553541 -1.42449 65280
-0.357034 0.0553541 -1.42449 65280
-0.35426599 0.0553541 -1.42449 65280
-0.35149801 0.0553541 -1.42449 65280
-0.34873101 0.0553541 -1.42449 65280
-0.345963 0.0553541 -1.42449 65280
-0.34319499 0.0553541 -1.42449 65280
-0.34042799 0.0553541 -1.42449 65280
-0.33766001 0.0553541 -1.42449 65280
-0.334892 0.0553541 -1.42449 65280
-0.33212399 0.0553541 -1.42449 65280
-0.329357 0.0553541 -1.42449 65280
-0.32658899 0.0553541 -1.42449 65280
-0.32382101 0.0553541 -1.42449 65280
-0.32105401 0.0553541 -1.42449 65280
-0.318286 0.0553541 -1.42449 65280
-0.31551799 0.0553541 -1.42449 65280
-0.31275001 0.0553541 -1.42449 65280
-0.30998299 0.0553541 -1.42449 65280
-0.30721501 0.0553541 -1.42449 65280
-0.304447 0.0553541 -1.42449 65280
-0.30168 0.0553541 -1.42449 65280
-0.29891199 0.0553541 -1.42449 65280
-0.29614401 0.0553541 -1.42449 65280
-0.29337701 0.0553541 -1.42449 65280
-0.290609 0.0553541 -1.42449 65280
-0.28784099 0.0553541 -1.42449 65280
-0.28507301 0.0553541 -1.42449 65280
-0.28230599 0.0553541 -1.42449 65280
-0.27953801 0.0553541 -1.42449 65280
-0.27677 0.0553541 -1.42449 65280
-0.274003 0.0553541 -1.42449 65280
-0.27123499 0.0553541 -1.42449 65280
-0.26846701 0.0553541 -1.42449 65280
-0.26570001 0.0553541 -1.42449 65280
-0.262932 0.0553541 -1.42449 65280
-0.26016399 0.0553541 -1.42449 65280
-0.25739601 0.0553541 -1.42449 65280
-0.25462899 0.0553541 -1.42449 65280
-0.25186101 0.0553541 -1.42449 65280
-0.249093 0.0553541 -1.42449 65280
-0.246326 0.0553541 -1.42449 65280
-0.243558 0.0553541 -1.42449 65280
-0.24078999 0.0553541 -1.42449 65280
-0.238023 0.0553541 -1.42449 65280
-0.235255 0.0553541 -1.42449 65280
-0.23248699 0.0553541 -1.42449 65280
-0.229719 0.0553541 -1.42449 65280
-0.226952 0.0553541 -1.42449 65280
-0.22418401 0.0553541 -1.42449 65280
-0.221416 0.0553541 -1.42449 65280
-0.218649 0.0553541 -1.42449 65280
-0.215881 0.0553541 -1.42449 65280
-0.213113 0.0553541 -1.42449 65280
-0.210345 0.0553541 -1.42449 65280
-0.207578 0.0553541 -1.42449 65280
-0.20480999 0.0553541 -1.42449 65280
-0.202042 0.0553541 -1.42449 65280
-0.199275 0.0553541 -1.42449 65280
-0.19650701 0.0553541 -1.42449 65280
-0.193739 0.0553541 -1.42449 65280
-0.190972 0.0553541 -1.42449 65280
-0.18820401 0.0553541 -1.42449 65280
-0.185436 0.0553541 -1.42449 65280
-0.182668 0.0553541 -1.42449 65280
-0.179901 0.0553541 -1.42449 65280
-0.17713299 0.0553541 -1.42449 65280
-0.174365 0.0553541 -1.42449 65280
-0.171598 0.0553541 -1.42449 65280
-0.16883001 0.0553541 -1.42449 65280
-0.166062 0.0553541 -1.42449 65280
-0.163295 0.0553541 -1.42449 65280
-0.16052701 0.0553541 -1.42449 65280
-0.157759 0.0553541 -1.42449 65280
-0.154991 0.0553541 -1.42449 65280
-0.152224 0.0553541 -1.42449 65280
-0.14945599 0.0553541 -1.42449 65280
-0.146688 0.0553541 -1.42449 65280
-0.143921 0.0553541 -1.42449 65280
-0.14115299 0.0553541 -1.42449 65280
-0.138385 0.0553541 -1.42449 65280
-0.135617 0.0553541 -1.42449 65280
-0.13285001 0.0553541 -1.42449 65280
-0.130082 0.0553541 -1.42449 65280
-0.127314 0.0553541 -1.42449 65280
-0.124547 0.0553541 -1.42449 65280
-0.121779 0.0553541 -1.42449 65280
-0.119011 0.0553541 -1.42449 65280
-0.116244 0.0553541 -1.42449 65280
-0.113476 0.0553541 -1.42449 65280
-0.110708 0.0553541 -1.42449 65280
-0.10794 0.0553541 -1.42449 65280
-0.105173 0.0553541 -1.42449 65280
-0.102405 0.0553541 -1.42449 65280
-0.0996373 0.0553541 -1.42449 65280
-0.096869603 0.0553541 -1.42449 65280
-0.094101898 0.0553541 -1.42449 65280
-0.091334201 0.0553541 -1.42449 65280
-0.088566497 0.0553541 -1.42449 65280
-0.0857988 0.0553541 -1.42449 65280
-0.083031103 0.0553541 -1.42449 65280
-0.080263399 0.0553541 -1.42449 65280
-0.077495702 0.0553541 -1.42449 65280
-0.074727997 0.0553541 -1.42449 65280
-0.0719603 0.0553541 -1.42449 65280
-0.069192603 0.0553541 -1.42449 65280
-0.066424899 0.0553541 -1.42449 65280
-0.063657202 0.0553541 -1.42449 65280
-0.060889501 0.0553541 -1.42449 65280
-0.0581218 0.0553541 -1.42449 65280
-0.0553541 0.0553541 -1.42449 65280
-0.052586399 0.0553541 -1.42449 65280
-0.049818698 0.0553541 -1.42449 65280
-0.047051001 0.0553541 -1.42449 65280
-0.044283301 0.0553541 -1.42449 65280
-0.0415156 0.0553541 -1.42449 65280
-0.038747799 0.0553541 -1.42449 65280
-0.035980102 0.0553541 -1.42449 65280
-0.033212401 0.0553541 -1.42449 65280
-0.0304447 0.0553541 -1.42449 65280
-0.027677 0.0553541 -1.42449 65280
-0.024909301 0.0553541 -1.42449 65280
-0.021774 0.054435 -1.40083 65280
-0.019010101 0.054314699 -1.39774 65280
-0.01627 0.054233201 -1.39564 65280
-0.0135418 0.054167099 -1.39394 65280
-0.0108215 0.054107402 -1.3924 65280
-0.0081076901 0.054051299 -1.39096 65280
-0.0053996602 0.0539966 -1.38955 65280
-0.00269719 0.053943802 -1.38819 65280
0 0.0538931 -1.3868901 65280
0.0026923299 0.053846698 -1.38569 65280
0.0053806198 0.053806201 -1.38465 65280
0.0080656204 0.053770799 -1.3837399 65280
0.010748 0.053739801 -1.3829401 65280
0.0134287 0.053714901 -1.3823 65280
0.0161085 0.0536949 -1.38179 65280
0.018788001 0.053679898 -1.3814 65280
0.021467799 0.053669501 -1.38114 65280
0.0241486 0.0536636 -1.38098 65280
0.0268324 0.0536649 -1.3810199 65280
0.0295205 0.053673699 -1.38124 65280
0.0322203 0.053700499 -1.38193 65280
0.034935601 0.053747099 -1.38313 65280
0.037662402 0.053803399 -1.38458 65280
0.0404028 0.053870399 -1.3863 65280
0.043163199 0.053954002 -1.38846 65280
0.0459558 0.0540656 -1.39133 65280
0.048812199 0.054235701 -1.39571 65280
0.052586399 0.0553541 -1.42449 65280
0.0553541 0.0553541 -1.42449 65280
0.0581218 0.0553541 -1.42449 65280
0.060889501 0.0553541 -1.42449 65280
0.063657202 0.0553541 -1.42449 65280
0.066424899 0.0553541 -1.42449 65280
0.069192603 0.0553541 -1.42449 65280
0.0719603 0.0553541 -1.42449 65280
0.074727997 0.0553541 -1.42449 65280
0.077495702 0.0553541 -1.42449 65280
0.080263399 0.0553541 -1.42449 65280
0.083031103 0.0553541 -1.42449 65280
0.0857988 0.0553541 -1.42449 65280
0.088566497 0.0553541 -1.42449 65280
0.091334201 0.0553541 -1.42449 65280
0.094101898 0.0553541 -1.42449 65280
0.096869603 0.0553541 -1.42449 65280
0.0996373 0.0553541 -1.42449 65280
0.102405 0.0553541 -1.42449 65280
0.105173 0.0553541 -1.42449 65280
0.10794 0.0553541 -1.42449 65280
0.110708 0.0553541 -1.42449 65280
0.113476 0.0553541 -1.42449 65280
0.116244 0.0553541 -1.42449 65280
0.119011 0.0553541 -1.42449 65280
0.121779 0.0553541 -1.42449 65280
0.124547 0.0553541 -1.42449 65280
0.127314 0.0553541 -1.42449 65280
0.130082 0.0553541 -1.42449 65280
0.13285001 0.0553541 -1.42449 65280
0.135617 0.0553541 -1.42449 65280
0.138385 0.0553541 -1.42449 65280
0.14115299 0.0553541 -1.42449 65280
0.143921 0.0553541 -1.42449 65280
0.146688 0.0553541 -1.42449 65280
0.14945599 0.0553541 -1.42449 65280
0.152224 0.0553541 -1.42449 65280
0.154991 0.0553541 -1.42449 65280
0.157759 0.0553541 -1.42449 65280
0.16052701 0.0553541 -1.42449 65280
0.163295 0.0553541 -1.42449 65280
0.166062 0.0553541 -1.42449 65280
0.16883001 0.0553541 -1.42449 65280
0.171598 0.0553541 -1.42449 65280
0.174365 0.0553541 -1.42449 65280
0.17713299 0.0553541 -1.42449 65280
0.179901 0.0553541 -1.42449 65280
0.182668 0.0553541 -1.42449 65280
0.185436 0.0553541 -1.42449 65280
0.18820401 0.0553541 -1.42449 65280
0.190972 0.0553541 -1.42449 65280
0.193739 0.0553541 -1.42449 65280
0.19650701 0.0553541 -1.42449 65280
0.199275 0.0553541 -1.42449 65280
0.202042 0.0553541 -1.42449 65280
0.20480999 0.0553541 -1.42449 65280
0.207578 0.0553541 -1.42449 65280
0.210345 0.0553541 -1.42449 65280
0.213113 0.0553541 -1.42449 65280
0.215881 0.0553541 -1.42449 65280
0.218649 0.0553541 -1.42449 65280
0.221416 0.0553541 -1.42449 65280
0.22418401 0.0553541 -1.42449 65280
0.226952 0.0553541 -1.42449 65280
0.229719 0.0553541 -1.42449 65280
0.23248699 0.0553541 -1.42449 65280
0.235255 0.0553541 -1.42449 65280
0.238023 0.0553541 -1.42449 65280
0.24078999 0.0553541 -1.42449 65280
0.243558 0.0553541 -1.42449 65280
0.246326 0.0553541 -1.42449 65280
0.249093 0.0553541 -1.42449 65280
0.25186101 0.0553541 -1.42449 65280
0.25462899 0.0553541 -1.42449 65280
0.25739601 0.0553541 -1.42449 65280
0.26016399 0.0553541 -1.42449 65280
0.262932 0.0553541 -1.42449 65280
0.26570001 0.0553541 -1.42449 65280
0.26846701 0.0553541 -1.42449 65280
0.27123499 0.0553541 -1.42449 65280
0.274003 0.0553541 -1.42449 65280
0.27677 0.0553541 -1.42449 65280
0.27953801 0.0553541 -1.42449 65280
0.28230599 0.0553541 -1.42449 65280
0.28507301 0.0553541 -1.42449 65280
0.28784099 0.0553541 -1.42449 65280
0.290609 0.0553541 -1.42449 65280
0.29337701 0.0553541 -1.42449 65280
0.29614401 0.0553541 -1.42449 65280
0.29891199 0.0553541 -1.42449 65280
0.30168 0.0553541 -1.42449 65280
0.304447 0.0553541 -1.42449 65280
0.30721501 0.0553541 -1.42449 65280
0.30998299 0.0553541 -1.42449 65280
0.31275001 0.0553541 -1.42449 65280
0.31551799 0.0553541 -1.42449 65280
0.318286 0.0553541 -1.42449 65280
0.32105401 0.0553541 -1.42449 65280
0.32382101 0.0553541 -1.42449 65280
0.32658899 0.0553541 -1.42449 65280
0.329357 0.0553541 -1.42449 65280
0.33212399 0.0553541 -1.42449 65280
0.334892 0.0553541 -1.42449 65280
0.33766001 0.0553541 -1.42449 65280
0.34042799 0.0553541 -1.42449 65280
0.34319499 0.0553541 -1.42449 65280
0.345963 0.0553541 -1.42449 65280
0.34873101 0.0553541 -1.42449 65280
0.35149801 0.0553541 -1.42449 65280
0.35426599 0.0553541 -1.42449 65280
0.357034 0.0553541 -1.42449 65280
0.35980099 0.0553541 -1.42449 65280
0.362569 0.0553541 -1.42449 65280
0.36533701 0.0553541 -1.42449 65280
0.36810499 0.0553541 -1.42449 65280
0.37087199 0.0553541 -1.42449 65280
0.37364 0.0553541 -1.42449 65280
0.37640801 0.0553541 -1.42449 65280
0.37917501 0.0553541 -1.42449 65280
0.38194299 0.0553541 -1.42449 65280
0.384711 0.0553541 -1.42449 65280
0.38747901 0.0553541 -1.42449 65280
0.390246 0.0553541 -1.42449 65280
0.39301401 0.0553541 -1.42449 65280
0.39578199 0.0553541 -1.42449 65280
0.39854899 0.0553541 -1.42449 65280
-0.40096 0.058070101 -1.42322 65280
-0.398195 0.058070101 -1.42322 65280
-0.39543 0.058070101 -1.42322 65280
-0.392665 0.058070101 -1.42322 65280
-0.38989899 0.058070101 -1.42322 65280
-0.38713399 0.058070101 -1.42322 65280
-0.38436899 0.058070101 -1.42322 65280
-0.38160399 0.058070101 -1.42322 65280
-0.378838 0.058070101 -1.42322 65280
-0.376073 0.058070101 -1.42322 65280
-0.373308 0.058070101 -1.42322 65280
-0.370543 0.058070101 -1.42322 65280
-0.36777699 0.058070101 -1.42322 65280
-0.36501199 0.058070101 -1.42322 65280
-0.36224699 0.058070101 -1.42322 65280
-0.35948199 0.058070101 -1.42322 65280
-0.35671699 0.058070101 -1.42322 65280
-0.35395101 0.058070101 -1.42322 65280
-0.35118601 0.058070101 -1.42322 65280
-0.34842101 0.058070101 -1.42322 65280
-0.34565601 0.058070101 -1.42322 65280
-0.34288999 0.058070101 -1.42322 65280
-0.34012499 0.058070101 -1.42322 65280
-0.33735999 0.058070101 -1.42322 65280
-0.33459499 0.058070101 -1.42322 65280
-0.33182901 0.058070101 -1.42322 65280
-0.32906401 0.058070101 -1.42322 65280
-0.32629901 0.058070101 -1.42322 65280
-0.32353401 0.058070101 -1.42322 65280
-0.320768 0.058070101 -1.42322 65280
-0.318003 0.058070101 -1.42322 65280
-0.315238 0.058070101 -1.42322 65280
-0.312473 0.058070101 -1.42322 65280
-0.30970699 0.058070101 -1.42322 65280
-0.30694199 0.058070101 -1.42322 65280
-0.30417699 0.058070101 -1.42322 65280
-0.30141199 0.058070101 -1.42322 65280
-0.298646 0.058070101 -1.42322 65280
-0.295881 0.058070101 -1.42322 65280
-0.293116 0.058070101 -1.42322 65280
-0.290351 0.058070101 -1.42322 65280
-0.28758499 0.058070101 -1.42322 65280
-0.28481999 0.058070101 -1.42322 65280
-0.28205499 0.058070101 -1.42322 65280
-0.27928999 0.058070101 -1.42322 65280
-0.27652401 0.058070101 -1.42322 65280
-0.27375901 0.058070101 -1.42322 65280
-0.27099401 0.058070101 -1.42322 65280
-0.26822901 0.058070101 -1.42322 65280
-0.26546299 0.058070101 -1.42322 65280
-0.26269799 0.058070101 -1.42322 65280
-0.25993299 0.058070101 -1.42322 65280
-0.25716799 0.058070101 -1.42322 65280
-0.25440201 0.058070101 -1.42322 65280
-0.25163701 0.058070101 -1.42322 65280
-0.248872 0.058070101 -1.42322 65280
-0.246107 0.058070101 -1.42322 65280
-0.243341 0.058070101 -1.42322 65280
-0.240576 0.058070101 -1.42322 65280
-0.237811 0.058070101 -1.42322 65280
-0.235046 0.058070101 -1.42322 65280
-0.232281 0.058070101 -1.42322 65280
-0.229515 0.058070101 -1.42322 65280
-0.22675 0.058070101 -1.42322 65280
-0.223985 0.058070101 -1.42322 65280
-0.22122 0.058070101 -1.42322 65280
-0.218454 0.058070101 -1.42322 65280
-0.215689 0.058070101 -1.42322 65280
-0.212924 0.058070101 -1.42322 65280
-0.210159 0.058070101 -1.42322 65280
-0.20739301 0.058070101 -1.42322 65280
-0.20462801 0.058070101 -1.42322 65280
-0.20186301 0.058070101 -1.42322 65280
-0.19909801 0.058070101 -1.42322 65280
-0.19633199 0.058070101 -1.42322 65280
-0.19356699 0.058070101 -1.42322 65280
-0.19080199 0.058070101 -1.42322 65280
-0.18803699 0.058070101 -1.42322 65280
-0.18527099 0.058070101 -1.42322 65280
-0.182506 0.058070101 -1.42322 65280
-0.179741 0.058070101 -1.42322 65280
-0.176976 0.058070101 -1.42322 65280
-0.17421 0.058070101 -1.42322 65280
-0.171445 0.058070101 -1.42322 65280
-0.16868 0.058070101 -1.42322 65280
-0.165915 0.058070101 -1.42322 65280
-0.163149 0.058070101 -1.42322 65280
-0.160384 0.058070101 -1.42322 65280
-0.157619 0.058070101 -1.42322 65280
-0.154854 0.058070101 -1.42322 65280
-0.152088 0.058070101 -1.42322 65280
-0.149323 0.058070101 -1.42322 65280
-0.146558 0.058070101 -1.42322 65280
-0.143793 0.058070101 -1.42322 65280
-0.141027 0.058070101 -1.42322 65280
-0.138262 0.058070101 -1.42322 65280
-0.135497 0.058070101 -1.42322 65280
-0.132732 0.058070101 -1.42322 65280
-0.12996601 0.058070101 -1.42322 65280
-0.12720101 0.058070101 -1.42322 65280
-0.124436 0.058070101 -1.42322 65280
-0.121671 0.058070101 -1.42322 65280
-0.118906 0.058070101 -1.42322 65280
-0.11614 0.058070101 -1.42322 65280
-0.113375 0.058070101 -1.42322 65280
-0.11061 0.058070101 -1.42322 65280
-0.107845 0.058070101 -1.42322 65280
-0.105079 0.058070101 -1.42322 65280
-0.102314 0.058070101 -1.42322 65280
-0.099548802 0.058070101 -1.42322 65280
-0.096783496 0.058070101 -1.42322 65280
-0.094018303 0.058070101 -1.42322 65280
-0.091253102 0.058070101 -1.42322 65280
-0.088487796 0.058070101 -1.42322 65280
-0.085722603 0.058070101 -1.42322 65280
-0.082957298 0.058070101 -1.42322 65280
-0.080192097 0.058070101 -1.42322 65280
-0.077426799 0.058070101 -1.42322 65280
-0.074661598 0.058070101 -1.42322 65280
-0.071896397 0.058070101 -1.42322 65280
-0.069131099 0.058070101 -1.42322 65280
-0.066365898 0.058070101 -1.42322 65280
-0.0636006 0.058070101 -1.42322 65280
-0.060835399 0.058070101 -1.42322 65280
-0.058070101 0.058070101 -1.42322 65280
-0.0553049 0.058070101 -1.42322 65280
-0.052539598 0.058070101 -1.42322 65280
-0.049774401 0.058070101 -1.42322 65280
-0.0470092 0.058070101 -1.42322 65280
-0.044243898 0.058070101 -1.42322 65280
-0.041478701 0.058070101 -1.42322 65280
-0.038713399 0.058070101 -1.42322 65280
-0.035948198 0.058070101 -1.42322 65280
-0.0331829 0.058070101 -1.42322 65280
-0.030417699 0.058070101 -1.42322 65280
-0.0276524 0.058070101 -1.42322 65280
-0.0248872 0.058070101 -1.42322 65280
-0.022121999 0.058070101 -1.42322 65280
-0.0190854 0.057256099 -1.40327 65280
-0.016300701 0.057052501 -1.39828 65280
-0.0135604 0.056953799 -1.39586 65280
-0.010834 0.056878701 -1.39402 65280
-0.0081158699 0.056811102 -1.39236 65280
-0.0054047201 0.056749601 -1.39086 65280
-0.0026996799 0.056693301 -1.38948 65280
0 0.056640498 -1.38818 65280
0.0026948601 0.056591999 -1.38699 65280
0.0053858599 0.056551501 -1.386 65280
0.0080736699 0.056515701 -1.38512 65280
0.0107589 0.056484099 -1.3843499 65280
0.0134427 0.0564593 -1.3837399 65280
0.0161258 0.056440301 -1.38328 65280
0.018808501 0.056425601 -1.38292 65280
0.021491701 0.0564158 -1.3826801 65280
0.024175899 0.056410398 -1.38254 65280
0.0268621 0.056410301 -1.38254 65280
0.0295523 0.056418002 -1.38273 65280
0.032251898 0.056440901 -1.3832901 65280
0.034969699 0.056489501 -1.38448 65280
0.0377069 0.056560401 -1.38622 65280
0.0404591 0.056642801 -1.38824 65280
0.0432369 0.056748401 -1.39083 65280
0.046061799 0.056899801 -1.39454 65280
0.049054299 0.057229999 -1.40263 65280
0.052539598 0.058070101 -1.42322 65280
0.0553049 0.058070101 -1.42322 65280
0.058070101 0.058070101 -1.42322 65280
0.060835399 0.058070101 -1.42322 65280
0.0636006 0.058070101 -1.42322 65280
0.066365898 0.058070101 -1.42322 65280
0.069131099 0.058070101 -1.42322 65280
0.071896397 0.058070101 -1.42322 65280
0.074661598 0.058070101 -1.42322 65280
0.077426799 0.058070101 -1.42322 65280
0.080192097 0.058070101 -1.42322 65280
0.082957298 0.058070101 -1.42322 65280
0.085722603 0.058070101 -1.42322 65280
0.088487796 0.058070101 -1.42322 65280
0.091253102 0.058070101 -1.42322 65280
0.094018303 0.058070101 -1.42322 65280
0.096783496 0.058070101 -1.42322 65280
0.099548802 0.058070101 -1.42322 65280
0.102314 0.058070101 -1.42322 65280
0.105079 0.058070101 -1.42322 65280
0.107845 0.058070101 -1.42322 65280
0.11061 0.058070101 -1.42322 65280
0.113375 0.058070101 -1.42322 65280
0.11614 0.058070101 -1.42322 65280
0.118906 0.058070101 -1.42322 65280
0.121671 0.058070101 -1.42322 65280
0.124436 0.058070101 -1.42322 65280
0.12720101 0.058070101 -1.42322 65280
0.12996601 0.058070101 -1.42322 65280
0.132732 0.058070101 -1.42322 65280
0.135497 0.058070101 -1.42322 65280
0.138262 0.058070101 -1.42322 65280
0.141027 0.058070101 -1.42322 65280
0.143793 0.058070101 -1.42322 65280
0.146558 0.058070101 -1.42322 65280
0.149323 0.058070101 -1.42322 65280
0.152088 0.058070101 -1.42322 65280
0.154854 0.058070101 -1.42322 65280
0.157619 0.058070101 -1.42322 65280
0.160384 0.058070101 -1.42322 65280
0.163149 0.058070101 -1.42322 65280
0.165915 0.058070101 -1.42322 65280
0.16868 0.058070101 -1.42322 65280
0.171445 0.058070101 -1.42322 65280
0.17421 0.058070101 -1.42322 65280
0.176976 0.058070101 -1.42322 65280
0.179741 0.058070101 -1.42322 65280
0.182506 0.058070101 -1.42322 65280
0.18527099 0.058070101 -1.42322 65280
0.18803699 0.058070101 -1.42322 65280
0.19080199 0.058070101 -1.42322 65280
0.19356699 0.058070101 -1.42322 65280
0.19633199 0.058070101 -1.42322 65280
0.19909801 0.058070101 -1.42322 65280
0.20186301 0.058070101 -1.42322 65280
0.20462801 0.058070101 -1.42322 65280
0.20739301 0.058070101 -1.42322 65280
0.210159 0.058070101 -1.42322 65280
0.212924 0.058070101 -1.42322 65280
0.215689 0.058070101 -1.42322 65280
0.218454 0.058070101 -1.42322 65280
0.22122 0.058070101 -1.42322 65280
0.223985 0.058070101 -1.42322 65280
0.22675 0.058070101 -1.42322 65280
0.229515 0.058070101 -1.42322 65280
0.232281 0.058070101 -1.42322 65280
0.235046 0.058070101 -1.42322 65280
0.237811 0.058070101 -1.42322 65280
0.240576 0.058070101 -1.42322 65280
0.243341 0.058070101 -1.42322 65280
0.246107 0.058070101 -1.42322 65280
0.248872 0.058070101 -1.42322 65280
0.25163701 0.058070101 -1.42322 65280
0.25440201 0.058070101 -1.42322 65280
0.25716799 0.058070101 -1.42322 65280
0.25993299 0.058070101 -1.42322 65280
0.26269799 0.058070101 -1.42322 65280
0.26546299 0.058070101 -1.42322 65280
0.26822901 0.058070101 -1.42322 65280
0.27099401 0.058070101 -1.42322 65280
0.27375901 0.058070101 -1.42322 65280
0.27652401 0.058070101 -1.42322 65280
0.27928999 0.058070101 -1.42322 65280
0.28205499 0.058070101 -1.42322 65280
0.28481999 0.058070101 -1.42322 65280
0.28758499 0.058070101 -1.42322 65280
0.290351 0.058070101 -1.42322 65280
0.293116 0.058070101 -1.42322 65280
0.295881 0.058070101 -1.42322 65280
0.298646 0.058070101 -1.42322 65280
0.30141199 0.058070101 -1.42322 65280
0.30417699 0.058070101 -1.42322 65280
0.30694199 0.058070101 -1.42322 65280
0.30970699 0.058070101 -1.42322 65280
0.312473 0.058070101 -1.42322 65280
0.315238 0.058070101 -1.42322 65280
0.318003 0.058070101 -1.42322 65280
0.320768 0.058070101 -1.42322 65280
0.32353401 0.058070101 -1.42322 65280
0.32629901 0.058070101 -1.42322 65280
0.32906401 0.058070101 -1.42322 65280
0.33182901 0.058070101 -1.42322 65280
0.33459499 0.058070101 -1.42322 65280
0.33735999 0.058070101 -1.42322 65280
0.34012499 0.058070101 -1.42322 65280
0.34288999 0.058070101 -1.42322 65280
0.34565601 0.058070101 -1.42322 65280
0.34842101 0.058070101 -1.42322 65280
0.35118601 0.058070101 -1.42322 65280
0.35395101 0.058070101 -1.42322 65280
0.35671699 0.058070101 -1.42322 65280
0.35948199 0.058070101 -1.42322 65280
0.36224699 0.058070101 -1.42322 65280
0.36501199 0.058070101 -1.42322 65280
0.36777699 0.058070101 -1.42322 65280
0.370543 0.058070101 -1.42322 65280
0.373308 0.058070101 -1.42322 65280
0.376073 0.058070101 -1.42322 65280
0.378838 0.058070101 -1.42322 65280
0.38160399 0.058070101 -1.42322 65280
0.38436899 0.058070101 -1.42322 65280
0.38713399 0.058070101 -1.42322 65280
0.38989899 0.058070101 -1.42322 65280
0.392665 0.058070101 -1.42322 65280
0.39543 0.058070101 -1.42322 65280
0.398195 0.058070101 -1.42322 65280
-0.40060401 0.0607813 -1.42196 65280
-0.39784101 0.0607813 -1.42196 65280
-0.39507899 0.0607813 -1.42196 65280
-0.39231601 0.0607813 -1.42196 65280
-0.38955301 0.0607813 -1.42196 65280
-0.38679001 0.0607813 -1.42196 65280
-0.384027 0.0607813 -1.42196 65280
-0.38126501 0.0607813 -1.42196 65280
-0.37850201 0.0607813 -1.42196 65280
-0.37573901 0.0607813 -1.42196 65280
-0.37297601 0.0607813 -1.42196 65280
-0.370213 0.0607813 -1.42196 65280
-0.36745101 0.0607813 -1.42196 65280
-0.36468801 0.0607813 -1.42196 65280
-0.36192501 0.0607813 -1.42196 65280
-0.359162 0.0607813 -1.42196 65280
-0.35640001 0.0607813 -1.42196 65280
-0.35363701 0.0607813 -1.42196 65280
-0.35087401 0.0607813 -1.42196 65280
-0.348111 0.0607813 -1.42196 65280
-0.345348 0.0607813 -1.42196 65280
-0.34258601 0.0607813 -1.42196 65280
-0.33982301 0.0607813 -1.42196 65280
-0.33706 0.0607813 -1.42196 65280
-0.334297 0.0607813 -1.42196 65280
-0.331534 0.0607813 -1.42196 65280
-0.32877201 0.0607813 -1.42196 65280
-0.32600901 0.0607813 -1.42196 65280
-0.323246 0.0607813 -1.42196 65280
-0.320483 0.0607813 -1.42196 65280
-0.31772101 0.0607813 -1.42196 65280
-0.31495801 0.0607813 -1.42196 65280
-0.312195 0.0607813 -1.42196 65280
-0.309432 0.0607813 -1.42196 65280
-0.306669 0.0607813 -1.42196 65280
-0.30390701 0.0607813 -1.42196 65280
-0.301144 0.0607813 -1.42196 65280
-0.298381 0.0607813 -1.42196 65280
-0.295618 0.0607813 -1.42196 65280
-0.29285499 0.0607813 -1.42196 65280
-0.290093 0.0607813 -1.42196 65280
-0.28733 0.0607813 -1.42196 65280
-0.284567 0.0607813 -1.42196 65280
-0.281804 0.0607813 -1.42196 65280
-0.27904099 0.0607813 -1.42196 65280
-0.276279 0.0607813 -1.42196 65280
-0.273516 0.0607813 -1.42196 65280
-0.270753 0.0607813 -1.42196 65280
-0.26798999 0.0607813 -1.42196 65280
-0.265228 0.0607813 -1.42196 65280
-0.262465 0.0607813 -1.42196 65280
-0.259702 0.0607813 -1.42196 65280
-0.25693899 0.0607813 -1.42196 65280
-0.25417599 0.0607813 -1.42196 65280
-0.251414 0.0607813 -1.42196 65280
-0.248651 0.0607813 -1.42196 65280
-0.24588799 0.0607813 -1.42196 65280
-0.24312501 0.0607813 -1.42196 65280
-0.240362 0.0607813 -1.42196 65280
-0.2376 0.0607813 -1.42196 65280
-0.234837 0.0607813 -1.42196 65280
-0.23207401 0.0607813 -1.42196 65280
-0.229311 0.0607813 -1.42196 65280
-0.226549 0.0607813 -1.42196 65280
-0.223786 0.0607813 -1.42196 65280
-0.22102299 0.0607813 -1.42196 65280
-0.21826001 0.0607813 -1.42196 65280
-0.215497 0.0607813 -1.42196 65280
-0.212735 0.0607813 -1.42196 65280
-0.20997199 0.0607813 -1.42196 65280
-0.20720901 0.0607813 -1.42196 65280
-0.204446 0.0607813 -1.42196 65280
-0.201683 0.0607813 -1.42196 65280
-0.19892099 0.0607813 -1.42196 65280
-0.19615801 0.0607813 -1.42196 65280
-0.193395 0.0607813 -1.42196 65280
-0.190632 0.0607813 -1.42196 65280
-0.18787 0.0607813 -1.42196 65280
-0.18510699 0.0607813 -1.42196 65280
-0.182344 0.0607813 -1.42196 65280
-0.179581 0.0607813 -1.42196 65280
-0.176818 0.0607813 -1.42196 65280
-0.17405599 0.0607813 -1.42196 65280
-0.17129301 0.0607813 -1.42196 65280
-0.16853 0.0607813 -1.42196 65280
-0.165767 0.0607813 -1.42196 65280
-0.163004 0.0607813 -1.42196 65280
-0.16024201 0.0607813 -1.42196 65280
-0.157479 0.0607813 -1.42196 65280
-0.154716 0.0607813 -1.42196 65280
-0.151953 0.0607813 -1.42196 65280
-0.14919101 0.0607813 -1.42196 65280
-0.146428 0.0607813 -1.42196 65280
-0.143665 0.0607813 -1.42196 65280
-0.140902 0.0607813 -1.42196 65280
-0.13813899 0.0607813 -1.42196 65280
-0.135377 0.0607813 -1.42196 65280
-0.132614 0.0607813 -1.42196 65280
-0.129851 0.0607813 -1.42196 65280
-0.127088 0.0607813 -1.42196 65280
-0.124325 0.0607813 -1.42196 65280
-0.121563 0.0607813 -1.42196 65280
-0.1188 0.0607813 -1.42196 65280
-0.116037 0.0607813 -1.42196 65280
-0.113274 0.0607813 -1.42196 65280
-0.110511 0.0607813 -1.42196 65280
-0.107749 0.0607813 -1.42196 65280
-0.104986 0.0607813 -1.42196 65280
-0.102223 0.0607813 -1.42196 65280
-0.099460296 0.0607813 -1.42196 65280
-0.096697502 0.0607813 -1.42196 65280
-0.093934797 0.0607813 -1.42196 65280
-0.091172002 0.0607813 -1.42196 65280
-0.0884092 0.0607813 -1.42196 65280
-0.085646398 0.0607813 -1.42196 65280
-0.082883596 0.0607813 -1.42196 65280
-0.080120802 0.0607813 -1.42196 65280
-0.077358 0.0607813 -1.42196 65280
-0.074595302 0.0607813 -1.42196 65280
-0.0718325 0.0607813 -1.42196 65280
-0.069069698 0.0607813 -1.42196 65280
-0.066306897 0.0607813 -1.42196 65280
-0.063544102 0.0607813 -1.42196 65280
-0.0607813 0.0607813 -1.42196 65280
-0.058018502 0.0607813 -1.42196 65280
-0.0552557 0.0607813 -1.42196 65280
-0.052492999 0.0607813 -1.42196 65280
-0.0497302 0.0607813 -1.42196 65280
-0.046967398 0.0607813 -1.42196 65280
-0.0442046 0.0607813 -1.42196 65280
-0.041441798 0.0607813 -1.42196 65280
-0.038679 0.0607813 -1.42196 65280
-0.035916202 0.0607813 -1.42196 65280
-0.0331534 0.0607813 -1.42196 65280
-0.0303907 0.0607813 -1.42196 65280
-0.0276279 0.0607813 -1.42196 65280
-0.0248651 0.0607813 -1.42196 65280
-0.0221023 0.0607813 -1.42196 65280
-0.0193395 0.0607813 -1.42196 65280
-0.0165767 0.0607813 -1.42196 65280
-0.0136046 0.059860401 -1.4004101 65280
-0.0108566 0.0597113 -1.39692 65280
-0.0081292596 0.059614599 -1.39466 65280
-0.0054126401 0.059539001 -1.39289 65280
-0.00270332 0.059473101 -1.39135 65280
0 0.059414402 -1.38998 65280
0.00269832 0.059363 -1.38878 65280
0.0053928201 0.059321001 -1.38779 65280
0.0080842003 0.059284098 -1.38693 65280
0.010773 0.059251402 -1.38617 65280
0.0134604 0.059225701 -1.38556 65280
0.016147099 0.059206001 -1.3851 65280
0.018833401 0.059190702 -1.38474 65280
0.0215203 0.0591808 -1.38451 65280
0.0242089 0.059177302 -1.3844301 65280
0.026899399 0.059178699 -1.38446 65280
0.0295936 0.0591872 -1.38466 65280
0.032294702 0.059206899 -1.38512 65280
0.0350153 0.059256699 -1.38629 65280
0.0377637 0.059342898 -1.38831 65280
0.040536098 0.059452999 -1.39088 65280
0.0433461 0.059600901 -1.39434 65280
0.046287999 0.059902199 -1.40139 65280
0.0497302 0.0607813 -1.42196 65280
0.052492999 0.0607813 -1.42196 65280
0.0552557 0.0607813 -1.42196 65280
0.058018502 0.0607813 -1.42196 65280
0.0607813 0.0607813 -1.42196 65280
0.063544102 0.0607813 -1.42196 65280
0.066306897 0.0607813 -1.42196 65280
0.069069698 0.0607813 -1.42196 65280
0.0718325 0.0607813 -1.42196 65280
0.074595302 0.0607813 -1.42196 65280
0.077358 0.0607813 -1.42196 65280
0.080120802 0.0607813 -1.42196 65280
0.082883596 0.0607813 -1.42196 65280
0.085646398 0.0607813 -1.42196 65280
0.0884092 0.0607813 -1.42196 65280
0.091172002 0.0607813 -1.42196 65280
0.093934797 0.0607813 -1.42196 65280
0.096697502 0.0607813 -1.42196 65280
0.099460296 0.0607813 -1.42196 65280
0.102223 0.0607813 -1.42196 65280
0.104986 0.0607813 -1.42196 65280
0.107749 0.0607813 -1.42196 65280
0.110511 0.0607813 -1.42196 65280
0.113274 0.0607813 -1.42196 65280
0.116037 0.0607813 -1.42196 65280
0.1188 0.0607813 -1.42196 65280
0.121563 0.0607813 -1.42196 65280
0.124325 0.0607813 -1.42196 65280
0.127088 0.0607813 -1.42196 65280
0.129851 0.0607813 -1.42196 65280
0.132614 0.0607813 -1.42196 65280
0.135377 0.0607813 -1.42196 65280
0.13813899 0.0607813 -1.42196 65280
0.140902 0.0607813 -1.42196 65280
0.143665 0.0607813 -1.42196 65280
0.146428 0.0607813 -1.42196 65280
0.14919101 0.0607813 -1.42196 65280
0.151953 0.0607813 -1.42196 65280
0.154716 0.0607813 -1.42196 65280
0.157479 0.0607813 -1.42196 65280
0.16024201 0.0607813 -1.42196 65280
0.163004 0.0607813 -1.42196 65280
0.165767 0.0607813 -1.42196 65280
0.16853 0.0607813 -1.42196 65280
0.17129301 0.0607813 -1.42196 65280
0.17405599 0.0607813 -1.42196 65280
0.176818 0.0607813 -1.42196 65280
0.179581 0.0607813 -1.42196 65280
0.182344 0.0607813 -1.42196 65280
0.18510699 0.0607813 -1.42196 65280
0.18787 0.0607813 -1.42196 65280
0.190632 0.0607813 -1.42196 65280
0.193395 0.0607813 -1.42196 65280
0.19615801 0.0607813 -1.42196 65280
0.19892099 0.0607813 -1.42196 65280
0.201683 0.0607813 -1.42196 65280
0.204446 0.0607813 -1.42196 65280
0.20720901 0.0607813 -1.42196 65280
0.20997199 0.0607813 -1.42196 65280
0.212735 0.0607813 -1.42196 65280
0.215497 0.0607813 -1.42196 65280
0.21826001 0.0607813 -1.42196 65280
0.22102299 0.0607813 -1.42196 65280
0.223786 0.0607813 -1.42196 65280
0.226549 0.0607813 -1.42196 65280
0.229311 0.0607813 -1.42196 65280
0.23207401 0.0607813 -1.42196 65280
0.234837 0.0607813 -1.42196 65280
0.2376 0.0607813 -1.42196 65280
0.240362 0.0607813 -1.42196 65280
0.24312501 0.0607813 -1.42196 65280
0.24588799 0.0607813 -1.42196 65280
0.248651 0.0607813 -1.42196 65280
0.251414 0.0607813 -1.42196 65280
0.25417599 0.0607813 -1.42196 65280
0.25693899 0.0607813 -1.42196 65280
0.259702 0.0607813 -1.42196 65280
0.262465 0.0607813 -1.42196 65280
0.265228 0.0607813 -1.42196 65280
0.26798999 0.0607813 -1.42196 65280
0.270753 0.0607813 -1.42196 65280
0.273516 0.0607813 -1.42196 65280
0.276279 0.0607813 -1.42196 65280
0.27904099 0.0607813 -1.42196 65280
0.281804 0.0607813 -1.42196 65280
0.284567 0.0607813 -1.42196 65280
0.28733 0.0607813 -1.42196 65280
0.290093 0.0607813 -1.42196 65280
0.29285499 0.0607813 -1.42196 65280
0.295618 0.0607813 -1.42196 65280
0.298381 0.0607813 -1.42196 65280
0.301144 0.0607813 -1.42196 65280
0.30390701 0.0607813 -1.42196 65280
0.306669 0.0607813 -1.42196 65280
0.309432 0.0607813 -1.42196 65280
0.312195 0.0607813 -1.42196 65280
0.31495801 0.0607813 -1.42196 65280
0.31772101 0.0607813 -1.42196 65280
0.320483 0.0607813 -1.42196 65280
0.323246 0.0607813 -1.42196 65280
0.32600901 0.0607813 -1.42196 65280
0.32877201 0.0607813 -1.42196 65280
0.331534 0.0607813 -1.42196 65280
0.334297 0.0607813 -1.42196 65280
0.33706 0.0607813 -1.42196 65280
0.33982301 0.0607813 -1.42196 65280
0.34258601 0.0607813 -1.42196 65280
0.345348 0.0607813 -1.42196 65280
0.348111 0.0607813 -1.42196 65280
0.35087401 0.0607813 -1.42196 65280
0.35363701 0.0607813 -1.42196 65280
0.35640001 0.0607813 -1.42196 65280
0.359162 0.0607813 -1.42196 65280
0.36192501 0.0607813 -1.42196 65280
0.36468801 0.0607813 -1.42196 65280
0.36745101 0.0607813 -1.42196 65280
0.370213 0.0607813 -1.42196 65280
0.37297601 0.0607813 -1.42196 65280
0.37573901 0.0607813 -1.42196 65280
0.37850201 0.0607813 -1.42196 65280
0.38126501 0.0607813 -1.42196 65280
0.384027 0.0607813 -1.42196 65280
0.38679001 0.0607813 -1.42196 65280
0.38955301 0.0607813 -1.42196 65280
0.39231601 0.0607813 -1.42196 65280
0.39507899 0.0607813 -1.42196 65280
0.39784101 0.0607813 -1.42196 65280
-0.400249 0.063487701 -1.4206899 65280
-0.397488 0.063487701 -1.4206899 65280
-0.394728 0.063487701 -1.4206899 65280
-0.39196801 0.063487701 -1.4206899 65280
-0.38920701 0.063487701 -1.4206899 65280
-0.38644701 0.063487701 -1.4206899 65280
-0.38368699 0.063487701 -1.4206899 65280
-0.38092601 0.063487701 -1.4206899 65280
-0.37816599 0.063487701 -1.4206899 65280
-0.375406 0.063487701 -1.4206899 65280
-0.37264499 0.063487701 -1.4206899 65280
-0.369885 0.063487701 -1.4206899 65280
-0.367125 0.063487701 -1.4206899 65280
-0.364364 0.063487701 -1.4206899 65280
-0.36160401 0.063487701 -1.4206899 65280
-0.35884401 0.063487701 -1.4206899 65280
-0.35608301 0.063487701 -1.4206899 65280
-0.35332301 0.063487701 -1.4206899 65280
-0.35056299 0.063487701 -1.4206899 65280
-0.34780201 0.063487701 -1.4206899 65280
-0.34504199 0.063487701 -1.4206899 65280
-0.342282 0.063487701 -1.4206899 65280
-0.33952099 0.063487701 -1.4206899 65280
-0.336761 0.063487701 -1.4206899 65280
-0.334001 0.063487701 -1.4206899 65280
-0.33124 0.063487701 -1.4206899 65280
-0.32848001 0.063487701 -1.4206899 65280
-0.32572001 0.063487701 -1.4206899 65280
-0.32295901 0.063487701 -1.4206899 65280
-0.32019901 0.063487701 -1.4206899 65280
-0.31743899 0.063487701 -1.4206899 65280
-0.31467801 0.063487701 -1.4206899 65280
-0.31191799 0.063487701 -1.4206899 65280
-0.309158 0.063487701 -1.4206899 65280
-0.30639699 0.063487701 -1.4206899 65280
-0.303637 0.063487701 -1.4206899 65280
-0.300877 0.063487701 -1.4206899 65280
-0.298116 0.063487701 -1.4206899 65280
-0.29535601 0.063487701 -1.4206899 65280
-0.29259601 0.063487701 -1.4206899 65280
-0.28983501 0.063487701 -1.4206899 65280
-0.28707501 0.063487701 -1.4206899 65280
-0.28431499 0.063487701 -1.4206899 65280
-0.28155401 0.063487701 -1.4206899 65280
-0.27879399 0.063487701 -1.4206899 65280
-0.276034 0.063487701 -1.4206899 65280
-0.27327299 0.063487701 -1.4206899 65280
-0.270513 0.063487701 -1.4206899 65280
-0.26775301 0.063487701 -1.4206899 65280
-0.264992 0.063487701 -1.4206899 65280
-0.26223201 0.063487701 -1.4206899 65280
-0.25947201 0.063487701 -1.4206899 65280
-0.25671101 0.063487701 -1.4206899 65280
-0.25395101 0.063487701 -1.4206899 65280
-0.25119099 0.063487701 -1.4206899 65280
-0.24843 0.063487701 -1.4206899 65280
-0.24567001 0.063487701 -1.4206899 65280
-0.24291 0.063487701 -1.4206899 65280
-0.24014901 0.063487701 -1.4206899 65280
-0.237389 0.063487701 -1.4206899 65280
-0.23462901 0.063487701 -1.4206899 65280
-0.231868 0.063487701 -1.4206899 65280
-0.22910801 0.063487701 -1.4206899 65280
-0.226348 0.063487701 -1.4206899 65280
-0.22358701 0.063487701 -1.4206899 65280
-0.220827 0.063487701 -1.4206899 65280
-0.21806701 0.063487701 -1.4206899 65280
-0.215306 0.063487701 -1.4206899 65280
-0.21254601 0.063487701 -1.4206899 65280
-0.209786 0.063487701 -1.4206899 65280
-0.20702501 0.063487701 -1.4206899 65280
-0.204265 0.063487701 -1.4206899 65280
-0.20150501 0.063487701 -1.4206899 65280
-0.198744 0.063487701 -1.4206899 65280
-0.19598401 0.063487701 -1.4206899 65280
-0.193224 0.063487701 -1.4206899 65280
-0.19046301 0.063487701 -1.4206899 65280
-0.187703 0.063487701 -1.4206899 65280
-0.18494301 0.063487701 -1.4206899 65280
-0.182182 0.063487701 -1.4206899 65280
-0.17942201 0.063487701 -1.4206899 65280
-0.176662 0.063487701 -1.4206899 65280
-0.17390101 0.063487701 -1.4206899 65280
-0.171141 0.063487701 -1.4206899 65280
-0.16838101 0.063487701 -1.4206899 65280
-0.16562 0.063487701 -1.4206899 65280
-0.16286001 0.063487701 -1.4206899 65280
-0.1601 0.063487701 -1.4206899 65280
-0.15733901 0.063487701 -1.4206899 65280
-0.154579 0.063487701 -1.4206899 65280
-0.15181901 0.063487701 -1.4206899 65280
-0.149058 0.063487701 -1.4206899 65280
-0.14629801 0.063487701 -1.4206899 65280
-0.143538 0.063487701 -1.4206899 65280
-0.14077701 0.063487701 -1.4206899 65280
-0.138017 0.063487701 -1.4206899 65280
-0.13525601 0.063487701 -1.4206899 65280
-0.132496 0.063487701 -1.4206899 65280
-0.12973601 0.063487701 -1.4206899 65280
-0.126975 0.063487701 -1.4206899 65280
-0.124215 0.063487701 -1.4206899 65280
-0.121455 0.063487701 -1.4206899 65280
-0.118694 0.063487701 -1.4206899 65280
-0.115934 0.063487701 -1.4206899 65280
-0.113174 0.063487701 -1.4206899 65280
-0.110413 0.063487701 -1.4206899 65280
-0.107653 0.063487701 -1.4206899 65280
-0.104893 0.063487701 -1.4206899 65280
-0.102132 0.063487701 -1.4206899 65280
-0.099372096 0.063487701 -1.4206899 65280
-0.096611798 0.063487701 -1.4206899 65280
-0.093851402 0.063487701 -1.4206899 65280
-0.091091096 0.063487701 -1.4206899 65280
-0.088330798 0.063487701 -1.4206899 65280
-0.085570402 0.063487701 -1.4206899 65280
-0.082810096 0.063487701 -1.4206899 65280
-0.080049798 0.063487701 -1.4206899 65280
-0.077289402 0.063487701 -1.4206899 65280
-0.074529096 0.063487701 -1.4206899 65280
-0.071768798 0.063487701 -1.4206899 65280
-0.069008403 0.063487701 -1.4206899 65280
-0.066248097 0.063487701 -1.4206899 65280
-0.063487701 0.063487701 -1.4206899 65280
-0.060727399 0.063487701 -1.4206899 65280
-0.0579671 0.063487701 -1.4206899 65280
-0.055206701 0.063487701 -1.4206899 65280
-0.052446399 0.063487701 -1.4206899 65280
-0.0496861 0.063487701 -1.4206899 65280
-0.046925701 0.063487701 -1.4206899 65280
-0.044165399 0.063487701 -1.4206899 65280
-0.0414051 0.063487701 -1.4206899 65280
-0.038644701 0.063487701 -1.4206899 65280
-0.035884399 0.063487701 -1.4206899 65280
-0.033124 0.063487701 -1.4206899 65280
-0.030363699 0.063487701 -1.4206899 65280
-0.027603401 0.063487701 -1.4206899 65280
-0.024843 0.063487701 -1.4206899 65280
-0.022082699 0.063487701 -1.4206899 65280
-0.019322401 0.063487701 -1.4206899 65280
-0.016562 0.063487701 -1.4206899 65280
-0.0138017 0.063487701 -1.4206899 65280
-0.0110413 0.063487701 -1.4206899 65280
-0.0081845196 0.062748 -1.40414 65280
-0.0054299501 0.0624444 -1.39735 65280
-0.0027102199 0.062334999 -1.3949 65280
0 0.0622552 -1.39311 65280
0.00270391 0.062189899 -1.39165 65280
0.0054030502 0.0621351 -1.39043 65280
0.0080986898 0.062089901 -1.38942 65280
0.010792 0.062054198 -1.38862 65280
0.013484 0.062026199 -1.38799 65280
0.016175 0.062004201 -1.3875 65280
0.0188659 0.061987799 -1.38713 65280
0.021557299 0.0619772 -1.3868901 65280
0.0242505 0.0619734 -1.3868099 65280
0.0269462 0.061976202 -1.38687 65280
0.029645899 0.061986901 -1.38711 65280
0.032353599 0.0620111 -1.38765 65280
0.035078 0.062061101 -1.38877 65280
0.037841499 0.0621682 -1.39117 65280
0.040656202 0.0623395 -1.395 65280
0.044165399 0.063487701 -1.4206899 65280
0.046925701 0.063487701 -1.4206899 65280
0.0496861 0.063487701 -1.4206899 65280
0.052446399 0.063487701 -1.4206899 65280
0.055206701 0.063487701 -1.4206899 65280
0.0579671 0.063487701 -1.4206899 65280
0.060727399 0.063487701 -1.4206899 65280
0.063487701 0.063487701 -1.4206899 65280
0.066248097 0.063487701 -1.4206899 65280
0.069008403 0.063487701 -1.4206899 65280
0.071768798 0.063487701 -1.4206899 65280
0.074529096 0.063487701 -1.4206899 65280
0.077289402 0.063487701 -1.4206899 65280
0.080049798 0.063487701 -1.4206899 65280
0.082810096 0.063487701 -1.4206899 65280
0.085570402 0.063487701 -1.4206899 65280
0.088330798 0.063487701 -1.4206899 65280
0.091091096 0.063487701 -1.4206899 65280
0.093851402 0.063487701 -1.4206899 65280
0.096611798 0.063487701 -1.4206899 65280
0.099372096 0.063487701 -1.4206899 65280
0.102132 0.063487701 -1.4206899 65280
0.104893 0.063487701 -1.4206899 65280
0.107653 0.063487701 -1.4206899 65280
0.110413 0.063487701 -1.4206899 65280
0.113174 0.063487701 -1.4206899 65280
0.115934 0.063487701 -1.4206899 65280
0.118694 0.063487701 -1.4206899 65280
0.121455 0.063487701 -1.4206899 65280
0.124215 0.063487701 -1.4206899 65280
0.126975 0.063487701 -1.4206899 65280
0.12973601 0.063487701 -1.4206899 65280
0.132496 0.063487701 -1.4206899 65280
0.13525601 0.063487701 -1.4206899 65280
0.138017 0.063487701 -1.4206899 65280
0.14077701 0.063487701 -1.4206899 65280
0.143538 0.063487701 -1.4206899 65280
0.14629801 0.063487701 -1.4206899 65280
0.149058 0.063487701 -1.4206899 65280
0.15181901 0.063487701 -1.4206899 65280
0.154579 0.063487701 -1.4206899 65280
0.15733901 0.063487701 -1.4206899 65280
0.1601 0.063487701 -1.4206899 65280
0.16286001 0.063487701 -1.4206899 65280
0.16562 0.063487701 -1.4206899 65280
0.16838101 0.063487701 -1.4206899 65280
0.171141 0.063487701 -1.4206899 65280
0.17390101 0.063487701 -1.4206899 65280
0.176662 0.063487701 -1.4206899 65280
0.17942201 0.063487701 -1.4206899 65280
0.182182 0.063487701 -1.4206899 65280
0.18494301 0.063487701 -1.4206899 65280
0.187703 0.063487701 -1.4206899 65280
0.19046301 0.063487701 -1.4206899 65280
0.193224 0.063487701 -1.4206899 65280
0.19598401 0.063487701 -1.4206899 65280
0.198744 0.063487701 -1.4206899 65280
0.20150501 0.063487701 -1.4206899 65280
0.204265 0.063487701 -1.4206899 65280
0.20702501 0.063487701 -1.4206899 65280
0.209786 0.063487701 -1.4206899 65280
0.21254601 0.063487701 -1.4206899 65280
0.215306 0.063487701 -1.4206899 65280
0.21806701 0.063487701 -1.4206899 65280
0.220827 0.063487701 -1.4206899 65280
0.22358701 0.063487701 -1.4206899 65280
0.226348 0.063487701 -1.4206899 65280
0.22910801 0.063487701 -1.4206899 65280
0.231868 0.063487701 -1.4206899 65280
0.23462901 0.063487701 -1.4206899 65280
0.237389 0.063487701 -1.4206899 65280
0.24014901 0.063487701 -1.4206899 65280
0.24291 0.063487701 -1.4206899 65280
0.24567001 0.063487701 -1.4206899 65280
0.24843 0.063487701 -1.4206899 65280
0.25119099 0.063487701 -1.4206899 65280
0.25395101 0.063487701 -1.4206899 65280
0.25671101 0.063487701 -1.4206899 65280
0.25947201 0.063487701 -1.4206899 65280
0.26223201 0.063487701 -1.4206899 65280
0.264992 0.063487701 -1.4206899 65280
0.26775301 0.063487701 -1.4206899 65280
0.270513 0.063487701 -1.4206899 65280
0.27327299 0.063487701 -1.4206899 65280
0.276034 0.063487701 -1.4206899 65280
0.27879399 0.063487701 -1.4206899 65280
0.28155401 0.063487701 -1.4206899 65280
0.28431499 0.063487701 -1.4206899 65280
0.28707501 0.063487701 -1.4206899 65280
0.28983501 0.063487701 -1.4206899 65280
0.29259601 0.063487701 -1.4206899 65280
0.29535601 0.063487701 -1.4206899 65280
0.298116 0.063487701 -1.4206899 65280
0.300877 0.063487701 -1.4206899 65280
0.303637 0.063487701 -1.4206899 65280
0.30639699 0.063487701 -1.4206899 65280
0.309158 0.063487701 -1.4206899 65280
0.31191799 0.063487701 -1.4206899 65280
0.31467801 0.063487701 -1.4206899 65280
0.31743899 0.063487701 -1.4206899 65280
0.32019901 0.063487701 -1.4206899 65280
0.32295901 0.063487701 -1.4206899 65280
0.32572001 0.063487701 -1.4206899 65280
0.32848001 0.063487701 -1.4206899 65280
0.33124 0.063487701 -1.4206899 65280
0.334001 0.063487701 -1.4206899 65280
0.336761 0.063487701 -1.4206899 65280
0.33952099 0.063487701 -1.4206899 65280
0.342282 0.063487701 -1.4206899 65280
0.34504199 0.063487701 -1.4206899 65280
0.34780201 0.063487701 -1.4206899 65280
0.35056299 0.063487701 -1.4206899 65280
0.35332301 0.063487701 -1.4206899 65280
0.35608301 0.063487701 -1.4206899 65280
0.35884401 0.063487701 -1.4206899 65280
0.36160401 0.063487701 -1.4206899 65280
0.364364 0.063487701 -1.4206899 65280
0.367125 0.063487701 -1.4206899 65280
0.369885 0.063487701 -1.4206899 65280
0.37264499 0.063487701 -1.4206899 65280
0.375406 0.063487701 -1.4206899 65280
0.37816599 0.063487701 -1.4206899 65280
0.38092601 0.063487701 -1.4206899 65280
0.38368699 0.063487701 -1.4206899 65280
0.38644701 0.063487701 -1.4206899 65280
0.38920701 0.063487701 -1.4206899 65280
0.39196801 0.063487701 -1.4206899 65280
0.394728 0.063487701 -1.4206899 65280
0.397488 0.063487701 -1.4206899 65280
-0.399894 0.066189401 -1.41944 65280
-0.397136 0.066189401 -1.41944 65280
-0.39437801 0.066189401 -1.41944 65280
-0.39162001 0.066189401 -1.41944 65280
-0.388863 0.066189401 -1.41944 65280
-0.386105 0.066189401 -1.41944 65280
-0.383347 0.066189401 -1.41944 65280
-0.38058901 0.066189401 -1.41944 65280
-0.37783101 0.066189401 -1.41944 65280
-0.37507299 0.066189401 -1.41944 65280
-0.37231499 0.066189401 -1.41944 65280
-0.36955699 0.066189401 -1.41944 65280
-0.366799 0.066189401 -1.41944 65280
-0.36404201 0.066189401 -1.41944 65280
-0.36128399 0.066189401 -1.41944 65280
-0.35852599 0.066189401 -1.41944 65280
-0.355768 0.066189401 -1.41944 65280
-0.35301 0.066189401 -1.41944 65280
-0.350252 0.066189401 -1.41944 65280
-0.34749401 0.066189401 -1.41944 65280
-0.34473601 0.066189401 -1.41944 65280
-0.34197801 0.066189401 -1.41944 65280
-0.339221 0.066189401 -1.41944 65280
-0.336463 0.066189401 -1.41944 65280
-0.33370501 0.066189401 -1.41944 65280
-0.33094701 0.066189401 -1.41944 65280
-0.32818899 0.066189401 -1.41944 65280
-0.32543099 0.066189401 -1.41944 65280
-0.32267299 0.066189401 -1.41944 65280
-0.319915 0.066189401 -1.41944 65280
-0.317157 0.066189401 -1.41944 65280
-0.31439999 0.066189401 -1.41944 65280
-0.31164199 0.066189401 -1.41944 65280
-0.30888399 0.066189401 -1.41944 65280
-0.306126 0.066189401 -1.41944 65280
-0.303368 0.066189401 -1.41944 65280
-0.30061001 0.066189401 -1.41944 65280
-0.29785201 0.066189401 -1.41944 65280
-0.29509401 0.066189401 -1.41944 65280
-0.29233599 0.066189401 -1.41944 65280
-0.28957799 0.066189401 -1.41944 65280
-0.28682101 0.066189401 -1.41944 65280
-0.28406301 0.066189401 -1.41944 65280
-0.28130499 0.066189401 -1.41944 65280
-0.27854699 0.066189401 -1.41944 65280
-0.27578899 0.066189401 -1.41944 65280
-0.273031 0.066189401 -1.41944 65280
-0.270273 0.066189401 -1.41944 65280
-0.267515 0.066189401 -1.41944 65280
-0.26475701 0.066189401 -1.41944 65280
-0.26199999 0.066189401 -1.41944 65280
-0.259242 0.066189401 -1.41944 65280
-0.256484 0.066189401 -1.41944 65280
-0.25372601 0.066189401 -1.41944 65280
-0.25096801 0.066189401 -1.41944 65280
-0.24821 0.066189401 -1.41944 65280
-0.245452 0.066189401 -1.41944 65280
-0.24269401 0.066189401 -1.41944 65280
-0.23993599 0.066189401 -1.41944 65280
-0.237179 0.066189401 -1.41944 65280
-0.234421 0.066189401 -1.41944 65280
-0.231663 0.066189401 -1.41944 65280
-0.22890501 0.066189401 -1.41944 65280
-0.226147 0.066189401 -1.41944 65280
-0.223389 0.066189401 -1.41944 65280
-0.220631 0.066189401 -1.41944 65280
-0.21787301 0.066189401 -1.41944 65280
-0.215115 0.066189401 -1.41944 65280
-0.212358 0.066189401 -1.41944 65280
-0.2096 0.066189401 -1.41944 65280
-0.20684201 0.066189401 -1.41944 65280
-0.20408399 0.066189401 -1.41944 65280
-0.201326 0.066189401 -1.41944 65280
-0.198568 0.066189401 -1.41944 65280
-0.19581001 0.066189401 -1.41944 65280
-0.19305199 0.066189401 -1.41944 65280
-0.190294 0.066189401 -1.41944 65280
-0.187537 0.066189401 -1.41944 65280
-0.184779 0.066189401 -1.41944 65280
-0.18202101 0.066189401 -1.41944 65280
-0.179263 0.066189401 -1.41944 65280
-0.176505 0.066189401 -1.41944 65280
-0.173747 0.066189401 -1.41944 65280
-0.17098901 0.066189401 -1.41944 65280
-0.168231 0.066189401 -1.41944 65280
