# .PCD v0.7 - Point Cloud Data file format
VERSION 0.7
FIELDS x y z rgb
SIZE 4 4 4 4
TYPE F F F U
COUNT 1 1 1 1
WIDTH 1237
HEIGHT 1
VIEWPOINT 0 0 0 1 0 0 0
POINTS 1237
DATA ascii
-0.054677699 -0.0661887 -1.48114 65280
-0.051799901 -0.0661887 -1.48114 65280
-0.048922099 -0.0661887 -1.48114 65280
-0.046044301 -0.0661887 -1.48114 65280
-0.0431666 -0.0661887 -1.48114 65280
-0.040288799 -0.0661887 -1.48114 65280
-0.037411001 -0.0661887 -1.48114 65280
-0.0345333 -0.0661887 -1.48114 65280
-0.031655502 -0.0661887 -1.48114 65280
-0.0287777 -0.0661887 -1.48114 65280
-0.0258999 -0.0661887 -1.48114 65280
-0.021322699 -0.0613029 -1.3717999 65280
-0.0186284 -0.0612076 -1.36967 65280
-0.015956299 -0.061165798 -1.3687299 65280
-0.0132941 -0.061152801 -1.36844 65280
-0.0106371 -0.061163601 -1.36869 65280
-0.00798121 -0.061189301 -1.36926 65280
-0.0053267898 -0.061257999 -1.3708 65280
-0.0026680999 -0.061366301 -1.37322 65280
0 -0.063872501 -1.4293 65280
0.0027693 -0.063693799 -1.42531 65280
0.0055282 -0.063574299 -1.42263 65280
0.0082806097 -0.063484699 -1.42063 65280
0.0110263 -0.063401401 -1.4187599 65280
0.0137677 -0.063331299 -1.41719 65280
0.0165023 -0.063258603 -1.41557 65280
0.019242199 -0.063224196 -1.4148 65280
0.022011099 -0.063281901 -1.41609 65280
0.0248322 -0.06346 -1.4200701 65280
0.0287777 -0.0661887 -1.48114 65280
0.031655502 -0.0661887 -1.48114 65280
0.0345333 -0.0661887 -1.48114 65280
0.037411001 -0.0661887 -1.48114 65280
0.040288799 -0.0661887 -1.48114 65280
0.0431666 -0.0661887 -1.48114 65280
0.046044301 -0.0661887 -1.48114 65280
0.048922099 -0.0661887 -1.48114 65280
0.051799901 -0.0661887 -1.48114 65280
0.054677699 -0.0661887 -1.48114 65280
0.0575554 -0.0661887 -1.48114 65280
0.060433201 -0.0661887 -1.48114 65280
0.063311003 -0.0661887 -1.48114 65280
0.0661887 -0.0661887 -1.48114 65280
0.069066502 -0.0661887 -1.48114 65280
0.071944296 -0.0661887 -1.48114 65280
0.074822098 -0.0661887 -1.48114 65280
0.077699803 -0.0661887 -1.48114 65280
0.080577597 -0.0661887 -1.48114 65280
0.083455399 -0.0661887 -1.48114 65280
0.086333103 -0.0661887 -1.48114 65280
0.089210898 -0.0661887 -1.48114 65280
0.092088699 -0.0661887 -1.48114 65280
0.094966397 -0.0661887 -1.48114 65280
0.097844198 -0.0661887 -1.48114 65280
0.100722 -0.0661887 -1.48114 65280
0.1036 -0.0661887 -1.48114 65280
0.106478 -0.0661887 -1.48114 65280
0.109355 -0.0661887 -1.48114 65280
0.112233 -0.0661887 -1.48114 65280
0.115111 -0.0661887 -1.48114 65280
0.117989 -0.0661887 -1.48114 65280
0.120866 -0.0661887 -1.48114 65280
0.123744 -0.0661887 -1.48114 65280
0.12662201 -0.0661887 -1.48114 65280
0.1295 -0.0661887 -1.48114 65280
0.132377 -0.0661887 -1.48114 65280
0.13525499 -0.0661887 -1.48114 65280
0.138133 -0.0661887 -1.48114 65280
0.141011 -0.0661887 -1.48114 65280
0.143889 -0.0661887 -1.48114 65280
0.14676601 -0.0661887 -1.48114 65280
0.149644 -0.0661887 -1.48114 65280
0.152522 -0.0661887 -1.48114 65280
0.15539999 -0.0661887 -1.48114 65280
0.158277 -0.0661887 -1.48114 65280
0.161155 -0.0661887 -1.48114 65280
0.164033 -0.0661887 -1.48114 65280
0.16691101 -0.0661887 -1.48114 65280
0.169789 -0.0661887 -1.48114 65280
0.172666 -0.0661887 -1.48114 65280
0.17554399 -0.0661887 -1.48114 65280
0.178422 -0.0661887 -1.48114 65280
0.1813 -0.0661887 -1.48114 65280
0.184177 -0.0661887 -1.48114 65280
0.18705501 -0.0661887 -1.48114 65280
0.189933 -0.0661887 -1.48114 65280
0.192811 -0.0661887 -1.48114 65280
0.19568799 -0.0661887 -1.48114 65280
0.198566 -0.0661887 -1.48114 65280
0.201444 -0.0661887 -1.48114 65280
0.204322 -0.0661887 -1.48114 65280
0.20720001 -0.0661887 -1.48114 65280
0.210077 -0.0661887 -1.48114 65280
0.212955 -0.0661887 -1.48114 65280
0.21583299 -0.0661887 -1.48114 65280
0.218711 -0.0661887 -1.48114 65280
0.221588 -0.0661887 -1.48114 65280
0.224466 -0.0661887 -1.48114 65280
0.22734401 -0.0661887 -1.48114 65280
0.230222 -0.0661887 -1.48114 65280
0.233099 -0.0661887 -1.48114 65280
0.23597699 -0.0661887 -1.48114 65280
0.238855 -0.0661887 -1.48114 65280
0.241733 -0.0661887 -1.48114 65280
0.244611 -0.0661887 -1.48114 65280
0.24748801 -0.0661887 -1.48114 65280
0.250366 -0.0661887 -1.48114 65280
0.25324401 -0.0661887 -1.48114 65280
0.25612199 -0.0661887 -1.48114 65280
0.25899899 -0.0661887 -1.48114 65280
0.261877 -0.0661887 -1.48114 65280
0.26475501 -0.0661887 -1.48114 65280
0.26763299 -0.0661887 -1.48114 65280
0.27050999 -0.0661887 -1.48114 65280
0.273388 -0.0661887 -1.48114 65280
0.27626601 -0.0661887 -1.48114 65280
0.27914399 -0.0661887 -1.48114 65280
0.282022 -0.0661887 -1.48114 65280
0.284899 -0.0661887 -1.48114 65280
0.28777701 -0.0661887 -1.48114 65280
0.29065499 -0.0661887 -1.48114 65280
0.293533 -0.0661887 -1.48114 65280
0.29640999 -0.0661887 -1.48114 65280
0.299288 -0.0661887 -1.48114 65280
0.30216599 -0.0661887 -1.48114 65280
0.305044 -0.0661887 -1.48114 65280
0.30792201 -0.0661887 -1.48114 65280
0.310799 -0.0661887 -1.48114 65280
0.31367701 -0.0661887 -1.48114 65280
0.31655499 -0.0661887 -1.48114 65280
0.319433 -0.0661887 -1.48114 65280
0.32231 -0.0661887 -1.48114 65280
0.32518801 -0.0661887 -1.48114 65280
0.32806599 -0.0661887 -1.48114 65280
0.330944 -0.0661887 -1.48114 65280
0.333821 -0.0661887 -1.48114 65280
0.33669901 -0.0661887 -1.48114 65280
0.33957699 -0.0661887 -1.48114 65280
0.342455 -0.0661887 -1.48114 65280
0.34533301 -0.0661887 -1.48114 65280
0.34821001 -0.0661887 -1.48114 65280
0.35108799 -0.0661887 -1.48114 65280
0.353966 -0.0661887 -1.48114 65280
0.35684401 -0.0661887 -1.48114 65280
0.359721 -0.0661887 -1.48114 65280
0.36259899 -0.0661887 -1.48114 65280
0.365477 -0.0661887 -1.48114 65280
0.36835501 -0.0661887 -1.48114 65280
0.37123299 -0.0661887 -1.48114 65280
0.37411001 -0.0661887 -1.48114 65280
0.37698799 -0.0661887 -1.48114 65280
0.379866 -0.0661887 -1.48114 65280
0.38274401 -0.0661887 -1.48114 65280
0.38562101 -0.0661887 -1.48114 65280
0.38849899 -0.0661887 -1.48114 65280
0.391377 -0.0661887 -1.48114 65280
0.39425501 -0.0661887 -1.48114 65280
0.39713201 -0.0661887 -1.48114 65280
-0.39964101 -0.063252501 -1.4797699 65280
-0.39676601 -0.063252501 -1.4797699 65280
-0.39388999 -0.063252501 -1.4797699 65280
-0.39101499 -0.063252501 -1.4797699 65280
-0.38813999 -0.063252501 -1.4797699 65280
-0.38526499 -0.063252501 -1.4797699 65280
-0.38238999 -0.063252501 -1.4797699 65280
-0.37951499 -0.063252501 -1.4797699 65280
-0.37663999 -0.063252501 -1.4797699 65280
-0.37376499 -0.063252501 -1.4797699 65280
-0.37088999 -0.063252501 -1.4797699 65280
-0.36801401 -0.063252501 -1.4797699 65280
-0.36513901 -0.063252501 -1.4797699 65280
-0.36226401 -0.063252501 -1.4797699 65280
-0.35938901 -0.063252501 -1.4797699 65280
-0.35651401 -0.063252501 -1.4797699 65280
-0.35363901 -0.063252501 -1.4797699 65280
-0.35076401 -0.063252501 -1.4797699 65280
-0.34788901 -0.063252501 -1.4797699 65280
-0.34501401 -0.063252501 -1.4797699 65280
-0.34213799 -0.063252501 -1.4797699 65280
-0.33926299 -0.063252501 -1.4797699 65280
-0.33638799 -0.063252501 -1.4797699 65280
-0.33351299 -0.063252501 -1.4797699 65280
-0.33063799 -0.063252501 -1.4797699 65280
-0.32776299 -0.063252501 -1.4797699 65280
-0.32488799 -0.063252501 -1.4797699 65280
-0.32201299 -0.063252501 -1.4797699 65280
-0.31913799 -0.063252501 -1.4797699 65280
-0.31626201 -0.063252501 -1.4797699 65280
-0.31338701 -0.063252501 -1.4797699 65280
-0.31051201 -0.063252501 -1.4797699 65280
-0.30763701 -0.063252501 -1.4797699 65280
-0.30476201 -0.063252501 -1.4797699 65280
-0.30188701 -0.063252501 -1.4797699 65280
-0.29901201 -0.063252501 -1.4797699 65280
-0.29613701 -0.063252501 -1.4797699 65280
-0.29326099 -0.063252501 -1.4797699 65280
-0.29038599 -0.063252501 -1.4797699 65280
-0.28751099 -0.063252501 -1.4797699 65280
-0.28463599 -0.063252501 -1.4797699 65280
-0.28176099 -0.063252501 -1.4797699 65280
-0.27888599 -0.063252501 -1.4797699 65280
-0.27601099 -0.063252501 -1.4797699 65280
-0.27313599 -0.063252501 -1.4797699 65280
-0.27026099 -0.063252501 -1.4797699 65280
-0.26738501 -0.063252501 -1.4797699 65280
-0.26451001 -0.063252501 -1.4797699 65280
-0.26163501 -0.063252501 -1.4797699 65280
-0.25876001 -0.063252501 -1.4797699 65280
-0.255885 -0.063252501 -1.4797699 65280
-0.25301 -0.063252501 -1.4797699 65280
-0.250135 -0.063252501 -1.4797699 65280
-0.24726 -0.063252501 -1.4797699 65280
-0.244385 -0.063252501 -1.4797699 65280
-0.24150901 -0.063252501 -1.4797699 65280
-0.23863401 -0.063252501 -1.4797699 65280
-0.235759 -0.063252501 -1.4797699 65280
-0.232884 -0.063252501 -1.4797699 65280
-0.230009 -0.063252501 -1.4797699 65280
-0.227134 -0.063252501 -1.4797699 65280
-0.224259 -0.063252501 -1.4797699 65280
-0.221384 -0.063252501 -1.4797699 65280
-0.218509 -0.063252501 -1.4797699 65280
-0.215633 -0.063252501 -1.4797699 65280
-0.212758 -0.063252501 -1.4797699 65280
-0.209883 -0.063252501 -1.4797699 65280
-0.207008 -0.063252501 -1.4797699 65280
-0.204133 -0.063252501 -1.4797699 65280
-0.201258 -0.063252501 -1.4797699 65280
-0.198383 -0.063252501 -1.4797699 65280
-0.195508 -0.063252501 -1.4797699 65280
-0.192633 -0.063252501 -1.4797699 65280
-0.189757 -0.063252501 -1.4797699 65280
-0.186882 -0.063252501 -1.4797699 65280
-0.184007 -0.063252501 -1.4797699 65280
-0.181132 -0.063252501 -1.4797699 65280
-0.178257 -0.063252501 -1.4797699 65280
-0.175382 -0.063252501 -1.4797699 65280
-0.172507 -0.063252501 -1.4797699 65280
-0.169632 -0.063252501 -1.4797699 65280
-0.166757 -0.063252501 -1.4797699 65280
-0.163881 -0.063252501 -1.4797699 65280
-0.161006 -0.063252501 -1.4797699 65280
-0.158131 -0.063252501 -1.4797699 65280
-0.155256 -0.063252501 -1.4797699 65280
-0.152381 -0.063252501 -1.4797699 65280
-0.149506 -0.063252501 -1.4797699 65280
-0.146631 -0.063252501 -1.4797699 65280
-0.143756 -0.063252501 -1.4797699 65280
-0.140881 -0.063252501 -1.4797699 65280
-0.138005 -0.063252501 -1.4797699 65280
-0.13513 -0.063252501 -1.4797699 65280
-0.132255 -0.063252501 -1.4797699 65280
-0.12938 -0.063252501 -1.4797699 65280
-0.126505 -0.063252501 -1.4797699 65280
-0.12363 -0.063252501 -1.4797699 65280
-0.120755 -0.063252501 -1.4797699 65280
-0.11788 -0.063252501 -1.4797699 65280
-0.115005 -0.063252501 -1.4797699 65280
-0.112129 -0.063252501 -1.4797699 65280
-0.109254 -0.063252501 -1.4797699 65280
-0.106379 -0.063252501 -1.4797699 65280
-0.103504 -0.063252501 -1.4797699 65280
-0.100629 -0.063252501 -1.4797699 65280
-0.0977538 -0.063252501 -1.4797699 65280
-0.094878703 -0.063252501 -1.4797699 65280
-0.092003599 -0.063252501 -1.4797699 65280
-0.089128502 -0.063252501 -1.4797699 65280
-0.086253397 -0.063252501 -1.4797699 65280
-0.0833783 -0.063252501 -1.4797699 65280
-0.080503203 -0.063252501 -1.4797699 65280
-0.077628002 -0.063252501 -1.4797699 65280
-0.074752897 -0.063252501 -1.4797699 65280
-0.0718778 -0.063252501 -1.4797699 65280
-0.069002703 -0.063252501 -1.4797699 65280
-0.066127598 -0.063252501 -1.4797699 65280
-0.063252501 -0.063252501 -1.4797699 65280
-0.0603774 -0.063252501 -1.4797699 65280
-0.0575023 -0.063252501 -1.4797699 65280
-0.054627098 -0.063252501 -1.4797699 65280
-0.051752001 -0.063252501 -1.4797699 65280
-0.0488769 -0.063252501 -1.4797699 65280
-0.046001799 -0.063252501 -1.4797699 65280
-0.043126699 -0.063252501 -1.4797699 65280
-0.040251601 -0.063252501 -1.4797699 65280
-0.037376501 -0.063252501 -1.4797699 65280
-0.0345014 -0.063252501 -1.4797699 65280
-0.031626198 -0.063252501 -1.4797699 65280
-0.026665499 -0.058664199 -1.37243 65280
-0.0239214 -0.0584745 -1.36799 65280
-0.021236001 -0.0583991 -1.36623 65280
-0.0185671 -0.058353599 -1.36516 65280
-0.0159082 -0.058329999 -1.36461 65280
-0.0132562 -0.058327299 -1.36454 65280
-0.0106071 -0.058339301 -1.36483 65280
-0.0079597002 -0.058371201 -1.3655699 65280
-0.00531103 -0.058421299 -1.36674 65280
-0.0026592601 -0.058503799 -1.36867 65280
0 -0.058629598 -1.3716201 65280
0.00276572 -0.0608458 -1.42347 65280
0.0055246898 -0.060771599 -1.42173 65280
0.00827902 -0.060712799 -1.42035 65280
0.0110296 -0.060662601 -1.41918 65280
0.0137766 -0.060616899 -1.41811 65280
0.0165192 -0.060570199 -1.41702 65280
0.019264299 -0.060544901 -1.41642 65280
0.0220307 -0.0605844 -1.4173501 65280
0.0248488 -0.060741499 -1.42102 65280
0.0277595 -0.0610708 -1.42873 65280
0.031626198 -0.063252501 -1.4797699 65280
0.0345014 -0.063252501 -1.4797699 65280
0.037376501 -0.063252501 -1.4797699 65280
0.040251601 -0.063252501 -1.4797699 65280
0.043126699 -0.063252501 -1.4797699 65280
0.046001799 -0.063252501 -1.4797699 65280
0.0488769 -0.063252501 -1.4797699 65280
0.051752001 -0.063252501 -1.4797699 65280
0.054627098 -0.063252501 -1.4797699 65280
0.0575023 -0.063252501 -1.4797699 65280
0.0603774 -0.063252501 -1.4797699 65280
0.063252501 -0.063252501 -1.4797699 65280
0.066127598 -0.063252501 -1.4797699 65280
0.069002703 -0.063252501 -1.4797699 65280
0.0718778 -0.063252501 -1.4797699 65280
0.074752897 -0.063252501 -1.4797699 65280
0.077628002 -0.063252501 -1.4797699 65280
0.080503203 -0.063252501 -1.4797699 65280
0.0833783 -0.063252501 -1.4797699 65280
0.086253397 -0.063252501 -1.4797699 65280
0.089128502 -0.063252501 -1.4797699 65280
0.092003599 -0.063252501 -1.4797699 65280
0.094878703 -0.063252501 -1.4797699 65280
0.0977538 -0.063252501 -1.4797699 65280
0.100629 -0.063252501 -1.4797699 65280
0.103504 -0.063252501 -1.4797699 65280
0.106379 -0.063252501 -1.4797699 65280
0.109254 -0.063252501 -1.4797699 65280
0.112129 -0.063252501 -1.4797699 65280
0.115005 -0.063252501 -1.4797699 65280
0.11788 -0.063252501 -1.4797699 65280
0.120755 -0.063252501 -1.4797699 65280
0.12363 -0.063252501 -1.4797699 65280
0.126505 -0.063252501 -1.4797699 65280
0.12938 -0.063252501 -1.4797699 65280
0.132255 -0.063252501 -1.4797699 65280
0.13513 -0.063252501 -1.4797699 65280
0.138005 -0.063252501 -1.4797699 65280
0.140881 -0.063252501 -1.4797699 65280
0.143756 -0.063252501 -1.4797699 65280
0.146631 -0.063252501 -1.4797699 65280
0.149506 -0.063252501 -1.4797699 65280
0.152381 -0.063252501 -1.4797699 65280
0.155256 -0.063252501 -1.4797699 65280
0.158131 -0.063252501 -1.4797699 65280
0.161006 -0.063252501 -1.4797699 65280
0.163881 -0.063252501 -1.4797699 65280
0.166757 -0.063252501 -1.4797699 65280
0.169632 -0.063252501 -1.4797699 65280
0.172507 -0.063252501 -1.4797699 65280
0.175382 -0.063252501 -1.4797699 65280
0.178257 -0.063252501 -1.4797699 65280
0.181132 -0.063252501 -1.4797699 65280
0.184007 -0.063252501 -1.4797699 65280
0.186882 -0.063252501 -1.4797699 65280
0.189757 -0.063252501 -1.4797699 65280
0.192633 -0.063252501 -1.4797699 65280
0.195508 -0.063252501 -1.4797699 65280
0.198383 -0.063252501 -1.4797699 65280
0.201258 -0.063252501 -1.4797699 65280
0.204133 -0.063252501 -1.4797699 65280
0.207008 -0.063252501 -1.4797699 65280
0.209883 -0.063252501 -1.4797699 65280
0.212758 -0.063252501 -1.4797699 65280
0.215633 -0.063252501 -1.4797699 65280
0.218509 -0.063252501 -1.4797699 65280
0.221384 -0.063252501 -1.4797699 65280
0.224259 -0.063252501 -1.4797699 65280
0.227134 -0.063252501 -1.4797699 65280
0.230009 -0.063252501 -1.4797699 65280
0.232884 -0.063252501 -1.4797699 65280
0.235759 -0.063252501 -1.4797699 65280
0.23863401 -0.063252501 -1.4797699 65280
0.24150901 -0.063252501 -1.4797699 65280
0.244385 -0.063252501 -1.4797699 65280
0.24726 -0.063252501 -1.4797699 65280
0.250135 -0.063252501 -1.4797699 65280
0.25301 -0.063252501 -1.4797699 65280
0.255885 -0.063252501 -1.4797699 65280
0.25876001 -0.063252501 -1.4797699 65280
0.26163501 -0.063252501 -1.4797699 65280
0.26451001 -0.063252501 -1.4797699 65280
0.26738501 -0.063252501 -1.4797699 65280
0.27026099 -0.063252501 -1.4797699 65280
0.27313599 -0.063252501 -1.4797699 65280
0.27601099 -0.063252501 -1.4797699 65280
0.27888599 -0.063252501 -1.4797699 65280
0.28176099 -0.063252501 -1.4797699 65280
0.28463599 -0.063252501 -1.4797699 65280
0.28751099 -0.063252501 -1.4797699 65280
0.29038599 -0.063252501 -1.4797699 65280
0.29326099 -0.063252501 -1.4797699 65280
0.29613701 -0.063252501 -1.4797699 65280
0.29901201 -0.063252501 -1.4797699 65280
0.30188701 -0.063252501 -1.4797699 65280
0.30476201 -0.063252501 -1.4797699 65280
0.30763701 -0.063252501 -1.4797699 65280
0.31051201 -0.063252501 -1.4797699 65280
0.31338701 -0.063252501 -1.4797699 65280
0.31626201 -0.063252501 -1.4797699 65280
0.31913799 -0.063252501 -1.4797699 65280
0.32201299 -0.063252501 -1.4797699 65280
0.32488799 -0.063252501 -1.4797699 65280
0.32776299 -0.063252501 -1.4797699 65280
0.33063799 -0.063252501 -1.4797699 65280
0.33351299 -0.063252501 -1.4797699 65280
0.33638799 -0.063252501 -1.4797699 65280
0.33926299 -0.063252501 -1.4797699 65280
0.34213799 -0.063252501 -1.4797699 65280
0.34501401 -0.063252501 -1.4797699 65280
0.34788901 -0.063252501 -1.4797699 65280
0.35076401 -0.063252501 -1.4797699 65280
0.35363901 -0.063252501 -1.4797699 65280
0.35651401 -0.063252501 -1.4797699 65280
0.35938901 -0.063252501 -1.4797699 65280
0.36226401 -0.063252501 -1.4797699 65280
0.36513901 -0.063252501 -1.4797699 65280
0.36801401 -0.063252501 -1.4797699 65280
0.37088999 -0.063252501 -1.4797699 65280
0.37376499 -0.063252501 -1.4797699 65280
0.37663999 -0.063252501 -1.4797699 65280
0.37951499 -0.063252501 -1.4797699 65280
0.38238999 -0.063252501 -1.4797699 65280
0.38526499 -0.063252501 -1.4797699 65280
0.38813999 -0.063252501 -1.4797699 65280
0.39101499 -0.063252501 -1.4797699 65280
0.39388999 -0.063252501 -1.4797699 65280
0.39676601 -0.063252501 -1.4797699 65280
-0.39927101 -0.060321599 -1.4784 65280
-0.39639899 -0.060321599 -1.4784 65280
-0.393527 -0.060321599 -1.4784 65280
-0.390654 -0.060321599 -1.4784 65280
-0.38778201 -0.060321599 -1.4784 65280
-0.384909 -0.060321599 -1.4784 65280
-0.38203701 -0.060321599 -1.4784 65280
-0.37916401 -0.060321599 -1.4784 65280
-0.37629199 -0.060321599 -1.4784 65280
-0.37341899 -0.060321599 -1.4784 65280
-0.370547 -0.060321599 -1.4784 65280
-0.36767399 -0.060321599 -1.4784 65280
-0.364802 -0.060321599 -1.4784 65280
-0.36193001 -0.060321599 -1.4784 65280
-0.35905701 -0.060321599 -1.4784 65280
-0.35618499 -0.060321599 -1.4784 65280
-0.35331199 -0.060321599 -1.4784 65280
-0.35044 -0.060321599 -1.4784 65280
-0.34756699 -0.060321599 -1.4784 65280
-0.344695 -0.060321599 -1.4784 65280
-0.341822 -0.060321599 -1.4784 65280
-0.33895001 -0.060321599 -1.4784 65280
-0.336077 -0.060321599 -1.4784 65280
-0.33320501 -0.060321599 -1.4784 65280
-0.33033201 -0.060321599 -1.4784 65280
-0.32745999 -0.060321599 -1.4784 65280
-0.324588 -0.060321599 -1.4784 65280
-0.321715 -0.060321599 -1.4784 65280
-0.31884301 -0.060321599 -1.4784 65280
-0.31597 -0.060321599 -1.4784 65280
-0.31309801 -0.060321599 -1.4784 65280
-0.31022501 -0.060321599 -1.4784 65280
-0.30735299 -0.060321599 -1.4784 65280
-0.30447999 -0.060321599 -1.4784 65280
-0.301608 -0.060321599 -1.4784 65280
-0.29873499 -0.060321599 -1.4784 65280
-0.295863 -0.060321599 -1.4784 65280
-0.29299101 -0.060321599 -1.4784 65280
-0.29011801 -0.060321599 -1.4784 65280
-0.28724599 -0.060321599 -1.4784 65280
-0.28437299 -0.060321599 -1.4784 65280
-0.281501 -0.060321599 -1.4784 65280
-0.27862799 -0.060321599 -1.4784 65280
-0.275756 -0.060321599 -1.4784 65280
-0.272883 -0.060321599 -1.4784 65280
-0.27001101 -0.060321599 -1.4784 65280
-0.267138 -0.060321599 -1.4784 65280
-0.26426601 -0.060321599 -1.4784 65280
-0.26139399 -0.060321599 -1.4784 65280
-0.25852099 -0.060321599 -1.4784 65280
-0.255649 -0.060321599 -1.4784 65280
-0.252776 -0.060321599 -1.4784 65280
-0.24990401 -0.060321599 -1.4784 65280
-0.247031 -0.060321599 -1.4784 65280
-0.244159 -0.060321599 -1.4784 65280
-0.24128599 -0.060321599 -1.4784 65280
-0.238414 -0.060321599 -1.4784 65280
-0.235541 -0.060321599 -1.4784 65280
-0.232669 -0.060321599 -1.4784 65280
-0.22979701 -0.060321599 -1.4784 65280
-0.226924 -0.060321599 -1.4784 65280
-0.224052 -0.060321599 -1.4784 65280
-0.22117899 -0.060321599 -1.4784 65280
-0.218307 -0.060321599 -1.4784 65280
-0.215434 -0.060321599 -1.4784 65280
-0.21256199 -0.060321599 -1.4784 65280
-0.20968901 -0.060321599 -1.4784 65280
-0.206817 -0.060321599 -1.4784 65280
-0.203944 -0.060321599 -1.4784 65280
-0.20107201 -0.060321599 -1.4784 65280
-0.198199 -0.060321599 -1.4784 65280
-0.195327 -0.060321599 -1.4784 65280
-0.19245499 -0.060321599 -1.4784 65280
-0.18958201 -0.060321599 -1.4784 65280
-0.18671 -0.060321599 -1.4784 65280
-0.183837 -0.060321599 -1.4784 65280
-0.18096501 -0.060321599 -1.4784 65280
-0.178092 -0.060321599 -1.4784 65280
-0.17522 -0.060321599 -1.4784 65280
-0.17234699 -0.060321599 -1.4784 65280
-0.169475 -0.060321599 -1.4784 65280
-0.166602 -0.060321599 -1.4784 65280
-0.16373 -0.060321599 -1.4784 65280
-0.16085801 -0.060321599 -1.4784 65280
-0.157985 -0.060321599 -1.4784 65280
-0.155113 -0.060321599 -1.4784 65280
-0.15223999 -0.060321599 -1.4784 65280
-0.149368 -0.060321599 -1.4784 65280
-0.146495 -0.060321599 -1.4784 65280
-0.14362299 -0.060321599 -1.4784 65280
-0.14075001 -0.060321599 -1.4784 65280
-0.137878 -0.060321599 -1.4784 65280
-0.135005 -0.060321599 -1.4784 65280
-0.13213301 -0.060321599 -1.4784 65280
-0.129261 -0.060321599 -1.4784 65280
-0.126388 -0.060321599 -1.4784 65280
-0.123516 -0.060321599 -1.4784 65280
-0.120643 -0.060321599 -1.4784 65280
-0.117771 -0.060321599 -1.4784 65280
-0.114898 -0.060321599 -1.4784 65280
-0.112026 -0.060321599 -1.4784 65280
-0.109153 -0.060321599 -1.4784 65280
-0.106281 -0.060321599 -1.4784 65280
-0.103408 -0.060321599 -1.4784 65280
-0.100536 -0.060321599 -1.4784 65280
-0.097663499 -0.060321599 -1.4784 65280
-0.094791099 -0.060321599 -1.4784 65280
-0.091918603 -0.060321599 -1.4784 65280
-0.089046203 -0.060321599 -1.4784 65280
-0.086173698 -0.060321599 -1.4784 65280
-0.083301201 -0.060321599 -1.4784 65280
-0.080428801 -0.060321599 -1.4784 65280
-0.077556297 -0.060321599 -1.4784 65280
-0.074683897 -0.060321599 -1.4784 65280
-0.0718114 -0.060321599 -1.4784 65280
-0.068939 -0.060321599 -1.4784 65280
-0.066066504 -0.060321599 -1.4784 65280
-0.063193999 -0.060321599 -1.4784 65280
-0.060321599 -0.060321599 -1.4784 65280
-0.057449099 -0.060321599 -1.4784 65280
-0.054576699 -0.060321599 -1.4784 65280
-0.051704202 -0.060321599 -1.4784 65280
-0.048831802 -0.060321599 -1.4784 65280
-0.045959301 -0.060321599 -1.4784 65280
-0.043086801 -0.060321599 -1.4784 65280
-0.040214401 -0.060321599 -1.4784 65280
-0.0373419 -0.060321599 -1.4784 65280
-0.0344695 -0.060321599 -1.4784 65280
-0.0292922 -0.055921499 -1.3705601 65280
-0.026553901 -0.0557632 -1.36668 65280
-0.0238578 -0.055668101 -1.36435 65280
-0.0211842 -0.0556085 -1.36289 65280
-0.018524099 -0.055572301 -1.362 65280
-0.015872899 -0.055555198 -1.36158 65280
-0.0132274 -0.0555549 -1.36158 65280
-0.0105853 -0.0555727 -1.36201 65280
-0.0079441201 -0.055608802 -1.3629 65280
-0.0053007398 -0.0556578 -1.3641 65280
-0.0026537499 -0.055728801 -1.36584 65280
0 -0.055827402 -1.36825 65280
0.0026665099 -0.055996701 -1.3724 65280
0.0055219801 -0.057980798 -1.42103 65280
0.0082770297 -0.057939202 -1.42001 65280
0.0110302 -0.057908598 -1.41926 65280
0.0137799 -0.057875399 -1.41845 65280
0.016530899 -0.057858001 -1.41802 65280
0.0192823 -0.057847001 -1.41775 65280
0.0220506 -0.0578827 -1.41863 65280
0.024866501 -0.058021799 -1.42204 65280
0.027748 -0.058270801 -1.42814 65280
0.031597 -0.060321599 -1.4784 65280
0.0344695 -0.060321599 -1.4784 65280
0.0373419 -0.060321599 -1.4784 65280
0.040214401 -0.060321599 -1.4784 65280
0.043086801 -0.060321599 -1.4784 65280
0.045959301 -0.060321599 -1.4784 65280
0.048831802 -0.060321599 -1.4784 65280
0.051704202 -0.060321599 -1.4784 65280
0.054576699 -0.060321599 -1.4784 65280
0.057449099 -0.060321599 -1.4784 65280
0.060321599 -0.060321599 -1.4784 65280
0.063193999 -0.060321599 -1.4784 65280
0.066066504 -0.060321599 -1.4784 65280
0.068939 -0.060321599 -1.4784 65280
0.0718114 -0.060321599 -1.4784 65280
0.074683897 -0.060321599 -1.4784 65280
0.077556297 -0.060321599 -1.4784 65280
0.080428801 -0.060321599 -1.4784 65280
0.083301201 -0.060321599 -1.4784 65280
0.086173698 -0.060321599 -1.4784 65280
0.089046203 -0.060321599 -1.4784 65280
0.091918603 -0.060321599 -1.4784 65280
0.094791099 -0.060321599 -1.4784 65280
0.097663499 -0.060321599 -1.4784 65280
0.100536 -0.060321599 -1.4784 65280
0.103408 -0.060321599 -1.4784 65280
0.106281 -0.060321599 -1.4784 65280
0.109153 -0.060321599 -1.4784 65280
0.112026 -0.060321599 -1.4784 65280
0.114898 -0.060321599 -1.4784 65280
0.117771 -0.060321599 -1.4784 65280
0.120643 -0.060321599 -1.4784 65280
0.123516 -0.060321599 -1.4784 65280
0.126388 -0.060321599 -1.4784 65280
0.129261 -0.060321599 -1.4784 65280
0.13213301 -0.060321599 -1.4784 65280
0.135005 -0.060321599 -1.4784 65280
0.137878 -0.060321599 -1.4784 65280
0.14075001 -0.060321599 -1.4784 65280
0.14362299 -0.060321599 -1.4784 65280
0.146495 -0.060321599 -1.4784 65280
0.149368 -0.060321599 -1.4784 65280
0.15223999 -0.060321599 -1.4784 65280
0.155113 -0.060321599 -1.4784 65280
0.157985 -0.060321599 -1.4784 65280
0.16085801 -0.060321599 -1.4784 65280
0.16373 -0.060321599 -1.4784 65280
0.166602 -0.060321599 -1.4784 65280
0.169475 -0.060321599 -1.4784 65280
0.17234699 -0.060321599 -1.4784 65280
0.17522 -0.060321599 -1.4784 65280
0.178092 -0.060321599 -1.4784 65280
0.18096501 -0.060321599 -1.4784 65280
0.183837 -0.060321599 -1.4784 65280
0.18671 -0.060321599 -1.4784 65280
0.18958201 -0.060321599 -1.4784 65280
0.19245499 -0.060321599 -1.4784 65280
0.195327 -0.060321599 -1.4784 65280
0.198199 -0.060321599 -1.4784 65280
0.20107201 -0.060321599 -1.4784 65280
0.203944 -0.060321599 -1.4784 65280
0.206817 -0.060321599 -1.4784 65280
0.20968901 -0.060321599 -1.4784 65280
0.21256199 -0.060321599 -1.4784 65280
0.215434 -0.060321599 -1.4784 65280
0.218307 -0.060321599 -1.4784 65280
0.22117899 -0.060321599 -1.4784 65280
0.224052 -0.060321599 -1.4784 65280
0.226924 -0.060321599 -1.4784 65280
0.22979701 -0.060321599 -1.4784 65280
0.232669 -0.060321599 -1.4784 65280
0.235541 -0.060321599 -1.4784 65280
0.238414 -0.060321599 -1.4784 65280
0.24128599 -0.060321599 -1.4784 65280
0.244159 -0.060321599 -1.4784 65280
0.247031 -0.060321599 -1.4784 65280
0.24990401 -0.060321599 -1.4784 65280
0.252776 -0.060321599 -1.4784 65280
0.255649 -0.060321599 -1.4784 65280
0.25852099 -0.060321599 -1.4784 65280
0.26139399 -0.060321599 -1.4784 65280
0.26426601 -0.060321599 -1.4784 65280
0.267138 -0.060321599 -1.4784 65280
0.27001101 -0.060321599 -1.4784 65280
0.272883 -0.060321599 -1.4784 65280
0.275756 -0.060321599 -1.4784 65280
0.27862799 -0.060321599 -1.4784 65280
0.281501 -0.060321599 -1.4784 65280
0.28437299 -0.060321599 -1.4784 65280
0.28724599 -0.060321599 -1.4784 65280
0.29011801 -0.060321599 -1.4784 65280
0.29299101 -0.060321599 -1.4784 65280
0.295863 -0.060321599 -1.4784 65280
0.29873499 -0.060321599 -1.4784 65280
0.301608 -0.060321599 -1.4784 65280
0.30447999 -0.060321599 -1.4784 65280
0.30735299 -0.060321599 -1.4784 65280
0.31022501 -0.060321599 -1.4784 65280
0.31309801 -0.060321599 -1.4784 65280
0.31597 -0.060321599 -1.4784 65280
0.31884301 -0.060321599 -1.4784 65280
0.321715 -0.060321599 -1.4784 65280
0.324588 -0.060321599 -1.4784 65280
0.32745999 -0.060321599 -1.4784 65280
0.33033201 -0.060321599 -1.4784 65280
0.33320501 -0.060321599 -1.4784 65280
0.336077 -0.060321599 -1.4784 65280
0.33895001 -0.060321599 -1.4784 65280
0.341822 -0.060321599 -1.4784 65280
0.344695 -0.060321599 -1.4784 65280
0.34756699 -0.060321599 -1.4784 65280
0.35044 -0.060321599 -1.4784 65280
0.35331199 -0.060321599 -1.4784 65280
0.35618499 -0.060321599 -1.4784 65280
0.35905701 -0.060321599 -1.4784 65280
0.36193001 -0.060321599 -1.4784 65280
0.364802 -0.060321599 -1.4784 65280
0.36767399 -0.060321599 -1.4784 65280
0.370547 -0.060321599 -1.4784 65280
0.37341899 -0.060321599 -1.4784 65280
0.37629199 -0.060321599 -1.4784 65280
0.37916401 -0.060321599 -1.4784 65280
0.38203701 -0.060321599 -1.4784 65280
0.384909 -0.060321599 -1.4784 65280
0.38778201 -0.060321599 -1.4784 65280
0.390654 -0.060321599 -1.4784 65280
0.393527 -0.060321599 -1.4784 65280
0.39639899 -0.060321599 -1.4784 65280
-0.39890301 -0.0573962 -1.4770401 65280
-0.39603299 -0.0573962 -1.4770401 65280
-0.39316401 -0.0573962 -1.4770401 65280
-0.39029399 -0.0573962 -1.4770401 65280
-0.38742399 -0.0573962 -1.4770401 65280
-0.384554 -0.0573962 -1.4770401 65280
-0.38168401 -0.0573962 -1.4770401 65280
-0.378815 -0.0573962 -1.4770401 65280
-0.375945 -0.0573962 -1.4770401 65280
-0.37307501 -0.0573962 -1.4770401 65280
-0.37020499 -0.0573962 -1.4770401 65280
-0.36733499 -0.0573962 -1.4770401 65280
-0.36446601 -0.0573962 -1.4770401 65280
-0.36159599 -0.0573962 -1.4770401 65280
-0.35872599 -0.0573962 -1.4770401 65280
-0.355856 -0.0573962 -1.4770401 65280
-0.35298601 -0.0573962 -1.4770401 65280
-0.350117 -0.0573962 -1.4770401 65280
-0.347247 -0.0573962 -1.4770401 65280
-0.34437701 -0.0573962 -1.4770401 65280
-0.34150699 -0.0573962 -1.4770401 65280
-0.33863699 -0.0573962 -1.4770401 65280
-0.33576801 -0.0573962 -1.4770401 65280
-0.33289799 -0.0573962 -1.4770401 65280
-0.330028 -0.0573962 -1.4770401 65280
-0.327158 -0.0573962 -1.4770401 65280
-0.32428801 -0.0573962 -1.4770401 65280
-0.32141799 -0.0573962 -1.4770401 65280
-0.31854901 -0.0573962 -1.4770401 65280
-0.31567901 -0.0573962 -1.4770401 65280
-0.31280899 -0.0573962 -1.4770401 65280
-0.309939 -0.0573962 -1.4770401 65280
-0.307069 -0.0573962 -1.4770401 65280
-0.30419999 -0.0573962 -1.4770401 65280
-0.30133 -0.0573962 -1.4770401 65280
-0.29846001 -0.0573962 -1.4770401 65280
-0.29559001 -0.0573962 -1.4770401 65280
-0.29271999 -0.0573962 -1.4770401 65280
-0.28985101 -0.0573962 -1.4770401 65280
-0.28698099 -0.0573962 -1.4770401 65280
-0.28411099 -0.0573962 -1.4770401 65280
-0.281241 -0.0573962 -1.4770401 65280
-0.27837101 -0.0573962 -1.4770401 65280
-0.275502 -0.0573962 -1.4770401 65280
-0.272632 -0.0573962 -1.4770401 65280
-0.26976201 -0.0573962 -1.4770401 65280
-0.26689199 -0.0573962 -1.4770401 65280
-0.26402199 -0.0573962 -1.4770401 65280
-0.26115301 -0.0573962 -1.4770401 65280
-0.25828299 -0.0573962 -1.4770401 65280
-0.255413 -0.0573962 -1.4770401 65280
-0.252543 -0.0573962 -1.4770401 65280
-0.24967299 -0.0573962 -1.4770401 65280
-0.246803 -0.0573962 -1.4770401 65280
-0.24393401 -0.0573962 -1.4770401 65280
-0.241064 -0.0573962 -1.4770401 65280
-0.238194 -0.0573962 -1.4770401 65280
-0.235324 -0.0573962 -1.4770401 65280
-0.232454 -0.0573962 -1.4770401 65280
-0.22958501 -0.0573962 -1.4770401 65280
-0.226715 -0.0573962 -1.4770401 65280
-0.22384501 -0.0573962 -1.4770401 65280
-0.220975 -0.0573962 -1.4770401 65280
-0.218105 -0.0573962 -1.4770401 65280
-0.21523599 -0.0573962 -1.4770401 65280
-0.212366 -0.0573962 -1.4770401 65280
-0.20949601 -0.0573962 -1.4770401 65280
-0.206626 -0.0573962 -1.4770401 65280
-0.203756 -0.0573962 -1.4770401 65280
-0.20088699 -0.0573962 -1.4770401 65280
-0.198017 -0.0573962 -1.4770401 65280
-0.19514699 -0.0573962 -1.4770401 65280
-0.192277 -0.0573962 -1.4770401 65280
-0.18940701 -0.0573962 -1.4770401 65280
-0.186538 -0.0573962 -1.4770401 65280
-0.183668 -0.0573962 -1.4770401 65280
-0.18079799 -0.0573962 -1.4770401 65280
-0.177928 -0.0573962 -1.4770401 65280
-0.17505801 -0.0573962 -1.4770401 65280
-0.172188 -0.0573962 -1.4770401 65280
-0.169319 -0.0573962 -1.4770401 65280
-0.166449 -0.0573962 -1.4770401 65280
-0.163579 -0.0573962 -1.4770401 65280
-0.16070899 -0.0573962 -1.4770401 65280
-0.157839 -0.0573962 -1.4770401 65280
-0.15497001 -0.0573962 -1.4770401 65280
-0.1521 -0.0573962 -1.4770401 65280
-0.14923 -0.0573962 -1.4770401 65280
-0.14636 -0.0573962 -1.4770401 65280
-0.14349 -0.0573962 -1.4770401 65280
-0.14062101 -0.0573962 -1.4770401 65280
-0.137751 -0.0573962 -1.4770401 65280
-0.134881 -0.0573962 -1.4770401 65280
-0.132011 -0.0573962 -1.4770401 65280
-0.129141 -0.0573962 -1.4770401 65280
-0.12627199 -0.0573962 -1.4770401 65280
-0.123402 -0.0573962 -1.4770401 65280
-0.120532 -0.0573962 -1.4770401 65280
-0.117662 -0.0573962 -1.4770401 65280
-0.114792 -0.0573962 -1.4770401 65280
-0.111923 -0.0573962 -1.4770401 65280
-0.109053 -0.0573962 -1.4770401 65280
-0.106183 -0.0573962 -1.4770401 65280
-0.103313 -0.0573962 -1.4770401 65280
-0.100443 -0.0573962 -1.4770401 65280
-0.097573496 -0.0573962 -1.4770401 65280
-0.094703697 -0.0573962 -1.4770401 65280
-0.0918338 -0.0573962 -1.4770401 65280
-0.088964 -0.0573962 -1.4770401 65280
-0.086094201 -0.0573962 -1.4770401 65280
-0.083224401 -0.0573962 -1.4770401 65280
-0.080354601 -0.0573962 -1.4770401 65280
-0.077484801 -0.0573962 -1.4770401 65280
-0.074615002 -0.0573962 -1.4770401 65280
-0.071745202 -0.0573962 -1.4770401 65280
-0.068875402 -0.0573962 -1.4770401 65280
-0.066005602 -0.0573962 -1.4770401 65280
-0.063135803 -0.0573962 -1.4770401 65280
-0.060265999 -0.0573962 -1.4770401 65280
-0.0573962 -0.0573962 -1.4770401 65280
-0.054526299 -0.0573962 -1.4770401 65280
-0.0516565 -0.0573962 -1.4770401 65280
-0.0487867 -0.0573962 -1.4770401 65280
-0.0459169 -0.0573962 -1.4770401 65280
-0.0430471 -0.0573962 -1.4770401 65280
-0.040177301 -0.0573962 -1.4770401 65280
-0.037307501 -0.0573962 -1.4770401 65280
-0.031962901 -0.053271402 -1.37089 65280
-0.0292059 -0.0531017 -1.36652 65280
-0.026501 -0.053002 -1.36396 65280
-0.023809399 -0.052909698 -1.36158 65280
-0.021139 -0.052847501 -1.35998 65280
-0.018484101 -0.052811701 -1.35906 65280
-0.015840501 -0.052801799 -1.3588099 65280
-0.0132037 -0.0528148 -1.35914 65280
-0.0105687 -0.0528435 -1.35988 65280
-0.00793174 -0.052878302 -1.36077 65280
-0.0052930899 -0.052930899 -1.36213 65280
-0.00264966 -0.0529931 -1.36373 65280
0 -0.053078901 -1.36594 65280
0.0026602601 -0.053205099 -1.36918 65280
0.0053513199 -0.053513199 -1.37711 65280
0.0082745804 -0.055163901 -1.41959 65280
0.0110285 -0.055142701 -1.41905 65280
0.0137827 -0.055130702 -1.41874 65280
0.0165374 -0.055124599 -1.4185801 65280
0.019296501 -0.055132799 -1.41879 65280
0.022067901 -0.055169702 -1.41974 65280
0.024882199 -0.055293798 -1.42293 65280
0.0277585 -0.055516899 -1.4286799 65280
0.031567901 -0.0573962 -1.4770401 65280
0.034437701 -0.0573962 -1.4770401 65280
0.037307501 -0.0573962 -1.4770401 65280
0.040177301 -0.0573962 -1.4770401 65280
0.0430471 -0.0573962 -1.4770401 65280
0.0459169 -0.0573962 -1.4770401 65280
0.0487867 -0.0573962 -1.4770401 65280
0.0516565 -0.0573962 -1.4770401 65280
0.054526299 -0.0573962 -1.4770401 65280
0.0573962 -0.0573962 -1.4770401 65280
0.060265999 -0.0573962 -1.4770401 65280
0.063135803 -0.0573962 -1.4770401 65280
0.066005602 -0.0573962 -1.4770401 65280
0.068875402 -0.0573962 -1.4770401 65280
0.071745202 -0.0573962 -1.4770401 65280
0.074615002 -0.0573962 -1.4770401 65280
0.077484801 -0.0573962 -1.4770401 65280
0.080354601 -0.0573962 -1.4770401 65280
0.083224401 -0.0573962 -1.4770401 65280
0.086094201 -0.0573962 -1.4770401 65280
0.088964 -0.0573962 -1.4770401 65280
0.0918338 -0.0573962 -1.4770401 65280
0.094703697 -0.0573962 -1.4770401 65280
0.097573496 -0.0573962 -1.4770401 65280
0.100443 -0.0573962 -1.4770401 65280
0.103313 -0.0573962 -1.4770401 65280
0.106183 -0.0573962 -1.4770401 65280
0.109053 -0.0573962 -1.4770401 65280
0.111923 -0.0573962 -1.4770401 65280
0.114792 -0.0573962 -1.4770401 65280
0.117662 -0.0573962 -1.4770401 65280
0.120532 -0.0573962 -1.4770401 65280
0.123402 -0.0573962 -1.4770401 65280
0.12627199 -0.0573962 -1.4770401 65280
0.129141 -0.0573962 -1.4770401 65280
0.132011 -0.0573962 -1.4770401 65280
0.134881 -0.0573962 -1.4770401 65280
0.137751 -0.0573962 -1.4770401 65280
0.14062101 -0.0573962 -1.4770401 65280
0.14349 -0.0573962 -1.4770401 65280
0.14636 -0.0573962 -1.4770401 65280
0.14923 -0.0573962 -1.4770401 65280
0.1521 -0.0573962 -1.4770401 65280
0.15497001 -0.0573962 -1.4770401 65280
0.157839 -0.0573962 -1.4770401 65280
0.16070899 -0.0573962 -1.4770401 65280
0.163579 -0.0573962 -1.4770401 65280
0.166449 -0.0573962 -1.4770401 65280
0.169319 -0.0573962 -1.4770401 65280
0.172188 -0.0573962 -1.4770401 65280
0.17505801 -0.0573962 -1.4770401 65280
0.177928 -0.0573962 -1.4770401 65280
0.18079799 -0.0573962 -1.4770401 65280
0.183668 -0.0573962 -1.4770401 65280
0.186538 -0.0573962 -1.4770401 65280
0.18940701 -0.0573962 -1.4770401 65280
0.192277 -0.0573962 -1.4770401 65280
0.19514699 -0.0573962 -1.4770401 65280
0.198017 -0.0573962 -1.4770401 65280
0.20088699 -0.0573962 -1.4770401 65280
0.203756 -0.0573962 -1.4770401 65280
0.206626 -0.0573962 -1.4770401 65280
0.20949601 -0.0573962 -1.4770401 65280
0.212366 -0.0573962 -1.4770401 65280
0.21523599 -0.0573962 -1.4770401 65280
0.218105 -0.0573962 -1.4770401 65280
0.220975 -0.0573962 -1.4770401 65280
0.22384501 -0.0573962 -1.4770401 65280
0.226715 -0.0573962 -1.4770401 65280
0.22958501 -0.0573962 -1.4770401 65280
0.232454 -0.0573962 -1.4770401 65280
0.235324 -0.0573962 -1.4770401 65280
0.238194 -0.0573962 -1.4770401 65280
0.241064 -0.0573962 -1.4770401 65280
0.24393401 -0.0573962 -1.4770401 65280
0.246803 -0.0573962 -1.4770401 65280
0.24967299 -0.0573962 -1.4770401 65280
0.252543 -0.0573962 -1.4770401 65280
0.255413 -0.0573962 -1.4770401 65280
0.25828299 -0.0573962 -1.4770401 65280
0.26115301 -0.0573962 -1.4770401 65280
0.26402199 -0.0573962 -1.4770401 65280
0.26689199 -0.0573962 -1.4770401 65280
0.26976201 -0.0573962 -1.4770401 65280
0.272632 -0.0573962 -1.4770401 65280
0.275502 -0.0573962 -1.4770401 65280
0.27837101 -0.0573962 -1.4770401 65280
0.281241 -0.0573962 -1.4770401 65280
0.28411099 -0.0573962 -1.4770401 65280
0.28698099 -0.0573962 -1.4770401 65280
0.28985101 -0.0573962 -1.4770401 65280
0.29271999 -0.0573962 -1.4770401 65280
0.29559001 -0.0573962 -1.4770401 65280
0.29846001 -0.0573962 -1.4770401 65280
0.30133 -0.0573962 -1.4770401 65280
0.30419999 -0.0573962 -1.4770401 65280
0.307069 -0.0573962 -1.4770401 65280
0.309939 -0.0573962 -1.4770401 65280
0.31280899 -0.0573962 -1.4770401 65280
0.31567901 -0.0573962 -1.4770401 65280
0.31854901 -0.0573962 -1.4770401 65280
0.32141799 -0.0573962 -1.4770401 65280
0.32428801 -0.0573962 -1.4770401 65280
0.327158 -0.0573962 -1.4770401 65280
0.330028 -0.0573962 -1.4770401 65280
0.33289799 -0.0573962 -1.4770401 65280
0.33576801 -0.0573962 -1.4770401 65280
0.33863699 -0.0573962 -1.4770401 65280
0.34150699 -0.0573962 -1.4770401 65280
0.34437701 -0.0573962 -1.4770401 65280
0.347247 -0.0573962 -1.4770401 65280
0.350117 -0.0573962 -1.4770401 65280
0.35298601 -0.0573962 -1.4770401 65280
0.355856 -0.0573962 -1.4770401 65280
0.35872599 -0.0573962 -1.4770401 65280
0.36159599 -0.0573962 -1.4770401 65280
0.36446601 -0.0573962 -1.4770401 65280
0.36733499 -0.0573962 -1.4770401 65280
0.37020499 -0.0573962 -1.4770401 65280
0.37307501 -0.0573962 -1.4770401 65280
0.375945 -0.0573962 -1.4770401 65280
0.378815 -0.0573962 -1.4770401 65280
0.38168401 -0.0573962 -1.4770401 65280
0.384554 -0.0573962 -1.4770401 65280
0.38742399 -0.0573962 -1.4770401 65280
0.39029399 -0.0573962 -1.4770401 65280
0.39316401 -0.0573962 -1.4770401 65280
0.39603299 -0.0573962 -1.4770401 65280
-0.40140301 -0.054476101 -1.47568 65280
-0.398536 -0.054476101 -1.47568 65280
-0.39566901 -0.054476101 -1.47568 65280
-0.39280099 -0.054476101 -1.47568 65280
-0.389934 -0.054476101 -1.47568 65280
-0.38706699 -0.054476101 -1.47568 65280
-0.38420001 -0.054476101 -1.47568 65280
-0.38133299 -0.054476101 -1.47568 65280
-0.37846601 -0.054476101 -1.47568 65280
-0.37559801 -0.054476101 -1.47568 65280
-0.372731 -0.054476101 -1.47568 65280
-0.36986399 -0.054476101 -1.47568 65280
-0.366997 -0.054476101 -1.47568 65280
-0.36412999 -0.054476101 -1.47568 65280
-0.36126301 -0.054476101 -1.47568 65280
-0.35839501 -0.054476101 -1.47568 65280
-0.355528 -0.054476101 -1.47568 65280
-0.35266101 -0.054476101 -1.47568 65280
-0.349794 -0.054476101 -1.47568 65280
-0.34692699 -0.054476101 -1.47568 65280
-0.34406 -0.054476101 -1.47568 65280
-0.34119201 -0.054476101 -1.47568 65280
-0.33832499 -0.054476101 -1.47568 65280
-0.33545801 -0.054476101 -1.47568 65280
-0.332591 -0.054476101 -1.47568 65280
-0.32972401 -0.054476101 -1.47568 65280
-0.326857 -0.054476101 -1.47568 65280
-0.32398999 -0.054476101 -1.47568 65280
-0.32112199 -0.054476101 -1.47568 65280
-0.31825501 -0.054476101 -1.47568 65280
-0.31538799 -0.054476101 -1.47568 65280
-0.31252101 -0.054476101 -1.47568 65280
-0.309654 -0.054476101 -1.47568 65280
-0.30678701 -0.054476101 -1.47568 65280
-0.30391899 -0.054476101 -1.47568 65280
-0.301052 -0.054476101 -1.47568 65280
-0.29818499 -0.054476101 -1.47568 65280
-0.29531801 -0.054476101 -1.47568 65280
-0.29245099 -0.054476101 -1.47568 65280
-0.28958401 -0.054476101 -1.47568 65280
-0.28671601 -0.054476101 -1.47568 65280
-0.283849 -0.054476101 -1.47568 65280
-0.28098199 -0.054476101 -1.47568 65280
-0.278115 -0.054476101 -1.47568 65280
-0.27524799 -0.054476101 -1.47568 65280
-0.27238101 -0.054476101 -1.47568 65280
-0.26951301 -0.054476101 -1.47568 65280
-0.266646 -0.054476101 -1.47568 65280
-0.26377901 -0.054476101 -1.47568 65280
-0.260912 -0.054476101 -1.47568 65280
-0.25804499 -0.054476101 -1.47568 65280
-0.255178 -0.054476101 -1.47568 65280
-0.25231001 -0.054476101 -1.47568 65280
-0.24944299 -0.054476101 -1.47568 65280
-0.246576 -0.054476101 -1.47568 65280
-0.243709 -0.054476101 -1.47568 65280
-0.240842 -0.054476101 -1.47568 65280
-0.237975 -0.054476101 -1.47568 65280
-0.235107 -0.054476101 -1.47568 65280
-0.23224001 -0.054476101 -1.47568 65280
-0.22937299 -0.054476101 -1.47568 65280
-0.22650599 -0.054476101 -1.47568 65280
-0.223639 -0.054476101 -1.47568 65280
-0.220772 -0.054476101 -1.47568 65280
-0.217904 -0.054476101 -1.47568 65280
-0.215037 -0.054476101 -1.47568 65280
-0.21217 -0.054476101 -1.47568 65280
-0.20930301 -0.054476101 -1.47568 65280
-0.20643599 -0.054476101 -1.47568 65280
-0.20356899 -0.054476101 -1.47568 65280
-0.200701 -0.054476101 -1.47568 65280
-0.197834 -0.054476101 -1.47568 65280
-0.194967 -0.054476101 -1.47568 65280
-0.1921 -0.054476101 -1.47568 65280
-0.18923301 -0.054476101 -1.47568 65280
-0.18636601 -0.054476101 -1.47568 65280
-0.183498 -0.054476101 -1.47568 65280
-0.180631 -0.054476101 -1.47568 65280
-0.177764 -0.054476101 -1.47568 65280
-0.174897 -0.054476101 -1.47568 65280
-0.17203 -0.054476101 -1.47568 65280
-0.169163 -0.054476101 -1.47568 65280
-0.16629501 -0.054476101 -1.47568 65280
-0.16342799 -0.054476101 -1.47568 65280
-0.160561 -0.054476101 -1.47568 65280
-0.157694 -0.054476101 -1.47568 65280
-0.154827 -0.054476101 -1.47568 65280
-0.15196 -0.054476101 -1.47568 65280
-0.149093 -0.054476101 -1.47568 65280
-0.14622501 -0.054476101 -1.47568 65280
-0.14335801 -0.054476101 -1.47568 65280
-0.14049099 -0.054476101 -1.47568 65280
-0.137624 -0.054476101 -1.47568 65280
-0.134757 -0.054476101 -1.47568 65280
-0.13189 -0.054476101 -1.47568 65280
-0.129022 -0.054476101 -1.47568 65280
-0.126155 -0.054476101 -1.47568 65280
-0.123288 -0.054476101 -1.47568 65280
-0.120421 -0.054476101 -1.47568 65280
-0.117554 -0.054476101 -1.47568 65280
-0.114687 -0.054476101 -1.47568 65280
-0.111819 -0.054476101 -1.47568 65280
-0.108952 -0.054476101 -1.47568 65280
-0.106085 -0.054476101 -1.47568 65280
-0.103218 -0.054476101 -1.47568 65280
-0.100351 -0.054476101 -1.47568 65280
-0.097483598 -0.054476101 -1.47568 65280
-0.094616398 -0.054476101 -1.47568 65280
-0.091749199 -0.054476101 -1.47568 65280
-0.088882104 -0.054476101 -1.47568 65280
-0.086014897 -0.054476101 -1.47568 65280
-0.083147697 -0.054476101 -1.47568 65280
-0.080280602 -0.054476101 -1.47568 65280
-0.077413402 -0.054476101 -1.47568 65280
-0.0745463 -0.054476101 -1.47568 65280
-0.0716791 -0.054476101 -1.47568 65280
-0.068811901 -0.054476101 -1.47568 65280
-0.065944798 -0.054476101 -1.47568 65280
-0.063077599 -0.054476101 -1.47568 65280
-0.060210399 -0.054476101 -1.47568 65280
-0.0573433 -0.054476101 -1.47568 65280
-0.054476101 -0.054476101 -1.47568 65280
-0.051608901 -0.054476101 -1.47568 65280
-0.048741799 -0.054476101 -1.47568 65280
-0.045874599 -0.054476101 -1.47568 65280
-0.0430075 -0.054476101 -1.47568 65280
-0.040140301 -0.054476101 -1.47568 65280
-0.034689099 -0.050699499 -1.3733701 65280
-0.031881899 -0.050479699 -1.36742 65280
-0.0291584 -0.050364502 -1.3643 65280
-0.0264556 -0.050265599 -1.3616199 65280
-0.023758201 -0.050156198 -1.35866 65280
-0.021092501 -0.050094601 -1.35699 65280
-0.0184485 -0.0500746 -1.35645 65280
-0.0158136 -0.050076298 -1.35649 65280
-0.0131841 -0.0500996 -1.35712 65280
-0.0105553 -0.050137799 -1.35816 65280
-0.0079229102 -0.050178401 -1.35926 65280
-0.00528683 -0.0502249 -1.36052 65280
-0.0026466299 -0.050285898 -1.36217 65280
0 -0.050359499 -1.3641599 65280
0.0026562901 -0.0504696 -1.3671499 65280
0.00533295 -0.050663002 -1.37238 65280
0.0082714995 -0.052386198 -1.41906 65280
0.0110271 -0.052378502 -1.41886 65280
0.0137825 -0.052373402 -1.41872 65280
0.0165419 -0.0523827 -1.41897 65280
0.0193075 -0.052406099 -1.4196 65280
0.0220834 -0.052448001 -1.42074 65280
0.0248971 -0.052560501 -1.42378 65280
0.027765401 -0.052754302 -1.42904 65280
0.031538799 -0.054476101 -1.47568 65280
0.034405999 -0.054476101 -1.47568 65280
0.037273102 -0.054476101 -1.47568 65280
0.040140301 -0.054476101 -1.47568 65280
0.0430075 -0.054476101 -1.47568 65280
0.045874599 -0.054476101 -1.47568 65280
0.048741799 -0.054476101 -1.47568 65280
0.051608901 -0.054476101 -1.47568 65280
0.054476101 -0.054476101 -1.47568 65280
0.0573433 -0.054476101 -1.47568 65280
0.060210399 -0.054476101 -1.47568 65280
0.063077599 -0.054476101 -1.47568 65280
0.065944798 -0.054476101 -1.47568 65280
0.068811901 -0.054476101 -1.47568 65280
0.0716791 -0.054476101 -1.47568 65280
0.0745463 -0.054476101 -1.47568 65280
0.077413402 -0.054476101 -1.47568 65280
0.080280602 -0.054476101 -1.47568 65280
0.083147697 -0.054476101 -1.47568 65280
0.086014897 -0.054476101 -1.47568 65280
0.088882104 -0.054476101 -1.47568 65280
0.091749199 -0.054476101 -1.47568 65280
0.094616398 -0.054476101 -1.47568 65280
0.097483598 -0.054476101 -1.47568 65280
0.100351 -0.054476101 -1.47568 65280
0.103218 -0.054476101 -1.47568 65280
0.106085 -0.054476101 -1.47568 65280
0.108952 -0.054476101 -1.47568 65280
0.111819 -0.054476101 -1.47568 65280
0.114687 -0.054476101 -1.47568 65280
0.117554 -0.054476101 -1.47568 65280
0.120421 -0.054476101 -1.47568 65280
0.123288 -0.054476101 -1.47568 65280
0.126155 -0.054476101 -1.47568 65280
0.129022 -0.054476101 -1.47568 65280
0.13189 -0.054476101 -1.47568 65280
0.134757 -0.054476101 -1.47568 65280
0.137624 -0.054476101 -1.47568 65280
0.14049099 -0.054476101 -1.47568 65280
0.14335801 -0.054476101 -1.47568 65280
0.14622501 -0.054476101 -1.47568 65280
0.149093 -0.054476101 -1.47568 65280
0.15196 -0.054476101 -1.47568 65280
0.154827 -0.054476101 -1.47568 65280
0.157694 -0.054476101 -1.47568 65280
0.160561 -0.054476101 -1.47568 65280
0.16342799 -0.054476101 -1.47568 65280
0.16629501 -0.054476101 -1.47568 65280
0.169163 -0.054476101 -1.47568 65280
0.17203 -0.054476101 -1.47568 65280
0.174897 -0.054476101 -1.47568 65280
0.177764 -0.054476101 -1.47568 65280
0.180631 -0.054476101 -1.47568 65280
0.183498 -0.054476101 -1.47568 65280
0.18636601 -0.054476101 -1.47568 65280
0.18923301 -0.054476101 -1.47568 65280
0.1921 -0.054476101 -1.47568 65280
0.194967 -0.054476101 -1.47568 65280
0.197834 -0.054476101 -1.47568 65280
0.200701 -0.054476101 -1.47568 65280
0.20356899 -0.054476101 -1.47568 65280
0.20643599 -0.054476101 -1.47568 65280
0.20930301 -0.054476101 -1.47568 65280
0.21217 -0.054476101 -1.47568 65280
0.215037 -0.054476101 -1.47568 65280
0.217904 -0.054476101 -1.47568 65280
0.220772 -0.054476101 -1.47568 65280
0.223639 -0.054476101 -1.47568 65280
0.22650599 -0.054476101 -1.47568 65280
0.22937299 -0.054476101 -1.47568 65280
0.23224001 -0.054476101 -1.47568 65280
0.235107 -0.054476101 -1.47568 65280
0.237975 -0.054476101 -1.47568 65280
0.240842 -0.054476101 -1.47568 65280
0.243709 -0.054476101 -1.47568 65280
0.246576 -0.054476101 -1.47568 65280
0.24944299 -0.054476101 -1.47568 65280
0.25231001 -0.054476101 -1.47568 65280
0.255178 -0.054476101 -1.47568 65280
0.25804499 -0.054476101 -1.47568 65280
0.260912 -0.054476101 -1.47568 65280
0.26377901 -0.054476101 -1.47568 65280
0.266646 -0.054476101 -1.47568 65280
0.26951301 -0.054476101 -1.47568 65280
0.27238101 -0.054476101 -1.47568 65280
0.27524799 -0.054476101 -1.47568 65280
0.278115 -0.054476101 -1.47568 65280
0.28098199 -0.054476101 -1.47568 65280
0.283849 -0.054476101 -1.47568 65280
0.28671601 -0.054476101 -1.47568 65280
0.28958401 -0.054476101 -1.47568 65280
0.29245099 -0.054476101 -1.47568 65280
0.29531801 -0.054476101 -1.47568 65280
0.29818499 -0.054476101 -1.47568 65280
