# .PCD v0.7 - Point Cloud Data file format
VERSION 0.7
FIELDS x y z rgb
SIZE 4 4 4 4
TYPE F F F U
COUNT 1 1 1 1
WIDTH 1237
HEIGHT 1
VIEWPOINT 0 0 0 1 0 0 0
POINTS 1237
DATA ascii
-0.083843097 -0.080951899 -1.4880199 65280
-0.080951899 -0.080951899 -1.4880199 65280
-0.078060798 -0.080951899 -1.4880199 65280
-0.075169697 -0.080951899 -1.4880199 65280
-0.0722785 -0.080951899 -1.4880199 65280
-0.069387399 -0.080951899 -1.4880199 65280
-0.066496201 -0.080951899 -1.4880199 65280
-0.0636051 -0.080951899 -1.4880199 65280
-0.060713999 -0.080951899 -1.4880199 65280
-0.057822801 -0.080951899 -1.4880199 65280
-0.0549317 -0.080951899 -1.4880199 65280
-0.052040499 -0.080951899 -1.4880199 65280
-0.049149401 -0.080951899 -1.4880199 65280
-0.046258301 -0.080951899 -1.4880199 65280
-0.043367099 -0.080951899 -1.4880199 65280
-0.040476002 -0.080951899 -1.4880199 65280
-0.0375848 -0.080951899 -1.4880199 65280
-0.034693699 -0.080951899 -1.4880199 65280
-0.031802502 -0.080951899 -1.4880199 65280
-0.028911401 -0.080951899 -1.4880199 65280
-0.0260203 -0.080951899 -1.4880199 65280
-0.0231291 -0.080951899 -1.4880199 65280
-0.020238001 -0.080951899 -1.4880199 65280
-0.017346799 -0.080951899 -1.4880199 65280
-0.013433 -0.075224698 -1.38274 65280
-0.0107062 -0.0749432 -1.37757 65280
-0.0080141798 -0.074799001 -1.37492 65280
-0.0053353999 -0.074695602 -1.3730201 65280
-0.002665 -0.074620001 -1.37163 65280
0 -0.074560799 -1.37054 65280
0.0026612701 -0.0745157 -1.36971 65280
0.0053208601 -0.074492097 -1.36928 65280
0.0079802396 -0.074482299 -1.36909 65280
0.0106415 -0.074490704 -1.3692501 65280
0.0133074 -0.074521199 -1.36981 65280
0.015982799 -0.074586503 -1.3710099 65280
0.018678799 -0.0747151 -1.3733799 65280
0.021382101 -0.074837498 -1.37562 65280
0.024101701 -0.074983202 -1.3783 65280
0.026844 -0.0751632 -1.38161 65280
0.0296316 -0.075425804 -1.38644 65280
0.032430202 -0.075670399 -1.3909301 65280
0.035179298 -0.075770803 -1.3927799 65280
0.0379766 -0.075953297 -1.39613 65280
0.043367099 -0.080951899 -1.4880199 65280
0.046258301 -0.080951899 -1.4880199 65280
0.049149401 -0.080951899 -1.4880199 65280
0.052040499 -0.080951899 -1.4880199 65280
0.0549317 -0.080951899 -1.4880199 65280
0.057822801 -0.080951899 -1.4880199 65280
0.060713999 -0.080951899 -1.4880199 65280
0.0636051 -0.080951899 -1.4880199 65280
0.066496201 -0.080951899 -1.4880199 65280
0.069387399 -0.080951899 -1.4880199 65280
0.0722785 -0.080951899 -1.4880199 65280
0.075169697 -0.080951899 -1.4880199 65280
0.078060798 -0.080951899 -1.4880199 65280
0.080951899 -0.080951899 -1.4880199 65280
0.083843097 -0.080951899 -1.4880199 65280
0.086734198 -0.080951899 -1.4880199 65280
0.089625403 -0.080951899 -1.4880199 65280
0.092516497 -0.080951899 -1.4880199 65280
0.095407598 -0.080951899 -1.4880199 65280
0.098298803 -0.080951899 -1.4880199 65280
0.10119 -0.080951899 -1.4880199 65280
0.104081 -0.080951899 -1.4880199 65280
0.106972 -0.080951899 -1.4880199 65280
0.109863 -0.080951899 -1.4880199 65280
0.112754 -0.080951899 -1.4880199 65280
0.115646 -0.080951899 -1.4880199 65280
0.118537 -0.080951899 -1.4880199 65280
0.121428 -0.080951899 -1.4880199 65280
0.124319 -0.080951899 -1.4880199 65280
0.12721001 -0.080951899 -1.4880199 65280
0.130101 -0.080951899 -1.4880199 65280
0.132992 -0.080951899 -1.4880199 65280
0.135884 -0.080951899 -1.4880199 65280
0.13877501 -0.080951899 -1.4880199 65280
0.141666 -0.080951899 -1.4880199 65280
0.144557 -0.080951899 -1.4880199 65280
0.147448 -0.080951899 -1.4880199 65280
0.15033901 -0.080951899 -1.4880199 65280
0.15323 -0.080951899 -1.4880199 65280
0.156122 -0.080951899 -1.4880199 65280
0.159013 -0.080951899 -1.4880199 65280
0.16190401 -0.080951899 -1.4880199 65280
0.164795 -0.080951899 -1.4880199 65280
0.167686 -0.080951899 -1.4880199 65280
0.170577 -0.080951899 -1.4880199 65280
0.17346799 -0.080951899 -1.4880199 65280
0.17636 -0.080951899 -1.4880199 65280
0.179251 -0.080951899 -1.4880199 65280
0.182142 -0.080951899 -1.4880199 65280
0.18503299 -0.080951899 -1.4880199 65280
0.187924 -0.080951899 -1.4880199 65280
0.190815 -0.080951899 -1.4880199 65280
0.19370601 -0.080951899 -1.4880199 65280
0.19659799 -0.080951899 -1.4880199 65280
0.199489 -0.080951899 -1.4880199 65280
0.20238 -0.080951899 -1.4880199 65280
0.20527101 -0.080951899 -1.4880199 65280
0.20816199 -0.080951899 -1.4880199 65280
0.211053 -0.080951899 -1.4880199 65280
0.213944 -0.080951899 -1.4880199 65280
0.21683601 -0.080951899 -1.4880199 65280
0.21972699 -0.080951899 -1.4880199 65280
0.222618 -0.080951899 -1.4880199 65280
0.225509 -0.080951899 -1.4880199 65280
0.22840001 -0.080951899 -1.4880199 65280
0.231291 -0.080951899 -1.4880199 65280
0.234182 -0.080951899 -1.4880199 65280
0.237074 -0.080951899 -1.4880199 65280
0.23996501 -0.080951899 -1.4880199 65280
0.242856 -0.080951899 -1.4880199 65280
0.245747 -0.080951899 -1.4880199 65280
0.248638 -0.080951899 -1.4880199 65280
0.25152901 -0.080951899 -1.4880199 65280
0.25442001 -0.080951899 -1.4880199 65280
0.257312 -0.080951899 -1.4880199 65280
0.260203 -0.080951899 -1.4880199 65280
0.26309401 -0.080951899 -1.4880199 65280
0.26598501 -0.080951899 -1.4880199 65280
0.26887599 -0.080951899 -1.4880199 65280
0.27176699 -0.080951899 -1.4880199 65280
0.27465799 -0.080951899 -1.4880199 65280
0.27755001 -0.080951899 -1.4880199 65280
0.28044099 -0.080951899 -1.4880199 65280
0.28333199 -0.080951899 -1.4880199 65280
0.28622299 -0.080951899 -1.4880199 65280
0.289114 -0.080951899 -1.4880199 65280
0.292005 -0.080951899 -1.4880199 65280
0.29489601 -0.080951899 -1.4880199 65280
0.29778799 -0.080951899 -1.4880199 65280
0.300679 -0.080951899 -1.4880199 65280
0.30357 -0.080951899 -1.4880199 65280
0.30646101 -0.080951899 -1.4880199 65280
0.30935201 -0.080951899 -1.4880199 65280
0.31224301 -0.080951899 -1.4880199 65280
0.31513399 -0.080951899 -1.4880199 65280
0.31802499 -0.080951899 -1.4880199 65280
0.32091701 -0.080951899 -1.4880199 65280
0.32380801 -0.080951899 -1.4880199 65280
0.32669899 -0.080951899 -1.4880199 65280
0.32958999 -0.080951899 -1.4880199 65280
0.332481 -0.080951899 -1.4880199 65280
0.335372 -0.080951899 -1.4880199 65280
0.33826301 -0.080951899 -1.4880199 65280
0.34115499 -0.080951899 -1.4880199 65280
0.344046 -0.080951899 -1.4880199 65280
0.346937 -0.080951899 -1.4880199 65280
0.349828 -0.080951899 -1.4880199 65280
0.35271901 -0.080951899 -1.4880199 65280
0.35561001 -0.080951899 -1.4880199 65280
0.35850099 -0.080951899 -1.4880199 65280
0.361393 -0.080951899 -1.4880199 65280
0.36428401 -0.080951899 -1.4880199 65280
0.36717501 -0.080951899 -1.4880199 65280
0.37006599 -0.080951899 -1.4880199 65280
0.37295699 -0.080951899 -1.4880199 65280
0.375848 -0.080951899 -1.4880199 65280
0.378739 -0.080951899 -1.4880199 65280
0.38163099 -0.080951899 -1.4880199 65280
0.38452199 -0.080951899 -1.4880199 65280
0.387413 -0.080951899 -1.4880199 65280
0.390304 -0.080951899 -1.4880199 65280
0.393195 -0.080951899 -1.4880199 65280
0.39608601 -0.080951899 -1.4880199 65280
-0.39860699 -0.077988401 -1.48664 65280
-0.39571899 -0.077988401 -1.48664 65280
-0.39283001 -0.077988401 -1.48664 65280
-0.38994199 -0.077988401 -1.48664 65280
-0.38705301 -0.077988401 -1.48664 65280
-0.38416499 -0.077988401 -1.48664 65280
-0.38127601 -0.077988401 -1.48664 65280
-0.37838799 -0.077988401 -1.48664 65280
-0.37549901 -0.077988401 -1.48664 65280
-0.37261099 -0.077988401 -1.48664 65280
-0.36972299 -0.077988401 -1.48664 65280
-0.36683401 -0.077988401 -1.48664 65280
-0.36394599 -0.077988401 -1.48664 65280
-0.36105701 -0.077988401 -1.48664 65280
-0.35816899 -0.077988401 -1.48664 65280
-0.35528001 -0.077988401 -1.48664 65280
-0.35239199 -0.077988401 -1.48664 65280
-0.34950301 -0.077988401 -1.48664 65280
-0.34661499 -0.077988401 -1.48664 65280
-0.34372601 -0.077988401 -1.48664 65280
-0.34083799 -0.077988401 -1.48664 65280
-0.33794999 -0.077988401 -1.48664 65280
-0.33506101 -0.077988401 -1.48664 65280
-0.33217299 -0.077988401 -1.48664 65280
-0.32928401 -0.077988401 -1.48664 65280
-0.32639599 -0.077988401 -1.48664 65280
-0.32350701 -0.077988401 -1.48664 65280
-0.32061899 -0.077988401 -1.48664 65280
-0.31773001 -0.077988401 -1.48664 65280
-0.31484199 -0.077988401 -1.48664 65280
-0.31195301 -0.077988401 -1.48664 65280
-0.30906501 -0.077988401 -1.48664 65280
-0.30617601 -0.077988401 -1.48664 65280
-0.30328801 -0.077988401 -1.48664 65280
-0.30039999 -0.077988401 -1.48664 65280
-0.29751101 -0.077988401 -1.48664 65280
-0.29462299 -0.077988401 -1.48664 65280
-0.29173401 -0.077988401 -1.48664 65280
-0.28884599 -0.077988401 -1.48664 65280
-0.28595701 -0.077988401 -1.48664 65280
-0.28306901 -0.077988401 -1.48664 65280
-0.28018001 -0.077988401 -1.48664 65280
-0.27729201 -0.077988401 -1.48664 65280
-0.27440301 -0.077988401 -1.48664 65280
-0.27151501 -0.077988401 -1.48664 65280
-0.26862699 -0.077988401 -1.48664 65280
-0.26573801 -0.077988401 -1.48664 65280
-0.26284999 -0.077988401 -1.48664 65280
-0.25996101 -0.077988401 -1.48664 65280
-0.25707299 -0.077988401 -1.48664 65280
-0.25418401 -0.077988401 -1.48664 65280
-0.25129601 -0.077988401 -1.48664 65280
-0.24840701 -0.077988401 -1.48664 65280
-0.245519 -0.077988401 -1.48664 65280
-0.24263 -0.077988401 -1.48664 65280
-0.239742 -0.077988401 -1.48664 65280
-0.236854 -0.077988401 -1.48664 65280
-0.23396499 -0.077988401 -1.48664 65280
-0.231077 -0.077988401 -1.48664 65280
-0.22818799 -0.077988401 -1.48664 65280
-0.2253 -0.077988401 -1.48664 65280
-0.22241101 -0.077988401 -1.48664 65280
-0.219523 -0.077988401 -1.48664 65280
-0.21663401 -0.077988401 -1.48664 65280
-0.213746 -0.077988401 -1.48664 65280
-0.210857 -0.077988401 -1.48664 65280
-0.20796899 -0.077988401 -1.48664 65280
-0.20508 -0.077988401 -1.48664 65280
-0.20219199 -0.077988401 -1.48664 65280
-0.199304 -0.077988401 -1.48664 65280
-0.19641501 -0.077988401 -1.48664 65280
-0.193527 -0.077988401 -1.48664 65280
-0.19063801 -0.077988401 -1.48664 65280
-0.18775 -0.077988401 -1.48664 65280
-0.184861 -0.077988401 -1.48664 65280
-0.181973 -0.077988401 -1.48664 65280
-0.179084 -0.077988401 -1.48664 65280
-0.17619599 -0.077988401 -1.48664 65280
-0.173307 -0.077988401 -1.48664 65280
-0.17041899 -0.077988401 -1.48664 65280
-0.167531 -0.077988401 -1.48664 65280
-0.16464201 -0.077988401 -1.48664 65280
-0.161754 -0.077988401 -1.48664 65280
-0.158865 -0.077988401 -1.48664 65280
-0.155977 -0.077988401 -1.48664 65280
-0.153088 -0.077988401 -1.48664 65280
-0.15019999 -0.077988401 -1.48664 65280
-0.147311 -0.077988401 -1.48664 65280
-0.14442299 -0.077988401 -1.48664 65280
-0.141534 -0.077988401 -1.48664 65280
-0.13864601 -0.077988401 -1.48664 65280
-0.135758 -0.077988401 -1.48664 65280
-0.13286901 -0.077988401 -1.48664 65280
-0.129981 -0.077988401 -1.48664 65280
-0.127092 -0.077988401 -1.48664 65280
-0.124204 -0.077988401 -1.48664 65280
-0.121315 -0.077988401 -1.48664 65280
-0.118427 -0.077988401 -1.48664 65280
-0.115538 -0.077988401 -1.48664 65280
-0.11265 -0.077988401 -1.48664 65280
-0.109761 -0.077988401 -1.48664 65280
-0.106873 -0.077988401 -1.48664 65280
-0.103984 -0.077988401 -1.48664 65280
-0.101096 -0.077988401 -1.48664 65280
-0.0982076 -0.077988401 -1.48664 65280
-0.0953191 -0.077988401 -1.48664 65280
-0.092430599 -0.077988401 -1.48664 65280
-0.089542203 -0.077988401 -1.48664 65280
-0.086653702 -0.077988401 -1.48664 65280
-0.083765298 -0.077988401 -1.48664 65280
-0.080876797 -0.077988401 -1.48664 65280
-0.077988401 -0.077988401 -1.48664 65280
-0.0750999 -0.077988401 -1.48664 65280
-0.0722114 -0.077988401 -1.48664 65280
-0.069323003 -0.077988401 -1.48664 65280
-0.066434503 -0.077988401 -1.48664 65280
-0.063546099 -0.077988401 -1.48664 65280
-0.060657602 -0.077988401 -1.48664 65280
-0.057769101 -0.077988401 -1.48664 65280
-0.054880701 -0.077988401 -1.48664 65280
-0.0519922 -0.077988401 -1.48664 65280
-0.0491038 -0.077988401 -1.48664 65280
-0.0462153 -0.077988401 -1.48664 65280
-0.043326899 -0.077988401 -1.48664 65280
-0.040438399 -0.077988401 -1.48664 65280
-0.037549902 -0.077988401 -1.48664 65280
-0.034661502 -0.077988401 -1.48664 65280
-0.031773001 -0.077988401 -1.48664 65280
-0.028884601 -0.077988401 -1.48664 65280
-0.0259961 -0.077988401 -1.48664 65280
-0.0231077 -0.077988401 -1.48664 65280
-0.020219199 -0.077988401 -1.48664 65280
-0.017330701 -0.077988401 -1.48664 65280
-0.0134065 -0.072394997 -1.38001 65280
-0.0106947 -0.072189398 -1.37609 65280
-0.0080068698 -0.072061799 -1.37366 65280
-0.0053314599 -0.071974702 -1.372 65280
-0.0026632501 -0.0719079 -1.37073 65280
0 -0.071857199 -1.36976 65280
0.0026603499 -0.071829401 -1.36923 65280
0.0053194701 -0.071812898 -1.36892 65280
0.0079789897 -0.071810901 -1.36888 65280
0.010641 -0.071826696 -1.36918 65280
0.0133074 -0.071859904 -1.36981 65280
0.0159832 -0.0719245 -1.37105 65280
0.0186735 -0.072026297 -1.37299 65280
0.0213717 -0.072129503 -1.3749501 65280
0.024087301 -0.072261997 -1.37748 65280
0.026826 -0.072430298 -1.38069 65280
0.0296039 -0.072664097 -1.3851399 65280
0.032411098 -0.072925001 -1.39012 65280
0.0351713 -0.073048003 -1.39246 65280
0.040438399 -0.077988401 -1.48664 65280
0.043326899 -0.077988401 -1.48664 65280
0.0462153 -0.077988401 -1.48664 65280
0.0491038 -0.077988401 -1.48664 65280
0.0519922 -0.077988401 -1.48664 65280
0.054880701 -0.077988401 -1.48664 65280
0.057769101 -0.077988401 -1.48664 65280
0.060657602 -0.077988401 -1.48664 65280
0.063546099 -0.077988401 -1.48664 65280
0.066434503 -0.077988401 -1.48664 65280
0.069323003 -0.077988401 -1.48664 65280
0.0722114 -0.077988401 -1.48664 65280
0.0750999 -0.077988401 -1.48664 65280
0.077988401 -0.077988401 -1.48664 65280
0.080876797 -0.077988401 -1.48664 65280
0.083765298 -0.077988401 -1.48664 65280
0.086653702 -0.077988401 -1.48664 65280
0.089542203 -0.077988401 -1.48664 65280
0.092430599 -0.077988401 -1.48664 65280
0.0953191 -0.077988401 -1.48664 65280
0.0982076 -0.077988401 -1.48664 65280
0.101096 -0.077988401 -1.48664 65280
0.103984 -0.077988401 -1.48664 65280
0.106873 -0.077988401 -1.48664 65280
0.109761 -0.077988401 -1.48664 65280
0.11265 -0.077988401 -1.48664 65280
0.115538 -0.077988401 -1.48664 65280
0.118427 -0.077988401 -1.48664 65280
0.121315 -0.077988401 -1.48664 65280
0.124204 -0.077988401 -1.48664 65280
0.127092 -0.077988401 -1.48664 65280
0.129981 -0.077988401 -1.48664 65280
0.13286901 -0.077988401 -1.48664 65280
0.135758 -0.077988401 -1.48664 65280
0.13864601 -0.077988401 -1.48664 65280
0.141534 -0.077988401 -1.48664 65280
0.14442299 -0.077988401 -1.48664 65280
0.147311 -0.077988401 -1.48664 65280
0.15019999 -0.077988401 -1.48664 65280
0.153088 -0.077988401 -1.48664 65280
0.155977 -0.077988401 -1.48664 65280
0.158865 -0.077988401 -1.48664 65280
0.161754 -0.077988401 -1.48664 65280
0.16464201 -0.077988401 -1.48664 65280
0.167531 -0.077988401 -1.48664 65280
0.17041899 -0.077988401 -1.48664 65280
0.173307 -0.077988401 -1.48664 65280
0.17619599 -0.077988401 -1.48664 65280
0.179084 -0.077988401 -1.48664 65280
0.181973 -0.077988401 -1.48664 65280
0.184861 -0.077988401 -1.48664 65280
0.18775 -0.077988401 -1.48664 65280
0.19063801 -0.077988401 -1.48664 65280
0.193527 -0.077988401 -1.48664 65280
0.19641501 -0.077988401 -1.48664 65280
0.199304 -0.077988401 -1.48664 65280
0.20219199 -0.077988401 -1.48664 65280
0.20508 -0.077988401 -1.48664 65280
0.20796899 -0.077988401 -1.48664 65280
0.210857 -0.077988401 -1.48664 65280
0.213746 -0.077988401 -1.48664 65280
0.21663401 -0.077988401 -1.48664 65280
0.219523 -0.077988401 -1.48664 65280
0.22241101 -0.077988401 -1.48664 65280
0.2253 -0.077988401 -1.48664 65280
0.22818799 -0.077988401 -1.48664 65280
0.231077 -0.077988401 -1.48664 65280
0.23396499 -0.077988401 -1.48664 65280
0.236854 -0.077988401 -1.48664 65280
0.239742 -0.077988401 -1.48664 65280
0.24263 -0.077988401 -1.48664 65280
0.245519 -0.077988401 -1.48664 65280
0.24840701 -0.077988401 -1.48664 65280
0.25129601 -0.077988401 -1.48664 65280
0.25418401 -0.077988401 -1.48664 65280
0.25707299 -0.077988401 -1.48664 65280
0.25996101 -0.077988401 -1.48664 65280
0.26284999 -0.077988401 -1.48664 65280
0.26573801 -0.077988401 -1.48664 65280
0.26862699 -0.077988401 -1.48664 65280
0.27151501 -0.077988401 -1.48664 65280
0.27440301 -0.077988401 -1.48664 65280
0.27729201 -0.077988401 -1.48664 65280
0.28018001 -0.077988401 -1.48664 65280
0.28306901 -0.077988401 -1.48664 65280
0.28595701 -0.077988401 -1.48664 65280
0.28884599 -0.077988401 -1.48664 65280
0.29173401 -0.077988401 -1.48664 65280
0.29462299 -0.077988401 -1.48664 65280
0.29751101 -0.077988401 -1.48664 65280
0.30039999 -0.077988401 -1.48664 65280
0.30328801 -0.077988401 -1.48664 65280
0.30617601 -0.077988401 -1.48664 65280
0.30906501 -0.077988401 -1.48664 65280
0.31195301 -0.077988401 -1.48664 65280
0.31484199 -0.077988401 -1.48664 65280
0.31773001 -0.077988401 -1.48664 65280
0.32061899 -0.077988401 -1.48664 65280
0.32350701 -0.077988401 -1.48664 65280
0.32639599 -0.077988401 -1.48664 65280
0.32928401 -0.077988401 -1.48664 65280
0.33217299 -0.077988401 -1.48664 65280
0.33506101 -0.077988401 -1.48664 65280
0.33794999 -0.077988401 -1.48664 65280
0.34083799 -0.077988401 -1.48664 65280
0.34372601 -0.077988401 -1.48664 65280
0.34661499 -0.077988401 -1.48664 65280
0.34950301 -0.077988401 -1.48664 65280
0.35239199 -0.077988401 -1.48664 65280
0.35528001 -0.077988401 -1.48664 65280
0.35816899 -0.077988401 -1.48664 65280
0.36105701 -0.077988401 -1.48664 65280
0.36394599 -0.077988401 -1.48664 65280
0.36683401 -0.077988401 -1.48664 65280
0.36972299 -0.077988401 -1.48664 65280
0.37261099 -0.077988401 -1.48664 65280
0.37549901 -0.077988401 -1.48664 65280
0.37838799 -0.077988401 -1.48664 65280
0.38127601 -0.077988401 -1.48664 65280
0.38416499 -0.077988401 -1.48664 65280
0.38705301 -0.077988401 -1.48664 65280
0.38994199 -0.077988401 -1.48664 65280
0.39283001 -0.077988401 -1.48664 65280
0.39571899 -0.077988401 -1.48664 65280
-0.40112299 -0.0750302 -1.48526 65280
-0.39823699 -0.0750302 -1.48526 65280
-0.39535099 -0.0750302 -1.48526 65280
-0.39246601 -0.0750302 -1.48526 65280
-0.38958001 -0.0750302 -1.48526 65280
-0.38669401 -0.0750302 -1.48526 65280
-0.38380799 -0.0750302 -1.48526 65280
-0.380923 -0.0750302 -1.48526 65280
-0.37803701 -0.0750302 -1.48526 65280
-0.37515101 -0.0750302 -1.48526 65280
-0.37226501 -0.0750302 -1.48526 65280
-0.36937901 -0.0750302 -1.48526 65280
-0.366494 -0.0750302 -1.48526 65280
-0.363608 -0.0750302 -1.48526 65280
-0.36072201 -0.0750302 -1.48526 65280
-0.35783601 -0.0750302 -1.48526 65280
-0.35495099 -0.0750302 -1.48526 65280
-0.352065 -0.0750302 -1.48526 65280
-0.349179 -0.0750302 -1.48526 65280
-0.346293 -0.0750302 -1.48526 65280
-0.34340701 -0.0750302 -1.48526 65280
-0.34052199 -0.0750302 -1.48526 65280
-0.33763599 -0.0750302 -1.48526 65280
-0.33475 -0.0750302 -1.48526 65280
-0.331864 -0.0750302 -1.48526 65280
-0.32897899 -0.0750302 -1.48526 65280
-0.32609299 -0.0750302 -1.48526 65280
-0.32320699 -0.0750302 -1.48526 65280
-0.32032099 -0.0750302 -1.48526 65280
-0.317435 -0.0750302 -1.48526 65280
-0.31455001 -0.0750302 -1.48526 65280
-0.31166399 -0.0750302 -1.48526 65280
-0.30877799 -0.0750302 -1.48526 65280
-0.30589199 -0.0750302 -1.48526 65280
-0.30300701 -0.0750302 -1.48526 65280
-0.30012101 -0.0750302 -1.48526 65280
-0.29723501 -0.0750302 -1.48526 65280
-0.29434901 -0.0750302 -1.48526 65280
-0.29146299 -0.0750302 -1.48526 65280
-0.288578 -0.0750302 -1.48526 65280
-0.28569201 -0.0750302 -1.48526 65280
-0.28280601 -0.0750302 -1.48526 65280
-0.27992001 -0.0750302 -1.48526 65280
-0.277035 -0.0750302 -1.48526 65280
-0.274149 -0.0750302 -1.48526 65280
-0.271263 -0.0750302 -1.48526 65280
-0.26837701 -0.0750302 -1.48526 65280
-0.26549101 -0.0750302 -1.48526 65280
-0.26260599 -0.0750302 -1.48526 65280
-0.25972 -0.0750302 -1.48526 65280
-0.256834 -0.0750302 -1.48526 65280
-0.253948 -0.0750302 -1.48526 65280
-0.25106299 -0.0750302 -1.48526 65280
-0.24817701 -0.0750302 -1.48526 65280
-0.24529099 -0.0750302 -1.48526 65280
-0.242405 -0.0750302 -1.48526 65280
-0.239519 -0.0750302 -1.48526 65280
-0.236634 -0.0750302 -1.48526 65280
-0.233748 -0.0750302 -1.48526 65280
-0.23086201 -0.0750302 -1.48526 65280
-0.22797599 -0.0750302 -1.48526 65280
-0.225091 -0.0750302 -1.48526 65280
-0.222205 -0.0750302 -1.48526 65280
-0.219319 -0.0750302 -1.48526 65280
-0.216433 -0.0750302 -1.48526 65280
-0.21354701 -0.0750302 -1.48526 65280
-0.21066201 -0.0750302 -1.48526 65280
-0.207776 -0.0750302 -1.48526 65280
-0.20489 -0.0750302 -1.48526 65280
-0.202004 -0.0750302 -1.48526 65280
-0.199119 -0.0750302 -1.48526 65280
-0.196233 -0.0750302 -1.48526 65280
-0.19334701 -0.0750302 -1.48526 65280
-0.19046099 -0.0750302 -1.48526 65280
-0.187575 -0.0750302 -1.48526 65280
-0.18469 -0.0750302 -1.48526 65280
-0.181804 -0.0750302 -1.48526 65280
-0.178918 -0.0750302 -1.48526 65280
-0.17603201 -0.0750302 -1.48526 65280
-0.17314699 -0.0750302 -1.48526 65280
-0.170261 -0.0750302 -1.48526 65280
-0.167375 -0.0750302 -1.48526 65280
-0.164489 -0.0750302 -1.48526 65280
-0.161603 -0.0750302 -1.48526 65280
-0.158718 -0.0750302 -1.48526 65280
-0.15583199 -0.0750302 -1.48526 65280
-0.152946 -0.0750302 -1.48526 65280
-0.15006 -0.0750302 -1.48526 65280
-0.147175 -0.0750302 -1.48526 65280
-0.144289 -0.0750302 -1.48526 65280
-0.141403 -0.0750302 -1.48526 65280
-0.13851701 -0.0750302 -1.48526 65280
-0.13563199 -0.0750302 -1.48526 65280
-0.132746 -0.0750302 -1.48526 65280
-0.12986 -0.0750302 -1.48526 65280
-0.126974 -0.0750302 -1.48526 65280
-0.124088 -0.0750302 -1.48526 65280
-0.121203 -0.0750302 -1.48526 65280
-0.118317 -0.0750302 -1.48526 65280
-0.115431 -0.0750302 -1.48526 65280
-0.112545 -0.0750302 -1.48526 65280
-0.10966 -0.0750302 -1.48526 65280
-0.106774 -0.0750302 -1.48526 65280
-0.103888 -0.0750302 -1.48526 65280
-0.101002 -0.0750302 -1.48526 65280
-0.098116398 -0.0750302 -1.48526 65280
-0.095230602 -0.0750302 -1.48526 65280
-0.092344902 -0.0750302 -1.48526 65280
-0.089459099 -0.0750302 -1.48526 65280
-0.086573303 -0.0750302 -1.48526 65280
-0.083687499 -0.0750302 -1.48526 65280
-0.080801703 -0.0750302 -1.48526 65280
-0.077915996 -0.0750302 -1.48526 65280
-0.0750302 -0.0750302 -1.48526 65280
-0.072144397 -0.0750302 -1.48526 65280
-0.0692586 -0.0750302 -1.48526 65280
-0.066372901 -0.0750302 -1.48526 65280
-0.063487098 -0.0750302 -1.48526 65280
-0.060601301 -0.0750302 -1.48526 65280
-0.057715502 -0.0750302 -1.48526 65280
-0.054829799 -0.0750302 -1.48526 65280
-0.051943999 -0.0750302 -1.48526 65280
-0.049058199 -0.0750302 -1.48526 65280
-0.046172399 -0.0750302 -1.48526 65280
-0.043286599 -0.0750302 -1.48526 65280
-0.0404009 -0.0750302 -1.48526 65280
-0.0375151 -0.0750302 -1.48526 65280
-0.0346293 -0.0750302 -1.48526 65280
-0.0317435 -0.0750302 -1.48526 65280
-0.028857799 -0.0750302 -1.48526 65280
-0.025971999 -0.0750302 -1.48526 65280
-0.0230862 -0.0750302 -1.48526 65280
-0.0202004 -0.0750302 -1.48526 65280
-0.016165599 -0.070050701 -1.38669 65280
-0.0133926 -0.069641501 -1.37858 65280
-0.0106867 -0.0694637 -1.37507 65280
-0.0080022598 -0.069352902 -1.37287 65280
-0.0053286902 -0.069273002 -1.37129 65280
-0.0026620899 -0.069214299 -1.3701299 65280
0 -0.069177903 -1.36941 65280
0.0026597001 -0.069152102 -1.3688999 65280
0.0053187702 -0.0691441 -1.36874 65280
0.0079784803 -0.069146901 -1.36879 65280
0.0106404 -0.069162399 -1.3691 65280
0.0133066 -0.069194399 -1.36973 65280
0.0159823 -0.069256797 -1.37097 65280
0.018668801 -0.069341101 -1.37264 65280
0.0213654 -0.069437698 -1.37455 65280
0.0240808 -0.069566697 -1.3771 65280
0.0268222 -0.069737598 -1.3804899 65280
0.029617401 -0.070004798 -1.38578 65280
0.032397099 -0.070193797 -1.38952 65280
0.035189901 -0.070379801 -1.3932 65280
0.0404009 -0.0750302 -1.48526 65280
0.043286599 -0.0750302 -1.48526 65280
0.046172399 -0.0750302 -1.48526 65280
0.049058199 -0.0750302 -1.48526 65280
0.051943999 -0.0750302 -1.48526 65280
0.054829799 -0.0750302 -1.48526 65280
0.057715502 -0.0750302 -1.48526 65280
0.060601301 -0.0750302 -1.48526 65280
0.063487098 -0.0750302 -1.48526 65280
0.066372901 -0.0750302 -1.48526 65280
0.0692586 -0.0750302 -1.48526 65280
0.072144397 -0.0750302 -1.48526 65280
0.0750302 -0.0750302 -1.48526 65280
0.077915996 -0.0750302 -1.48526 65280
0.080801703 -0.0750302 -1.48526 65280
0.083687499 -0.0750302 -1.48526 65280
0.086573303 -0.0750302 -1.48526 65280
0.089459099 -0.0750302 -1.48526 65280
0.092344902 -0.0750302 -1.48526 65280
0.095230602 -0.0750302 -1.48526 65280
0.098116398 -0.0750302 -1.48526 65280
0.101002 -0.0750302 -1.48526 65280
0.103888 -0.0750302 -1.48526 65280
0.106774 -0.0750302 -1.48526 65280
0.10966 -0.0750302 -1.48526 65280
0.112545 -0.0750302 -1.48526 65280
0.115431 -0.0750302 -1.48526 65280
0.118317 -0.0750302 -1.48526 65280
0.121203 -0.0750302 -1.48526 65280
0.124088 -0.0750302 -1.48526 65280
0.126974 -0.0750302 -1.48526 65280
0.12986 -0.0750302 -1.48526 65280
0.132746 -0.0750302 -1.48526 65280
0.13563199 -0.0750302 -1.48526 65280
0.13851701 -0.0750302 -1.48526 65280
0.141403 -0.0750302 -1.48526 65280
0.144289 -0.0750302 -1.48526 65280
0.147175 -0.0750302 -1.48526 65280
0.15006 -0.0750302 -1.48526 65280
0.152946 -0.0750302 -1.48526 65280
0.15583199 -0.0750302 -1.48526 65280
0.158718 -0.0750302 -1.48526 65280
0.161603 -0.0750302 -1.48526 65280
0.164489 -0.0750302 -1.48526 65280
0.167375 -0.0750302 -1.48526 65280
0.170261 -0.0750302 -1.48526 65280
0.17314699 -0.0750302 -1.48526 65280
0.17603201 -0.0750302 -1.48526 65280
0.178918 -0.0750302 -1.48526 65280
0.181804 -0.0750302 -1.48526 65280
0.18469 -0.0750302 -1.48526 65280
0.187575 -0.0750302 -1.48526 65280
0.19046099 -0.0750302 -1.48526 65280
0.19334701 -0.0750302 -1.48526 65280
0.196233 -0.0750302 -1.48526 65280
0.199119 -0.0750302 -1.48526 65280
0.202004 -0.0750302 -1.48526 65280
0.20489 -0.0750302 -1.48526 65280
0.207776 -0.0750302 -1.48526 65280
0.21066201 -0.0750302 -1.48526 65280
0.21354701 -0.0750302 -1.48526 65280
0.216433 -0.0750302 -1.48526 65280
0.219319 -0.0750302 -1.48526 65280
0.222205 -0.0750302 -1.48526 65280
0.225091 -0.0750302 -1.48526 65280
0.22797599 -0.0750302 -1.48526 65280
0.23086201 -0.0750302 -1.48526 65280
0.233748 -0.0750302 -1.48526 65280
0.236634 -0.0750302 -1.48526 65280
0.239519 -0.0750302 -1.48526 65280
0.242405 -0.0750302 -1.48526 65280
0.24529099 -0.0750302 -1.48526 65280
0.24817701 -0.0750302 -1.48526 65280
0.25106299 -0.0750302 -1.48526 65280
0.253948 -0.0750302 -1.48526 65280
0.256834 -0.0750302 -1.48526 65280
0.25972 -0.0750302 -1.48526 65280
0.26260599 -0.0750302 -1.48526 65280
0.26549101 -0.0750302 -1.48526 65280
0.26837701 -0.0750302 -1.48526 65280
0.271263 -0.0750302 -1.48526 65280
0.274149 -0.0750302 -1.48526 65280
0.277035 -0.0750302 -1.48526 65280
0.27992001 -0.0750302 -1.48526 65280
0.28280601 -0.0750302 -1.48526 65280
0.28569201 -0.0750302 -1.48526 65280
0.288578 -0.0750302 -1.48526 65280
0.29146299 -0.0750302 -1.48526 65280
0.29434901 -0.0750302 -1.48526 65280
0.29723501 -0.0750302 -1.48526 65280
0.30012101 -0.0750302 -1.48526 65280
0.30300701 -0.0750302 -1.48526 65280
0.30589199 -0.0750302 -1.48526 65280
0.30877799 -0.0750302 -1.48526 65280
0.31166399 -0.0750302 -1.48526 65280
0.31455001 -0.0750302 -1.48526 65280
0.317435 -0.0750302 -1.48526 65280
0.32032099 -0.0750302 -1.48526 65280
0.32320699 -0.0750302 -1.48526 65280
0.32609299 -0.0750302 -1.48526 65280
0.32897899 -0.0750302 -1.48526 65280
0.331864 -0.0750302 -1.48526 65280
0.33475 -0.0750302 -1.48526 65280
0.33763599 -0.0750302 -1.48526 65280
0.34052199 -0.0750302 -1.48526 65280
0.34340701 -0.0750302 -1.48526 65280
0.346293 -0.0750302 -1.48526 65280
0.349179 -0.0750302 -1.48526 65280
0.352065 -0.0750302 -1.48526 65280
0.35495099 -0.0750302 -1.48526 65280
0.35783601 -0.0750302 -1.48526 65280
0.36072201 -0.0750302 -1.48526 65280
0.363608 -0.0750302 -1.48526 65280
0.366494 -0.0750302 -1.48526 65280
0.36937901 -0.0750302 -1.48526 65280
0.37226501 -0.0750302 -1.48526 65280
0.37515101 -0.0750302 -1.48526 65280
0.37803701 -0.0750302 -1.48526 65280
0.380923 -0.0750302 -1.48526 65280
0.38380799 -0.0750302 -1.48526 65280
0.38669401 -0.0750302 -1.48526 65280
0.38958001 -0.0750302 -1.48526 65280
0.39246601 -0.0750302 -1.48526 65280
0.39535099 -0.0750302 -1.48526 65280
0.39823699 -0.0750302 -1.48526 65280
-0.40075099 -0.072077602 -1.48388 65280
-0.39786801 -0.072077602 -1.48388 65280
-0.39498499 -0.072077602 -1.48388 65280
-0.392102 -0.072077602 -1.48388 65280
-0.38921899 -0.072077602 -1.48388 65280
-0.386336 -0.072077602 -1.48388 65280
-0.38345301 -0.072077602 -1.48388 65280
-0.38056999 -0.072077602 -1.48388 65280
-0.37768701 -0.072077602 -1.48388 65280
-0.37480301 -0.072077602 -1.48388 65280
-0.37191999 -0.072077602 -1.48388 65280
-0.369037 -0.072077602 -1.48388 65280
-0.36615399 -0.072077602 -1.48388 65280
-0.363271 -0.072077602 -1.48388 65280
-0.36038801 -0.072077602 -1.48388 65280
-0.35750499 -0.072077602 -1.48388 65280
-0.35462201 -0.072077602 -1.48388 65280
-0.35173899 -0.072077602 -1.48388 65280
-0.34885499 -0.072077602 -1.48388 65280
-0.345972 -0.072077602 -1.48388 65280
-0.34308901 -0.072077602 -1.48388 65280
-0.340206 -0.072077602 -1.48388 65280
-0.33732301 -0.072077602 -1.48388 65280
-0.33443999 -0.072077602 -1.48388 65280
-0.33155701 -0.072077602 -1.48388 65280
-0.32867399 -0.072077602 -1.48388 65280
-0.325791 -0.072077602 -1.48388 65280
-0.32290801 -0.072077602 -1.48388 65280
-0.32002401 -0.072077602 -1.48388 65280
-0.317141 -0.072077602 -1.48388 65280
-0.31425801 -0.072077602 -1.48388 65280
-0.31137499 -0.072077602 -1.48388 65280
-0.308492 -0.072077602 -1.48388 65280
-0.30560899 -0.072077602 -1.48388 65280
-0.302726 -0.072077602 -1.48388 65280
-0.29984301 -0.072077602 -1.48388 65280
-0.29696 -0.072077602 -1.48388 65280
-0.29407701 -0.072077602 -1.48388 65280
-0.29119301 -0.072077602 -1.48388 65280
-0.28830999 -0.072077602 -1.48388 65280
-0.285427 -0.072077602 -1.48388 65280
-0.28254399 -0.072077602 -1.48388 65280
-0.279661 -0.072077602 -1.48388 65280
-0.27677801 -0.072077602 -1.48388 65280
-0.273895 -0.072077602 -1.48388 65280
-0.27101201 -0.072077602 -1.48388 65280
-0.26812899 -0.072077602 -1.48388 65280
-0.26524499 -0.072077602 -1.48388 65280
-0.262362 -0.072077602 -1.48388 65280
-0.25947899 -0.072077602 -1.48388 65280
-0.256596 -0.072077602 -1.48388 65280
-0.25371301 -0.072077602 -1.48388 65280
-0.25082999 -0.072077602 -1.48388 65280
-0.24794701 -0.072077602 -1.48388 65280
-0.24506401 -0.072077602 -1.48388 65280
-0.242181 -0.072077602 -1.48388 65280
-0.239298 -0.072077602 -1.48388 65280
-0.236414 -0.072077602 -1.48388 65280
-0.233531 -0.072077602 -1.48388 65280
-0.230648 -0.072077602 -1.48388 65280
-0.22776499 -0.072077602 -1.48388 65280
-0.22488201 -0.072077602 -1.48388 65280
-0.221999 -0.072077602 -1.48388 65280
-0.219116 -0.072077602 -1.48388 65280
-0.216233 -0.072077602 -1.48388 65280
-0.21335 -0.072077602 -1.48388 65280
-0.210467 -0.072077602 -1.48388 65280
-0.207583 -0.072077602 -1.48388 65280
-0.20469999 -0.072077602 -1.48388 65280
-0.20181701 -0.072077602 -1.48388 65280
-0.198934 -0.072077602 -1.48388 65280
-0.196051 -0.072077602 -1.48388 65280
-0.193168 -0.072077602 -1.48388 65280
-0.190285 -0.072077602 -1.48388 65280
-0.187402 -0.072077602 -1.48388 65280
-0.18451899 -0.072077602 -1.48388 65280
-0.18163501 -0.072077602 -1.48388 65280
-0.17875201 -0.072077602 -1.48388 65280
-0.175869 -0.072077602 -1.48388 65280
-0.172986 -0.072077602 -1.48388 65280
-0.170103 -0.072077602 -1.48388 65280
-0.16722 -0.072077602 -1.48388 65280
-0.16433699 -0.072077602 -1.48388 65280
-0.16145401 -0.072077602 -1.48388 65280
-0.158571 -0.072077602 -1.48388 65280
-0.155688 -0.072077602 -1.48388 65280
-0.152804 -0.072077602 -1.48388 65280
-0.149921 -0.072077602 -1.48388 65280
-0.147038 -0.072077602 -1.48388 65280
-0.144155 -0.072077602 -1.48388 65280
-0.14127199 -0.072077602 -1.48388 65280
-0.13838901 -0.072077602 -1.48388 65280
-0.135506 -0.072077602 -1.48388 65280
-0.132623 -0.072077602 -1.48388 65280
-0.12974 -0.072077602 -1.48388 65280
-0.126857 -0.072077602 -1.48388 65280
-0.123973 -0.072077602 -1.48388 65280
-0.12109 -0.072077602 -1.48388 65280
-0.118207 -0.072077602 -1.48388 65280
-0.115324 -0.072077602 -1.48388 65280
-0.112441 -0.072077602 -1.48388 65280
-0.109558 -0.072077602 -1.48388 65280
-0.106675 -0.072077602 -1.48388 65280
-0.103792 -0.072077602 -1.48388 65280
-0.100909 -0.072077602 -1.48388 65280
-0.098025501 -0.072077602 -1.48388 65280
-0.095142402 -0.072077602 -1.48388 65280
-0.092259303 -0.072077602 -1.48388 65280
-0.089376204 -0.072077602 -1.48388 65280
-0.086493097 -0.072077602 -1.48388 65280
-0.083609998 -0.072077602 -1.48388 65280
-0.080726899 -0.072077602 -1.48388 65280
-0.0778438 -0.072077602 -1.48388 65280
-0.074960701 -0.072077602 -1.48388 65280
-0.072077602 -0.072077602 -1.48388 65280
-0.069194503 -0.072077602 -1.48388 65280
-0.066311397 -0.072077602 -1.48388 65280
-0.063428298 -0.072077602 -1.48388 65280
-0.060545199 -0.072077602 -1.48388 65280
-0.0576621 -0.072077602 -1.48388 65280
-0.054779001 -0.072077602 -1.48388 65280
-0.051895902 -0.072077602 -1.48388 65280
-0.049012799 -0.072077602 -1.48388 65280
-0.0461297 -0.072077602 -1.48388 65280
-0.0432465 -0.072077602 -1.48388 65280
-0.040363401 -0.072077602 -1.48388 65280
-0.037480298 -0.072077602 -1.48388 65280
-0.034597199 -0.072077602 -1.48388 65280
-0.0317141 -0.072077602 -1.48388 65280
-0.028831 -0.072077602 -1.48388 65280
-0.0259479 -0.072077602 -1.48388 65280
-0.0230648 -0.072077602 -1.48388 65280
-0.020181701 -0.072077602 -1.48388 65280
-0.016139099 -0.067246303 -1.38442 65280
-0.0133852 -0.066925898 -1.37782 65280
-0.0106821 -0.066763401 -1.37448 65280
-0.0079989797 -0.066658102 -1.37231 65280
-0.00532712 -0.066588998 -1.37088 65280
-0.0026616999 -0.066542402 -1.36993 65280
0 -0.066506803 -1.36919 65280
0.0026596801 -0.066492103 -1.36889 65280
0.00531865 -0.0664832 -1.36871 65280
0.0079786098 -0.0664884 -1.36882 65280
0.0106407 -0.066504396 -1.36914 65280
0.0133061 -0.066530503 -1.36968 65280
0.015982 -0.066591501 -1.37094 65280
0.018666601 -0.066666298 -1.37248 65280
0.0213638 -0.066761903 -1.37444 65280
0.0240796 -0.066887803 -1.37704 65280
0.0268194 -0.067048602 -1.38035 65280
0.0296153 -0.067307502 -1.38568 65280
0.032411002 -0.067522898 -1.39011 65280
0.037480298 -0.072077602 -1.48388 65280
0.040363401 -0.072077602 -1.48388 65280
0.0432465 -0.072077602 -1.48388 65280
0.0461297 -0.072077602 -1.48388 65280
0.049012799 -0.072077602 -1.48388 65280
0.051895902 -0.072077602 -1.48388 65280
0.054779001 -0.072077602 -1.48388 65280
0.0576621 -0.072077602 -1.48388 65280
0.060545199 -0.072077602 -1.48388 65280
0.063428298 -0.072077602 -1.48388 65280
0.066311397 -0.072077602 -1.48388 65280
0.069194503 -0.072077602 -1.48388 65280
0.072077602 -0.072077602 -1.48388 65280
0.074960701 -0.072077602 -1.48388 65280
0.0778438 -0.072077602 -1.48388 65280
0.080726899 -0.072077602 -1.48388 65280
0.083609998 -0.072077602 -1.48388 65280
0.086493097 -0.072077602 -1.48388 65280
0.089376204 -0.072077602 -1.48388 65280
0.092259303 -0.072077602 -1.48388 65280
0.095142402 -0.072077602 -1.48388 65280
0.098025501 -0.072077602 -1.48388 65280
0.100909 -0.072077602 -1.48388 65280
0.103792 -0.072077602 -1.48388 65280
0.106675 -0.072077602 -1.48388 65280
0.109558 -0.072077602 -1.48388 65280
0.112441 -0.072077602 -1.48388 65280
0.115324 -0.072077602 -1.48388 65280
0.118207 -0.072077602 -1.48388 65280
0.12109 -0.072077602 -1.48388 65280
0.123973 -0.072077602 -1.48388 65280
0.126857 -0.072077602 -1.48388 65280
0.12974 -0.072077602 -1.48388 65280
0.132623 -0.072077602 -1.48388 65280
0.135506 -0.072077602 -1.48388 65280
0.13838901 -0.072077602 -1.48388 65280
0.14127199 -0.072077602 -1.48388 65280
0.144155 -0.072077602 -1.48388 65280
0.147038 -0.072077602 -1.48388 65280
0.149921 -0.072077602 -1.48388 65280
0.152804 -0.072077602 -1.48388 65280
0.155688 -0.072077602 -1.48388 65280
0.158571 -0.072077602 -1.48388 65280
0.16145401 -0.072077602 -1.48388 65280
0.16433699 -0.072077602 -1.48388 65280
0.16722 -0.072077602 -1.48388 65280
0.170103 -0.072077602 -1.48388 65280
0.172986 -0.072077602 -1.48388 65280
0.175869 -0.072077602 -1.48388 65280
0.17875201 -0.072077602 -1.48388 65280
0.18163501 -0.072077602 -1.48388 65280
0.18451899 -0.072077602 -1.48388 65280
0.187402 -0.072077602 -1.48388 65280
0.190285 -0.072077602 -1.48388 65280
0.193168 -0.072077602 -1.48388 65280
0.196051 -0.072077602 -1.48388 65280
0.198934 -0.072077602 -1.48388 65280
0.20181701 -0.072077602 -1.48388 65280
0.20469999 -0.072077602 -1.48388 65280
0.207583 -0.072077602 -1.48388 65280
0.210467 -0.072077602 -1.48388 65280
0.21335 -0.072077602 -1.48388 65280
0.216233 -0.072077602 -1.48388 65280
0.219116 -0.072077602 -1.48388 65280
0.221999 -0.072077602 -1.48388 65280
0.22488201 -0.072077602 -1.48388 65280
0.22776499 -0.072077602 -1.48388 65280
0.230648 -0.072077602 -1.48388 65280
0.233531 -0.072077602 -1.48388 65280
0.236414 -0.072077602 -1.48388 65280
0.239298 -0.072077602 -1.48388 65280
0.242181 -0.072077602 -1.48388 65280
0.24506401 -0.072077602 -1.48388 65280
0.24794701 -0.072077602 -1.48388 65280
0.25082999 -0.072077602 -1.48388 65280
0.25371301 -0.072077602 -1.48388 65280
0.256596 -0.072077602 -1.48388 65280
0.25947899 -0.072077602 -1.48388 65280
0.262362 -0.072077602 -1.48388 65280
0.26524499 -0.072077602 -1.48388 65280
0.26812899 -0.072077602 -1.48388 65280
0.27101201 -0.072077602 -1.48388 65280
0.273895 -0.072077602 -1.48388 65280
0.27677801 -0.072077602 -1.48388 65280
0.279661 -0.072077602 -1.48388 65280
0.28254399 -0.072077602 -1.48388 65280
0.285427 -0.072077602 -1.48388 65280
0.28830999 -0.072077602 -1.48388 65280
0.29119301 -0.072077602 -1.48388 65280
0.29407701 -0.072077602 -1.48388 65280
0.29696 -0.072077602 -1.48388 65280
0.29984301 -0.072077602 -1.48388 65280
0.302726 -0.072077602 -1.48388 65280
0.30560899 -0.072077602 -1.48388 65280
0.308492 -0.072077602 -1.48388 65280
0.31137499 -0.072077602 -1.48388 65280
0.31425801 -0.072077602 -1.48388 65280
0.317141 -0.072077602 -1.48388 65280
0.32002401 -0.072077602 -1.48388 65280
0.32290801 -0.072077602 -1.48388 65280
0.325791 -0.072077602 -1.48388 65280
0.32867399 -0.072077602 -1.48388 65280
0.33155701 -0.072077602 -1.48388 65280
0.33443999 -0.072077602 -1.48388 65280
0.33732301 -0.072077602 -1.48388 65280
0.340206 -0.072077602 -1.48388 65280
0.34308901 -0.072077602 -1.48388 65280
0.345972 -0.072077602 -1.48388 65280
0.34885499 -0.072077602 -1.48388 65280
0.35173899 -0.072077602 -1.48388 65280
0.35462201 -0.072077602 -1.48388 65280
0.35750499 -0.072077602 -1.48388 65280
0.36038801 -0.072077602 -1.48388 65280
0.363271 -0.072077602 -1.48388 65280
0.36615399 -0.072077602 -1.48388 65280
0.369037 -0.072077602 -1.48388 65280
0.37191999 -0.072077602 -1.48388 65280
0.37480301 -0.072077602 -1.48388 65280
0.37768701 -0.072077602 -1.48388 65280
0.38056999 -0.072077602 -1.48388 65280
0.38345301 -0.072077602 -1.48388 65280
0.386336 -0.072077602 -1.48388 65280
0.38921899 -0.072077602 -1.48388 65280
0.392102 -0.072077602 -1.48388 65280
0.39498499 -0.072077602 -1.48388 65280
0.39786801 -0.072077602 -1.48388 65280
-0.40037999 -0.069130398 -1.48251 65280
-0.39750001 -0.069130398 -1.48251 65280
-0.39462 -0.069130398 -1.48251 65280
-0.39173901 -0.069130398 -1.48251 65280
-0.388859 -0.069130398 -1.48251 65280
-0.38597801 -0.069130398 -1.48251 65280
-0.38309801 -0.069130398 -1.48251 65280
-0.38021699 -0.069130398 -1.48251 65280
-0.37733701 -0.069130398 -1.48251 65280
-0.374457 -0.069130398 -1.48251 65280
-0.37157601 -0.069130398 -1.48251 65280
-0.368696 -0.069130398 -1.48251 65280
-0.36581501 -0.069130398 -1.48251 65280
-0.36293501 -0.069130398 -1.48251 65280
-0.36005399 -0.069130398 -1.48251 65280
-0.35717401 -0.069130398 -1.48251 65280
-0.35429299 -0.069130398 -1.48251 65280
-0.35141301 -0.069130398 -1.48251 65280
-0.348533 -0.069130398 -1.48251 65280
-0.34565201 -0.069130398 -1.48251 65280
-0.34277201 -0.069130398 -1.48251 65280
-0.33989099 -0.069130398 -1.48251 65280
-0.33701101 -0.069130398 -1.48251 65280
-0.33412999 -0.069130398 -1.48251 65280
-0.33125001 -0.069130398 -1.48251 65280
-0.32837 -0.069130398 -1.48251 65280
-0.32548901 -0.069130398 -1.48251 65280
-0.32260901 -0.069130398 -1.48251 65280
-0.31972799 -0.069130398 -1.48251 65280
-0.31684801 -0.069130398 -1.48251 65280
-0.31396699 -0.069130398 -1.48251 65280
-0.31108701 -0.069130398 -1.48251 65280
-0.30820701 -0.069130398 -1.48251 65280
-0.30532601 -0.069130398 -1.48251 65280
-0.30244601 -0.069130398 -1.48251 65280
-0.29956499 -0.069130398 -1.48251 65280
-0.29668501 -0.069130398 -1.48251 65280
-0.29380399 -0.069130398 -1.48251 65280
-0.29092401 -0.069130398 -1.48251 65280
-0.28804299 -0.069130398 -1.48251 65280
-0.28516299 -0.069130398 -1.48251 65280
-0.28228301 -0.069130398 -1.48251 65280
-0.27940199 -0.069130398 -1.48251 65280
-0.27652201 -0.069130398 -1.48251 65280
-0.27364099 -0.069130398 -1.48251 65280
-0.27076101 -0.069130398 -1.48251 65280
-0.26787999 -0.069130398 -1.48251 65280
-0.26499999 -0.069130398 -1.48251 65280
-0.26212001 -0.069130398 -1.48251 65280
-0.25923899 -0.069130398 -1.48251 65280
-0.25635901 -0.069130398 -1.48251 65280
-0.25347799 -0.069130398 -1.48251 65280
-0.25059801 -0.069130398 -1.48251 65280
-0.24771699 -0.069130398 -1.48251 65280
-0.244837 -0.069130398 -1.48251 65280
-0.24195699 -0.069130398 -1.48251 65280
-0.239076 -0.069130398 -1.48251 65280
-0.236196 -0.069130398 -1.48251 65280
-0.23331501 -0.069130398 -1.48251 65280
-0.230435 -0.069130398 -1.48251 65280
-0.22755399 -0.069130398 -1.48251 65280
-0.224674 -0.069130398 -1.48251 65280
-0.221793 -0.069130398 -1.48251 65280
-0.218913 -0.069130398 -1.48251 65280
-0.216033 -0.069130398 -1.48251 65280
-0.21315201 -0.069130398 -1.48251 65280
-0.210272 -0.069130398 -1.48251 65280
-0.20739099 -0.069130398 -1.48251 65280
-0.204511 -0.069130398 -1.48251 65280
-0.20163 -0.069130398 -1.48251 65280
-0.19875 -0.069130398 -1.48251 65280
-0.19587 -0.069130398 -1.48251 65280
-0.19298901 -0.069130398 -1.48251 65280
-0.190109 -0.069130398 -1.48251 65280
-0.18722799 -0.069130398 -1.48251 65280
-0.184348 -0.069130398 -1.48251 65280
-0.181467 -0.069130398 -1.48251 65280
-0.178587 -0.069130398 -1.48251 65280
-0.175707 -0.069130398 -1.48251 65280
-0.17282601 -0.069130398 -1.48251 65280
-0.169946 -0.069130398 -1.48251 65280
-0.16706499 -0.069130398 -1.48251 65280
-0.164185 -0.069130398 -1.48251 65280
-0.161304 -0.069130398 -1.48251 65280
-0.158424 -0.069130398 -1.48251 65280
-0.155543 -0.069130398 -1.48251 65280
-0.15266301 -0.069130398 -1.48251 65280
-0.149783 -0.069130398 -1.48251 65280
-0.14690199 -0.069130398 -1.48251 65280
-0.144022 -0.069130398 -1.48251 65280
-0.141141 -0.069130398 -1.48251 65280
-0.13826101 -0.069130398 -1.48251 65280
-0.13538 -0.069130398 -1.48251 65280
-0.13249999 -0.069130398 -1.48251 65280
-0.12962 -0.069130398 -1.48251 65280
-0.126739 -0.069130398 -1.48251 65280
-0.123859 -0.069130398 -1.48251 65280
-0.120978 -0.069130398 -1.48251 65280
-0.118098 -0.069130398 -1.48251 65280
-0.115217 -0.069130398 -1.48251 65280
-0.112337 -0.069130398 -1.48251 65280
-0.109457 -0.069130398 -1.48251 65280
-0.106576 -0.069130398 -1.48251 65280
-0.103696 -0.069130398 -1.48251 65280
-0.100815 -0.069130398 -1.48251 65280
-0.097934797 -0.069130398 -1.48251 65280
-0.095054403 -0.069130398 -1.48251 65280
-0.092173897 -0.069130398 -1.48251 65280
-0.089293502 -0.069130398 -1.48251 65280
-0.086413004 -0.069130398 -1.48251 65280
-0.083532602 -0.069130398 -1.48251 65280
-0.0806522 -0.069130398 -1.48251 65280
-0.077771701 -0.069130398 -1.48251 65280
-0.074891299 -0.069130398 -1.48251 65280
-0.072010897 -0.069130398 -1.48251 65280
-0.069130398 -0.069130398 -1.48251 65280
-0.066249996 -0.069130398 -1.48251 65280
-0.063369602 -0.069130398 -1.48251 65280
-0.060489099 -0.069130398 -1.48251 65280
-0.057608701 -0.069130398 -1.48251 65280
-0.054728299 -0.069130398 -1.48251 65280
-0.051847801 -0.069130398 -1.48251 65280
-0.048967399 -0.069130398 -1.48251 65280
-0.046087001 -0.069130398 -1.48251 65280
-0.043206502 -0.069130398 -1.48251 65280
-0.0403261 -0.069130398 -1.48251 65280
-0.037445702 -0.069130398 -1.48251 65280
-0.034565199 -0.069130398 -1.48251 65280
-0.031684801 -0.069130398 -1.48251 65280
-0.0288043 -0.069130398 -1.48251 65280
-0.0259239 -0.069130398 -1.48251 65280
-0.0230435 -0.069130398 -1.48251 65280
-0.019623499 -0.067280501 -1.44284 65280
-0.0161398 -0.064559303 -1.38448 65280
-0.0133824 -0.064235501 -1.37753 65280
-0.01068 -0.064079903 -1.3742 65280
-0.0079984097 -0.0639873 -1.37221 65280
-0.0053269202 -0.063923098 -1.3708301 65280
-0.0026617199 -0.0638813 -1.36994 65280
0 -0.063855402 -1.36938 65280
0.00265997 -0.063839197 -1.36904 65280
0.0053196801 -0.063836202 -1.36897 65280
0.0079800896 -0.063840702 -1.3690701 65280
0.0106429 -0.063857399 -1.3694299 65280
0.0133094 -0.0638851 -1.37002 65280
0.0159851 -0.0639406 -1.37121 65280
0.018670499 -0.064012997 -1.3727601 65280
0.0213686 -0.064105801 -1.37475 65280
0.024085199 -0.064227097 -1.37735 65280
0.0268314 -0.064395301 -1.38096 65280
0.0296262 -0.064638898 -1.3861901 65280
0.0334838 -0.066967703 -1.43613 65280
0.037445702 -0.069130398 -1.48251 65280
0.0403261 -0.069130398 -1.48251 65280
0.043206502 -0.069130398 -1.48251 65280
0.046087001 -0.069130398 -1.48251 65280
0.048967399 -0.069130398 -1.48251 65280
0.051847801 -0.069130398 -1.48251 65280
0.054728299 -0.069130398 -1.48251 65280
0.057608701 -0.069130398 -1.48251 65280
0.060489099 -0.069130398 -1.48251 65280
0.063369602 -0.069130398 -1.48251 65280
0.066249996 -0.069130398 -1.48251 65280
0.069130398 -0.069130398 -1.48251 65280
0.072010897 -0.069130398 -1.48251 65280
0.074891299 -0.069130398 -1.48251 65280
0.077771701 -0.069130398 -1.48251 65280
0.0806522 -0.069130398 -1.48251 65280
0.083532602 -0.069130398 -1.48251 65280
0.086413004 -0.069130398 -1.48251 65280
0.089293502 -0.069130398 -1.48251 65280
0.092173897 -0.069130398 -1.48251 65280
0.095054403 -0.069130398 -1.48251 65280
0.097934797 -0.069130398 -1.48251 65280
0.100815 -0.069130398 -1.48251 65280
0.103696 -0.069130398 -1.48251 65280
0.106576 -0.069130398 -1.48251 65280
0.109457 -0.069130398 -1.48251 65280
0.112337 -0.069130398 -1.48251 65280
0.115217 -0.069130398 -1.48251 65280
0.118098 -0.069130398 -1.48251 65280
0.120978 -0.069130398 -1.48251 65280
0.123859 -0.069130398 -1.48251 65280
0.126739 -0.069130398 -1.48251 65280
0.12962 -0.069130398 -1.48251 65280
0.13249999 -0.069130398 -1.48251 65280
0.13538 -0.069130398 -1.48251 65280
0.13826101 -0.069130398 -1.48251 65280
0.141141 -0.069130398 -1.48251 65280
0.144022 -0.069130398 -1.48251 65280
0.14690199 -0.069130398 -1.48251 65280
0.149783 -0.069130398 -1.48251 65280
0.15266301 -0.069130398 -1.48251 65280
0.155543 -0.069130398 -1.48251 65280
0.158424 -0.069130398 -1.48251 65280
0.161304 -0.069130398 -1.48251 65280
0.164185 -0.069130398 -1.48251 65280
0.16706499 -0.069130398 -1.48251 65280
0.169946 -0.069130398 -1.48251 65280
0.17282601 -0.069130398 -1.48251 65280
0.175707 -0.069130398 -1.48251 65280
0.178587 -0.069130398 -1.48251 65280
0.181467 -0.069130398 -1.48251 65280
0.184348 -0.069130398 -1.48251 65280
0.18722799 -0.069130398 -1.48251 65280
0.190109 -0.069130398 -1.48251 65280
0.19298901 -0.069130398 -1.48251 65280
0.19587 -0.069130398 -1.48251 65280
0.19875 -0.069130398 -1.48251 65280
0.20163 -0.069130398 -1.48251 65280
0.204511 -0.069130398 -1.48251 65280
0.20739099 -0.069130398 -1.48251 65280
0.210272 -0.069130398 -1.48251 65280
0.21315201 -0.069130398 -1.48251 65280
0.216033 -0.069130398 -1.48251 65280
0.218913 -0.069130398 -1.48251 65280
0.221793 -0.069130398 -1.48251 65280
0.224674 -0.069130398 -1.48251 65280
0.22755399 -0.069130398 -1.48251 65280
0.230435 -0.069130398 -1.48251 65280
0.23331501 -0.069130398 -1.48251 65280
0.236196 -0.069130398 -1.48251 65280
0.239076 -0.069130398 -1.48251 65280
0.24195699 -0.069130398 -1.48251 65280
0.244837 -0.069130398 -1.48251 65280
0.24771699 -0.069130398 -1.48251 65280
0.25059801 -0.069130398 -1.48251 65280
0.25347799 -0.069130398 -1.48251 65280
0.25635901 -0.069130398 -1.48251 65280
0.25923899 -0.069130398 -1.48251 65280
0.26212001 -0.069130398 -1.48251 65280
0.26499999 -0.069130398 -1.48251 65280
0.26787999 -0.069130398 -1.48251 65280
0.27076101 -0.069130398 -1.48251 65280
0.27364099 -0.069130398 -1.48251 65280
0.27652201 -0.069130398 -1.48251 65280
0.27940199 -0.069130398 -1.48251 65280
0.28228301 -0.069130398 -1.48251 65280
