# .PCD v0.7 - Point Cloud Data file format
VERSION 0.7
FIELDS x y z rgb
SIZE 4 4 4 4
TYPE F F F U
COUNT 1 1 1 1
WIDTH 1274
HEIGHT 1
VIEWPOINT 0 0 0 1 0 0 0
POINTS 1274
DATA ascii
0.338696 -0.031307999 -1.46488 65280
0.34154201 -0.031307999 -1.46488 65280
0.34438801 -0.031307999 -1.46488 65280
0.34723401 -0.031307999 -1.46488 65280
0.350081 -0.031307999 -1.46488 65280
0.352927 -0.031307999 -1.46488 65280
0.355773 -0.031307999 -1.46488 65280
0.358619 -0.031307999 -1.46488 65280
0.36146501 -0.031307999 -1.46488 65280
0.36431199 -0.031307999 -1.46488 65280
0.367158 -0.031307999 -1.46488 65280
0.370004 -0.031307999 -1.46488 65280
0.37285 -0.031307999 -1.46488 65280
0.375696 -0.031307999 -1.46488 65280
0.37854299 -0.031307999 -1.46488 65280
0.38138899 -0.031307999 -1.46488 65280
0.38423499 -0.031307999 -1.46488 65280
0.387081 -0.031307999 -1.46488 65280
0.389927 -0.031307999 -1.46488 65280
0.392773 -0.031307999 -1.46488 65280
0.39561999 -0.031307999 -1.46488 65280
0.39846599 -0.031307999 -1.46488 65280
-0.40094501 -0.0284358 -1.46354 65280
-0.398101 -0.0284358 -1.46354 65280
-0.39525801 -0.0284358 -1.46354 65280
-0.392414 -0.0284358 -1.46354 65280
-0.38957101 -0.0284358 -1.46354 65280
-0.38672701 -0.0284358 -1.46354 65280
-0.383883 -0.0284358 -1.46354 65280
-0.38104001 -0.0284358 -1.46354 65280
-0.378196 -0.0284358 -1.46354 65280
-0.37535301 -0.0284358 -1.46354 65280
-0.372509 -0.0284358 -1.46354 65280
-0.36966601 -0.0284358 -1.46354 65280
-0.366822 -0.0284358 -1.46354 65280
-0.363978 -0.0284358 -1.46354 65280
-0.36113501 -0.0284358 -1.46354 65280
-0.358291 -0.0284358 -1.46354 65280
-0.35544801 -0.0284358 -1.46354 65280
-0.352604 -0.0284358 -1.46354 65280
-0.34976101 -0.0284358 -1.46354 65280
-0.346917 -0.0284358 -1.46354 65280
-0.344073 -0.0284358 -1.46354 65280
-0.34123001 -0.0284358 -1.46354 65280
-0.338386 -0.0284358 -1.46354 65280
-0.33554301 -0.0284358 -1.46354 65280
-0.332699 -0.0284358 -1.46354 65280
-0.329855 -0.0284358 -1.46354 65280
-0.327012 -0.0284358 -1.46354 65280
-0.324168 -0.0284358 -1.46354 65280
-0.321325 -0.0284358 -1.46354 65280
-0.318481 -0.0284358 -1.46354 65280
-0.31563801 -0.0284358 -1.46354 65280
-0.312794 -0.0284358 -1.46354 65280
-0.30994999 -0.0284358 -1.46354 65280
-0.307107 -0.0284358 -1.46354 65280
-0.304263 -0.0284358 -1.46354 65280
-0.30142 -0.0284358 -1.46354 65280
-0.298576 -0.0284358 -1.46354 65280
-0.29573199 -0.0284358 -1.46354 65280
-0.292889 -0.0284358 -1.46354 65280
-0.29004499 -0.0284358 -1.46354 65280
-0.287202 -0.0284358 -1.46354 65280
-0.28435799 -0.0284358 -1.46354 65280
-0.281515 -0.0284358 -1.46354 65280
-0.278671 -0.0284358 -1.46354 65280
-0.27582699 -0.0284358 -1.46354 65280
-0.25455201 -0.026515801 -1.36472 65280
-0.25167999 -0.0264927 -1.36353 65280
-0.24909601 -0.0264995 -1.36388 65280
-0.246444 -0.026499299 -1.36387 65280
-0.243762 -0.0264959 -1.36369 65280
-0.24107499 -0.0264917 -1.36348 65280
-0.238414 -0.0264904 -1.36341 65280
-0.235805 -0.0264949 -1.36364 65280
-0.23309501 -0.026488099 -1.3633 65280
-0.230094 -0.0264476 -1.36121 65280
-0.22734 -0.0264349 -1.36055 65280
-0.22463199 -0.026427301 -1.36017 65280
-0.222078 -0.0264378 -1.36071 65280
-0.219484 -0.026443901 -1.36102 65280
-0.21693499 -0.026455499 -1.3616101 65280
-0.214469 -0.0264777 -1.3627599 65280
-0.212109 -0.026513601 -1.36461 65280
-0.20982499 -0.0265601 -1.367 65280
-0.207589 -0.0266139 -1.3697701 65280
-0.2054 -0.026675301 -1.37293 65280
-0.203548 -0.0267826 -1.37845 65280
-0.205079 -0.027343901 -1.40734 65280
-0.202632 -0.027382599 -1.40933 65280
-0.200157 -0.0274188 -1.4112 65280
-0.197651 -0.0274515 -1.4128799 65280
-0.195125 -0.027482299 -1.41447 65280
-0.192586 -0.027512301 -1.41601 65280
-0.190034 -0.0275412 -1.41749 65280
-0.187474 -0.027569599 -1.41896 65280
-0.18493 -0.027601499 -1.4206001 65280
-0.182411 -0.027638 -1.42248 65280
-0.17991599 -0.027679401 -1.42461 65280
-0.177395 -0.0277179 -1.42659 65280
-0.174969 -0.0277729 -1.42942 65280
-0.17280599 -0.027871899 -1.43451 65280
-0.173458 -0.0284358 -1.46354 65280
-0.170615 -0.0284358 -1.46354 65280
-0.167771 -0.0284358 -1.46354 65280
-0.164928 -0.0284358 -1.46354 65280
-0.162084 -0.0284358 -1.46354 65280
-0.15924101 -0.0284358 -1.46354 65280
-0.156397 -0.0284358 -1.46354 65280
-0.15355299 -0.0284358 -1.46354 65280
-0.15071 -0.0284358 -1.46354 65280
-0.147866 -0.0284358 -1.46354 65280
-0.145023 -0.0284358 -1.46354 65280
-0.142179 -0.0284358 -1.46354 65280
-0.13933501 -0.0284358 -1.46354 65280
-0.136492 -0.0284358 -1.46354 65280
-0.13364799 -0.0284358 -1.46354 65280
-0.130805 -0.0284358 -1.46354 65280
-0.12796099 -0.0284358 -1.46354 65280
-0.125118 -0.0284358 -1.46354 65280
-0.122274 -0.0284358 -1.46354 65280
-0.11943 -0.0284358 -1.46354 65280
-0.116587 -0.0284358 -1.46354 65280
-0.113743 -0.0284358 -1.46354 65280
-0.1109 -0.0284358 -1.46354 65280
-0.108056 -0.0284358 -1.46354 65280
-0.105213 -0.0284358 -1.46354 65280
-0.102369 -0.0284358 -1.46354 65280
-0.099525303 -0.0284358 -1.46354 65280
-0.096681803 -0.0284358 -1.46354 65280
-0.0938382 -0.0284358 -1.46354 65280
-0.090994596 -0.0284358 -1.46354 65280
-0.088151 -0.0284358 -1.46354 65280
-0.085307397 -0.0284358 -1.46354 65280
-0.082463898 -0.0284358 -1.46354 65280
-0.079620302 -0.0284358 -1.46354 65280
-0.076776698 -0.0284358 -1.46354 65280
-0.073933102 -0.0284358 -1.46354 65280
-0.071089499 -0.0284358 -1.46354 65280
-0.068245903 -0.0284358 -1.46354 65280
-0.065402403 -0.0284358 -1.46354 65280
-0.0625588 -0.0284358 -1.46354 65280
-0.0597152 -0.0284358 -1.46354 65280
-0.0568716 -0.0284358 -1.46354 65280
-0.054028001 -0.0284358 -1.46354 65280
-0.051184501 -0.0284358 -1.46354 65280
-0.048340902 -0.0284358 -1.46354 65280
-0.045497298 -0.0284358 -1.46354 65280
-0.042653698 -0.0284358 -1.46354 65280
-0.039810099 -0.0284358 -1.46354 65280
-0.0369666 -0.0284358 -1.46354 65280
-0.034123 -0.0284358 -1.46354 65280
-0.0312794 -0.0284358 -1.46354 65280
-0.0284358 -0.0284358 -1.46354 65280
-0.0255922 -0.0284358 -1.46354 65280
-0.022748601 -0.0284358 -1.46354 65280
-0.0199051 -0.0284358 -1.46354 65280
-0.0170615 -0.0284358 -1.46354 65280
-0.0142179 -0.0284358 -1.46354 65280
-0.0113743 -0.0284358 -1.46354 65280
-0.0085307397 -0.0284358 -1.46354 65280
-0.00568716 -0.0284358 -1.46354 65280
-0.00284358 -0.0284358 -1.46354 65280
0 -0.0284358 -1.46354 65280
0.00284358 -0.0284358 -1.46354 65280
0.00568716 -0.0284358 -1.46354 65280
0.0085307397 -0.0284358 -1.46354 65280
0.0113743 -0.0284358 -1.46354 65280
0.0142179 -0.0284358 -1.46354 65280
0.0170615 -0.0284358 -1.46354 65280
0.0199051 -0.0284358 -1.46354 65280
0.022748601 -0.0284358 -1.46354 65280
0.0255922 -0.0284358 -1.46354 65280
0.0284358 -0.0284358 -1.46354 65280
0.0312794 -0.0284358 -1.46354 65280
0.034123 -0.0284358 -1.46354 65280
0.0369666 -0.0284358 -1.46354 65280
0.039810099 -0.0284358 -1.46354 65280
0.042653698 -0.0284358 -1.46354 65280
0.045497298 -0.0284358 -1.46354 65280
0.048340902 -0.0284358 -1.46354 65280
0.051184501 -0.0284358 -1.46354 65280
0.054028001 -0.0284358 -1.46354 65280
0.0568716 -0.0284358 -1.46354 65280
0.0597152 -0.0284358 -1.46354 65280
0.0625588 -0.0284358 -1.46354 65280
0.065402403 -0.0284358 -1.46354 65280
0.068245903 -0.0284358 -1.46354 65280
0.071089499 -0.0284358 -1.46354 65280
0.073933102 -0.0284358 -1.46354 65280
0.076776698 -0.0284358 -1.46354 65280
0.079620302 -0.0284358 -1.46354 65280
0.082463898 -0.0284358 -1.46354 65280
0.085307397 -0.0284358 -1.46354 65280
0.088151 -0.0284358 -1.46354 65280
0.090994596 -0.0284358 -1.46354 65280
0.0938382 -0.0284358 -1.46354 65280
0.096681803 -0.0284358 -1.46354 65280
0.099525303 -0.0284358 -1.46354 65280
0.102369 -0.0284358 -1.46354 65280
0.105213 -0.0284358 -1.46354 65280
0.108056 -0.0284358 -1.46354 65280
0.1109 -0.0284358 -1.46354 65280
0.113743 -0.0284358 -1.46354 65280
0.116587 -0.0284358 -1.46354 65280
0.11943 -0.0284358 -1.46354 65280
0.122274 -0.0284358 -1.46354 65280
0.125118 -0.0284358 -1.46354 65280
0.12796099 -0.0284358 -1.46354 65280
0.130805 -0.0284358 -1.46354 65280
0.13364799 -0.0284358 -1.46354 65280
0.136492 -0.0284358 -1.46354 65280
0.13933501 -0.0284358 -1.46354 65280
0.142179 -0.0284358 -1.46354 65280
0.145023 -0.0284358 -1.46354 65280
0.147866 -0.0284358 -1.46354 65280
0.15071 -0.0284358 -1.46354 65280
0.15355299 -0.0284358 -1.46354 65280
0.156397 -0.0284358 -1.46354 65280
0.15924101 -0.0284358 -1.46354 65280
0.162084 -0.0284358 -1.46354 65280
0.164928 -0.0284358 -1.46354 65280
0.167771 -0.0284358 -1.46354 65280
0.170615 -0.0284358 -1.46354 65280
0.173458 -0.0284358 -1.46354 65280
0.176302 -0.0284358 -1.46354 65280
0.17914601 -0.0284358 -1.46354 65280
0.181989 -0.0284358 -1.46354 65280
0.18483301 -0.0284358 -1.46354 65280
0.187676 -0.0284358 -1.46354 65280
0.19052 -0.0284358 -1.46354 65280
0.19336399 -0.0284358 -1.46354 65280
0.196207 -0.0284358 -1.46354 65280
0.19905099 -0.0284358 -1.46354 65280
0.201894 -0.0284358 -1.46354 65280
0.20473801 -0.0284358 -1.46354 65280
0.207581 -0.0284358 -1.46354 65280
0.210425 -0.0284358 -1.46354 65280
0.213269 -0.0284358 -1.46354 65280
0.216112 -0.0284358 -1.46354 65280
0.21895599 -0.0284358 -1.46354 65280
0.221799 -0.0284358 -1.46354 65280
0.22464301 -0.0284358 -1.46354 65280
0.227487 -0.0284358 -1.46354 65280
0.23033001 -0.0284358 -1.46354 65280
0.233174 -0.0284358 -1.46354 65280
0.236017 -0.0284358 -1.46354 65280
0.23886099 -0.0284358 -1.46354 65280
0.241704 -0.0284358 -1.46354 65280
0.24454799 -0.0284358 -1.46354 65280
0.247392 -0.0284358 -1.46354 65280
0.25023499 -0.0284358 -1.46354 65280
0.253079 -0.0284358 -1.46354 65280
0.25592199 -0.0284358 -1.46354 65280
0.258766 -0.0284358 -1.46354 65280
0.26160899 -0.0284358 -1.46354 65280
0.26445299 -0.0284358 -1.46354 65280
0.267297 -0.0284358 -1.46354 65280
0.27013999 -0.0284358 -1.46354 65280
0.272984 -0.0284358 -1.46354 65280
0.27582699 -0.0284358 -1.46354 65280
0.278671 -0.0284358 -1.46354 65280
0.281515 -0.0284358 -1.46354 65280
0.28435799 -0.0284358 -1.46354 65280
0.287202 -0.0284358 -1.46354 65280
0.29004499 -0.0284358 -1.46354 65280
0.292889 -0.0284358 -1.46354 65280
0.29573199 -0.0284358 -1.46354 65280
0.298576 -0.0284358 -1.46354 65280
0.30142 -0.0284358 -1.46354 65280
0.304263 -0.0284358 -1.46354 65280
0.307107 -0.0284358 -1.46354 65280
0.30994999 -0.0284358 -1.46354 65280
0.312794 -0.0284358 -1.46354 65280
0.31563801 -0.0284358 -1.46354 65280
0.318481 -0.0284358 -1.46354 65280
0.321325 -0.0284358 -1.46354 65280
0.324168 -0.0284358 -1.46354 65280
0.327012 -0.0284358 -1.46354 65280
0.329855 -0.0284358 -1.46354 65280
0.332699 -0.0284358 -1.46354 65280
0.33554301 -0.0284358 -1.46354 65280
0.338386 -0.0284358 -1.46354 65280
0.34123001 -0.0284358 -1.46354 65280
0.344073 -0.0284358 -1.46354 65280
0.346917 -0.0284358 -1.46354 65280
0.34976101 -0.0284358 -1.46354 65280
0.352604 -0.0284358 -1.46354 65280
0.35544801 -0.0284358 -1.46354 65280
0.358291 -0.0284358 -1.46354 65280
0.36113501 -0.0284358 -1.46354 65280
0.363978 -0.0284358 -1.46354 65280
0.366822 -0.0284358 -1.46354 65280
0.36966601 -0.0284358 -1.46354 65280
0.372509 -0.0284358 -1.46354 65280
0.37535301 -0.0284358 -1.46354 65280
0.378196 -0.0284358 -1.46354 65280
0.38104001 -0.0284358 -1.46354 65280
0.383883 -0.0284358 -1.46354 65280
0.38672701 -0.0284358 -1.46354 65280
0.38957101 -0.0284358 -1.46354 65280
0.392414 -0.0284358 -1.46354 65280
0.39525801 -0.0284358 -1.46354 65280
0.398101 -0.0284358 -1.46354 65280
-0.40057901 -0.025568901 -1.4622 65280
-0.39773801 -0.025568901 -1.4622 65280
-0.39489701 -0.025568901 -1.4622 65280
-0.39205599 -0.025568901 -1.4622 65280
-0.38921499 -0.025568901 -1.4622 65280
-0.386374 -0.025568901 -1.4622 65280
-0.383533 -0.025568901 -1.4622 65280
-0.38069201 -0.025568901 -1.4622 65280
-0.37785101 -0.025568901 -1.4622 65280
-0.37501001 -0.025568901 -1.4622 65280
-0.37216899 -0.025568901 -1.4622 65280
-0.36932799 -0.025568901 -1.4622 65280
-0.366487 -0.025568901 -1.4622 65280
-0.363646 -0.025568901 -1.4622 65280
-0.360805 -0.025568901 -1.4622 65280
-0.35796401 -0.025568901 -1.4622 65280
-0.35512301 -0.025568901 -1.4622 65280
-0.35228199 -0.025568901 -1.4622 65280
-0.34944099 -0.025568901 -1.4622 65280
-0.3466 -0.025568901 -1.4622 65280
-0.343759 -0.025568901 -1.4622 65280
-0.340918 -0.025568901 -1.4622 65280
-0.33807701 -0.025568901 -1.4622 65280
-0.33523601 -0.025568901 -1.4622 65280
-0.33239499 -0.025568901 -1.4622 65280
-0.32955399 -0.025568901 -1.4622 65280
-0.326713 -0.025568901 -1.4622 65280
-0.323872 -0.025568901 -1.4622 65280
-0.321031 -0.025568901 -1.4622 65280
-0.31819001 -0.025568901 -1.4622 65280
-0.31534901 -0.025568901 -1.4622 65280
-0.31250799 -0.025568901 -1.4622 65280
-0.30966699 -0.025568901 -1.4622 65280
-0.306826 -0.025568901 -1.4622 65280
-0.303985 -0.025568901 -1.4622 65280
-0.301144 -0.025568901 -1.4622 65280
-0.29830301 -0.025568901 -1.4622 65280
-0.29546201 -0.025568901 -1.4622 65280
-0.29262099 -0.025568901 -1.4622 65280
-0.289781 -0.025568901 -1.4622 65280
-0.28694001 -0.025568901 -1.4622 65280
-0.28409901 -0.025568901 -1.4622 65280
-0.28125799 -0.025568901 -1.4622 65280
-0.27841699 -0.025568901 -1.4622 65280
-0.275576 -0.025568901 -1.4622 65280
-0.25411201 -0.023823 -1.36236 65280
-0.25120699 -0.0237986 -1.36097 65280
-0.24869201 -0.023810901 -1.36167 65280
-0.24618199 -0.023824099 -1.36243 65280
-0.243597 -0.023830101 -1.36277 65280
-0.24099 -0.023834201 -1.363 65280
-0.23840199 -0.0238402 -1.36335 65280
-0.23583899 -0.0238488 -1.36384 65280
-0.233255 -0.023855601 -1.36423 65280
-0.230358 -0.023830101 -1.36277 65280
-0.227604 -0.023819 -1.3621401 65280
-0.225042 -0.023828 -1.36265 65280
-0.222407 -0.0238293 -1.36272 65280
-0.21982799 -0.023836801 -1.36315 65280
-0.217306 -0.0238507 -1.36395 65280
-0.21483099 -0.023870099 -1.36506 65280
-0.212494 -0.023905501 -1.36708 65280
-0.210188 -0.023945499 -1.36937 65280
-0.207975 -0.0239971 -1.3723201 65280
-0.205975 -0.0240751 -1.37678 65280
-0.207435 -0.0245647 -1.40478 65280
-0.20504101 -0.024605 -1.4070801 65280
-0.202583 -0.0246385 -1.409 65280
-0.20010599 -0.024670601 -1.41084 65280
-0.197616 -0.024701901 -1.41263 65280
-0.19510899 -0.0247321 -1.41435 65280
-0.19259501 -0.024762301 -1.41608 65280
-0.190064 -0.024791 -1.41772 65280
-0.18753199 -0.0248204 -1.4194 65280
-0.185003 -0.024851199 -1.42116 65280
-0.18248001 -0.0248836 -1.42302 65280
-0.179896 -0.024908699 -1.42445 65280
-0.17736199 -0.0249415 -1.42633 65280
-0.174941 -0.0249916 -1.42919 65280
-0.17271 -0.0250708 -1.43372 65280
-0.1733 -0.025568901 -1.4622 65280
-0.170459 -0.025568901 -1.4622 65280
-0.16761801 -0.025568901 -1.4622 65280
-0.164777 -0.025568901 -1.4622 65280
-0.161936 -0.025568901 -1.4622 65280
-0.159095 -0.025568901 -1.4622 65280
-0.15625399 -0.025568901 -1.4622 65280
-0.153413 -0.025568901 -1.4622 65280
-0.150572 -0.025568901 -1.4622 65280
-0.14773101 -0.025568901 -1.4622 65280
-0.14489 -0.025568901 -1.4622 65280
-0.142049 -0.025568901 -1.4622 65280
-0.139208 -0.025568901 -1.4622 65280
-0.13636699 -0.025568901 -1.4622 65280
-0.133526 -0.025568901 -1.4622 65280
-0.130685 -0.025568901 -1.4622 65280
-0.12784401 -0.025568901 -1.4622 65280
-0.125003 -0.025568901 -1.4622 65280
-0.122162 -0.025568901 -1.4622 65280
-0.119321 -0.025568901 -1.4622 65280
-0.11648 -0.025568901 -1.4622 65280
-0.113639 -0.025568901 -1.4622 65280
-0.110798 -0.025568901 -1.4622 65280
-0.107957 -0.025568901 -1.4622 65280
-0.105116 -0.025568901 -1.4622 65280
-0.102275 -0.025568901 -1.4622 65280
-0.099434502 -0.025568901 -1.4622 65280
-0.096593499 -0.025568901 -1.4622 65280
-0.093752503 -0.025568901 -1.4622 65280
-0.0909115 -0.025568901 -1.4622 65280
-0.088070497 -0.025568901 -1.4622 65280
-0.085229598 -0.025568901 -1.4622 65280
-0.082388602 -0.025568901 -1.4622 65280
-0.079547599 -0.025568901 -1.4622 65280
-0.076706603 -0.025568901 -1.4622 65280
-0.0738656 -0.025568901 -1.4622 65280
-0.071024597 -0.025568901 -1.4622 65280
-0.068183698 -0.025568901 -1.4622 65280
-0.065342702 -0.025568901 -1.4622 65280
-0.062501699 -0.025568901 -1.4622 65280
-0.059660699 -0.025568901 -1.4622 65280
-0.0568197 -0.025568901 -1.4622 65280
-0.0539787 -0.025568901 -1.4622 65280
-0.051137701 -0.025568901 -1.4622 65280
-0.048296802 -0.025568901 -1.4622 65280
-0.045455799 -0.025568901 -1.4622 65280
-0.042614799 -0.025568901 -1.4622 65280
-0.039773799 -0.025568901 -1.4622 65280
-0.0369328 -0.025568901 -1.4622 65280
-0.0340918 -0.025568901 -1.4622 65280
-0.031250801 -0.025568901 -1.4622 65280
-0.0284099 -0.025568901 -1.4622 65280
-0.025568901 -0.025568901 -1.4622 65280
-0.022727899 -0.025568901 -1.4622 65280
-0.0198869 -0.025568901 -1.4622 65280
-0.0170459 -0.025568901 -1.4622 65280
-0.0142049 -0.025568901 -1.4622 65280
-0.0113639 -0.025568901 -1.4622 65280
-0.0085229604 -0.025568901 -1.4622 65280
-0.0056819702 -0.025568901 -1.4622 65280
-0.00284099 -0.025568901 -1.4622 65280
0 -0.025568901 -1.4622 65280
0.00284099 -0.025568901 -1.4622 65280
0.0056819702 -0.025568901 -1.4622 65280
0.0085229604 -0.025568901 -1.4622 65280
0.0113639 -0.025568901 -1.4622 65280
0.0142049 -0.025568901 -1.4622 65280
0.0170459 -0.025568901 -1.4622 65280
0.0198869 -0.025568901 -1.4622 65280
0.022727899 -0.025568901 -1.4622 65280
0.025568901 -0.025568901 -1.4622 65280
0.0284099 -0.025568901 -1.4622 65280
0.031250801 -0.025568901 -1.4622 65280
0.0340918 -0.025568901 -1.4622 65280
0.0369328 -0.025568901 -1.4622 65280
0.039773799 -0.025568901 -1.4622 65280
0.042614799 -0.025568901 -1.4622 65280
0.045455799 -0.025568901 -1.4622 65280
0.048296802 -0.025568901 -1.4622 65280
0.051137701 -0.025568901 -1.4622 65280
0.0539787 -0.025568901 -1.4622 65280
0.0568197 -0.025568901 -1.4622 65280
0.059660699 -0.025568901 -1.4622 65280
0.062501699 -0.025568901 -1.4622 65280
0.065342702 -0.025568901 -1.4622 65280
0.068183698 -0.025568901 -1.4622 65280
0.071024597 -0.025568901 -1.4622 65280
0.0738656 -0.025568901 -1.4622 65280
0.076706603 -0.025568901 -1.4622 65280
0.079547599 -0.025568901 -1.4622 65280
0.082388602 -0.025568901 -1.4622 65280
0.085229598 -0.025568901 -1.4622 65280
0.088070497 -0.025568901 -1.4622 65280
0.0909115 -0.025568901 -1.4622 65280
0.093752503 -0.025568901 -1.4622 65280
0.096593499 -0.025568901 -1.4622 65280
0.099434502 -0.025568901 -1.4622 65280
0.102275 -0.025568901 -1.4622 65280
0.105116 -0.025568901 -1.4622 65280
0.107957 -0.025568901 -1.4622 65280
0.110798 -0.025568901 -1.4622 65280
0.113639 -0.025568901 -1.4622 65280
0.11648 -0.025568901 -1.4622 65280
0.119321 -0.025568901 -1.4622 65280
0.122162 -0.025568901 -1.4622 65280
0.125003 -0.025568901 -1.4622 65280
0.12784401 -0.025568901 -1.4622 65280
0.130685 -0.025568901 -1.4622 65280
0.133526 -0.025568901 -1.4622 65280
0.13636699 -0.025568901 -1.4622 65280
0.139208 -0.025568901 -1.4622 65280
0.142049 -0.025568901 -1.4622 65280
0.14489 -0.025568901 -1.4622 65280
0.14773101 -0.025568901 -1.4622 65280
0.150572 -0.025568901 -1.4622 65280
0.153413 -0.025568901 -1.4622 65280
0.15625399 -0.025568901 -1.4622 65280
0.159095 -0.025568901 -1.4622 65280
0.161936 -0.025568901 -1.4622 65280
0.164777 -0.025568901 -1.4622 65280
0.16761801 -0.025568901 -1.4622 65280
0.170459 -0.025568901 -1.4622 65280
0.1733 -0.025568901 -1.4622 65280
0.17614099 -0.025568901 -1.4622 65280
0.178982 -0.025568901 -1.4622 65280
0.181823 -0.025568901 -1.4622 65280
0.184664 -0.025568901 -1.4622 65280
0.18750501 -0.025568901 -1.4622 65280
0.190346 -0.025568901 -1.4622 65280
0.193187 -0.025568901 -1.4622 65280
0.19602799 -0.025568901 -1.4622 65280
0.198869 -0.025568901 -1.4622 65280
0.20171 -0.025568901 -1.4622 65280
0.204551 -0.025568901 -1.4622 65280
0.20739201 -0.025568901 -1.4622 65280
0.210233 -0.025568901 -1.4622 65280
0.213074 -0.025568901 -1.4622 65280
0.21591499 -0.025568901 -1.4622 65280
0.21875601 -0.025568901 -1.4622 65280
0.221597 -0.025568901 -1.4622 65280
0.224438 -0.025568901 -1.4622 65280
0.22727901 -0.025568901 -1.4622 65280
0.23012 -0.025568901 -1.4622 65280
0.232961 -0.025568901 -1.4622 65280
0.23580199 -0.025568901 -1.4622 65280
0.23864301 -0.025568901 -1.4622 65280
0.241484 -0.025568901 -1.4622 65280
0.244325 -0.025568901 -1.4622 65280
0.24716599 -0.025568901 -1.4622 65280
0.250007 -0.025568901 -1.4622 65280
0.252848 -0.025568901 -1.4622 65280
0.255689 -0.025568901 -1.4622 65280
0.25852999 -0.025568901 -1.4622 65280
0.26137099 -0.025568901 -1.4622 65280
0.26421201 -0.025568901 -1.4622 65280
0.26705301 -0.025568901 -1.4622 65280
0.269894 -0.025568901 -1.4622 65280
0.272735 -0.025568901 -1.4622 65280
0.275576 -0.025568901 -1.4622 65280
0.27841699 -0.025568901 -1.4622 65280
0.28125799 -0.025568901 -1.4622 65280
0.28409901 -0.025568901 -1.4622 65280
0.28694001 -0.025568901 -1.4622 65280
0.289781 -0.025568901 -1.4622 65280
0.29262099 -0.025568901 -1.4622 65280
0.29546201 -0.025568901 -1.4622 65280
0.29830301 -0.025568901 -1.4622 65280
0.301144 -0.025568901 -1.4622 65280
0.303985 -0.025568901 -1.4622 65280
0.306826 -0.025568901 -1.4622 65280
0.30966699 -0.025568901 -1.4622 65280
0.31250799 -0.025568901 -1.4622 65280
0.31534901 -0.025568901 -1.4622 65280
0.31819001 -0.025568901 -1.4622 65280
0.321031 -0.025568901 -1.4622 65280
0.323872 -0.025568901 -1.4622 65280
0.326713 -0.025568901 -1.4622 65280
0.32955399 -0.025568901 -1.4622 65280
0.33239499 -0.025568901 -1.4622 65280
0.33523601 -0.025568901 -1.4622 65280
0.33807701 -0.025568901 -1.4622 65280
0.340918 -0.025568901 -1.4622 65280
0.343759 -0.025568901 -1.4622 65280
0.3466 -0.025568901 -1.4622 65280
0.34944099 -0.025568901 -1.4622 65280
0.35228199 -0.025568901 -1.4622 65280
0.35512301 -0.025568901 -1.4622 65280
0.35796401 -0.025568901 -1.4622 65280
0.360805 -0.025568901 -1.4622 65280
0.363646 -0.025568901 -1.4622 65280
0.366487 -0.025568901 -1.4622 65280
0.36932799 -0.025568901 -1.4622 65280
0.37216899 -0.025568901 -1.4622 65280
0.37501001 -0.025568901 -1.4622 65280
0.37785101 -0.025568901 -1.4622 65280
0.38069201 -0.025568901 -1.4622 65280
0.383533 -0.025568901 -1.4622 65280
0.386374 -0.025568901 -1.4622 65280
0.38921499 -0.025568901 -1.4622 65280
0.39205599 -0.025568901 -1.4622 65280
0.39489701 -0.025568901 -1.4622 65280
0.39773801 -0.025568901 -1.4622 65280
-0.40021399 -0.0227072 -1.46087 65280
-0.39737499 -0.0227072 -1.46087 65280
-0.394537 -0.0227072 -1.46087 65280
-0.391698 -0.0227072 -1.46087 65280
-0.38885999 -0.0227072 -1.46087 65280
-0.386022 -0.0227072 -1.46087 65280
-0.383183 -0.0227072 -1.46087 65280
-0.38034499 -0.0227072 -1.46087 65280
-0.37750599 -0.0227072 -1.46087 65280
-0.374668 -0.0227072 -1.46087 65280
-0.37182999 -0.0227072 -1.46087 65280
-0.36899099 -0.0227072 -1.46087 65280
-0.366153 -0.0227072 -1.46087 65280
-0.363314 -0.0227072 -1.46087 65280
-0.36047599 -0.0227072 -1.46087 65280
-0.357638 -0.0227072 -1.46087 65280
-0.354799 -0.0227072 -1.46087 65280
-0.35196099 -0.0227072 -1.46087 65280
-0.34912199 -0.0227072 -1.46087 65280
-0.346284 -0.0227072 -1.46087 65280
-0.34344599 -0.0227072 -1.46087 65280
-0.34060699 -0.0227072 -1.46087 65280
-0.337769 -0.0227072 -1.46087 65280
-0.33493099 -0.0227072 -1.46087 65280
-0.33209199 -0.0227072 -1.46087 65280
-0.329254 -0.0227072 -1.46087 65280
-0.326415 -0.0227072 -1.46087 65280
-0.32357699 -0.0227072 -1.46087 65280
-0.320739 -0.0227072 -1.46087 65280
-0.3179 -0.0227072 -1.46087 65280
-0.31506199 -0.0227072 -1.46087 65280
-0.31222299 -0.0227072 -1.46087 65280
-0.309385 -0.0227072 -1.46087 65280
-0.30654699 -0.0227072 -1.46087 65280
-0.30370799 -0.0227072 -1.46087 65280
-0.30087 -0.0227072 -1.46087 65280
-0.298031 -0.0227072 -1.46087 65280
-0.29519299 -0.0227072 -1.46087 65280
-0.292355 -0.0227072 -1.46087 65280
-0.289516 -0.0227072 -1.46087 65280
-0.28667799 -0.0227072 -1.46087 65280
-0.28383899 -0.0227072 -1.46087 65280
-0.281001 -0.0227072 -1.46087 65280
-0.27816299 -0.0227072 -1.46087 65280
-0.27532399 -0.0227072 -1.46087 65280
-0.272486 -0.0227072 -1.46087 65280
-0.251021 -0.021138599 -1.35996 65280
-0.248354 -0.0211365 -1.35982 65280
-0.245897 -0.021152399 -1.36085 65280
-0.24343599 -0.021168301 -1.3618701 65280
-0.240925 -0.021180199 -1.36263 65280
-0.238416 -0.021192599 -1.36343 65280
-0.23588599 -0.021203199 -1.36411 65280
-0.233312 -0.021210199 -1.36456 65280
-0.23070601 -0.021214301 -1.36483 65280
-0.228062 -0.0212151 -1.36488 65280
-0.2254 -0.0212141 -1.36482 65280
-0.222776 -0.0212168 -1.36499 65280
-0.220199 -0.021224 -1.36545 65280
-0.21766999 -0.021236099 -1.36623 65280
-0.21521901 -0.021256199 -1.36752 65280
-0.212862 -0.021286201 -1.36945 65280
-0.21061 -0.0213276 -1.37212 65280
-0.208571 -0.0213919 -1.37625 65280
-0.20976099 -0.0217933 -1.4020801 65280
-0.207432 -0.021834901 -1.40476 65280
-0.205008 -0.021867501 -1.40685 65280
-0.20255101 -0.0218974 -1.40877 65280
-0.20007101 -0.0219256 -1.4105901 65280
-0.197587 -0.021954101 -1.41242 65280
-0.195097 -0.0219828 -1.41427 65280
-0.192598 -0.0220112 -1.41609 65280
-0.190092 -0.0220396 -1.41792 65280
-0.18757799 -0.022067999 -1.41975 65280
-0.185048 -0.0220953 -1.4215 65280
-0.182445 -0.0221145 -1.42274 65280
-0.179884 -0.0221396 -1.42436 65280
-0.177393 -0.0221742 -1.42658 65280
-0.17499501 -0.022221601 -1.42963 65280
-0.17276201 -0.022291901 -1.43416 65280
-0.173142 -0.0227072 -1.46087 65280
-0.170304 -0.0227072 -1.46087 65280
-0.167465 -0.0227072 -1.46087 65280
-0.164627 -0.0227072 -1.46087 65280
-0.161788 -0.0227072 -1.46087 65280
-0.15895 -0.0227072 -1.46087 65280
-0.156112 -0.0227072 -1.46087 65280
-0.153273 -0.0227072 -1.46087 65280
-0.150435 -0.0227072 -1.46087 65280
-0.147597 -0.0227072 -1.46087 65280
-0.144758 -0.0227072 -1.46087 65280
-0.14192 -0.0227072 -1.46087 65280
-0.139081 -0.0227072 -1.46087 65280
-0.136243 -0.0227072 -1.46087 65280
-0.133405 -0.0227072 -1.46087 65280
-0.130566 -0.0227072 -1.46087 65280
-0.127728 -0.0227072 -1.46087 65280
-0.124889 -0.0227072 -1.46087 65280
-0.122051 -0.0227072 -1.46087 65280
-0.119213 -0.0227072 -1.46087 65280
-0.116374 -0.0227072 -1.46087 65280
-0.113536 -0.0227072 -1.46087 65280
-0.110697 -0.0227072 -1.46087 65280
-0.107859 -0.0227072 -1.46087 65280
-0.105021 -0.0227072 -1.46087 65280
-0.102182 -0.0227072 -1.46087 65280
-0.099343799 -0.0227072 -1.46087 65280
-0.096505404 -0.0227072 -1.46087 65280
-0.093667001 -0.0227072 -1.46087 65280
-0.090828598 -0.0227072 -1.46087 65280
-0.087990202 -0.0227072 -1.46087 65280
-0.085151799 -0.0227072 -1.46087 65280
-0.082313403 -0.0227072 -1.46087 65280
-0.079475001 -0.0227072 -1.46087 65280
-0.076636598 -0.0227072 -1.46087 65280
-0.073798299 -0.0227072 -1.46087 65280
-0.070959903 -0.0227072 -1.46087 65280
-0.0681215 -0.0227072 -1.46087 65280
-0.065283097 -0.0227072 -1.46087 65280
-0.062444702 -0.0227072 -1.46087 65280
-0.059606299 -0.0227072 -1.46087 65280
-0.0567679 -0.0227072 -1.46087 65280
-0.0539295 -0.0227072 -1.46087 65280
-0.051091101 -0.0227072 -1.46087 65280
-0.048252702 -0.0227072 -1.46087 65280
-0.045414299 -0.0227072 -1.46087 65280
-0.0425759 -0.0227072 -1.46087 65280
-0.0397375 -0.0227072 -1.46087 65280
-0.036899101 -0.0227072 -1.46087 65280
-0.034060702 -0.0227072 -1.46087 65280
-0.031222301 -0.0227072 -1.46087 65280
-0.028383899 -0.0227072 -1.46087 65280
-0.0255455 -0.0227072 -1.46087 65280
-0.0227072 -0.0227072 -1.46087 65280
-0.0198688 -0.0227072 -1.46087 65280
-0.017030399 -0.0227072 -1.46087 65280
-0.014192 -0.0227072 -1.46087 65280
-0.0113536 -0.0227072 -1.46087 65280
-0.0085151801 -0.0227072 -1.46087 65280
-0.0056767901 -0.0227072 -1.46087 65280
-0.0028383899 -0.0227072 -1.46087 65280
0 -0.0227072 -1.46087 65280
0.0028383899 -0.0227072 -1.46087 65280
0.0056767901 -0.0227072 -1.46087 65280
0.0085151801 -0.0227072 -1.46087 65280
0.0113536 -0.0227072 -1.46087 65280
0.014192 -0.0227072 -1.46087 65280
0.017030399 -0.0227072 -1.46087 65280
0.0198688 -0.0227072 -1.46087 65280
0.0227072 -0.0227072 -1.46087 65280
0.0255455 -0.0227072 -1.46087 65280
0.028383899 -0.0227072 -1.46087 65280
0.031222301 -0.0227072 -1.46087 65280
0.034060702 -0.0227072 -1.46087 65280
0.036899101 -0.0227072 -1.46087 65280
0.0397375 -0.0227072 -1.46087 65280
0.0425759 -0.0227072 -1.46087 65280
0.045414299 -0.0227072 -1.46087 65280
0.048252702 -0.0227072 -1.46087 65280
0.051091101 -0.0227072 -1.46087 65280
0.0539295 -0.0227072 -1.46087 65280
0.0567679 -0.0227072 -1.46087 65280
0.059606299 -0.0227072 -1.46087 65280
0.062444702 -0.0227072 -1.46087 65280
0.065283097 -0.0227072 -1.46087 65280
0.0681215 -0.0227072 -1.46087 65280
0.070959903 -0.0227072 -1.46087 65280
0.073798299 -0.0227072 -1.46087 65280
0.076636598 -0.0227072 -1.46087 65280
0.079475001 -0.0227072 -1.46087 65280
0.082313403 -0.0227072 -1.46087 65280
0.085151799 -0.0227072 -1.46087 65280
0.087990202 -0.0227072 -1.46087 65280
0.090828598 -0.0227072 -1.46087 65280
0.093667001 -0.0227072 -1.46087 65280
0.096505404 -0.0227072 -1.46087 65280
0.099343799 -0.0227072 -1.46087 65280
0.102182 -0.0227072 -1.46087 65280
0.105021 -0.0227072 -1.46087 65280
0.107859 -0.0227072 -1.46087 65280
0.110697 -0.0227072 -1.46087 65280
0.113536 -0.0227072 -1.46087 65280
0.116374 -0.0227072 -1.46087 65280
0.119213 -0.0227072 -1.46087 65280
0.122051 -0.0227072 -1.46087 65280
0.124889 -0.0227072 -1.46087 65280
0.127728 -0.0227072 -1.46087 65280
0.130566 -0.0227072 -1.46087 65280
0.133405 -0.0227072 -1.46087 65280
0.136243 -0.0227072 -1.46087 65280
0.139081 -0.0227072 -1.46087 65280
0.14192 -0.0227072 -1.46087 65280
0.144758 -0.0227072 -1.46087 65280
0.147597 -0.0227072 -1.46087 65280
0.150435 -0.0227072 -1.46087 65280
0.153273 -0.0227072 -1.46087 65280
0.156112 -0.0227072 -1.46087 65280
0.15895 -0.0227072 -1.46087 65280
0.161788 -0.0227072 -1.46087 65280
0.164627 -0.0227072 -1.46087 65280
0.167465 -0.0227072 -1.46087 65280
0.170304 -0.0227072 -1.46087 65280
0.173142 -0.0227072 -1.46087 65280
0.17598 -0.0227072 -1.46087 65280
0.178819 -0.0227072 -1.46087 65280
0.181657 -0.0227072 -1.46087 65280
0.184496 -0.0227072 -1.46087 65280
0.187334 -0.0227072 -1.46087 65280
0.190172 -0.0227072 -1.46087 65280
0.193011 -0.0227072 -1.46087 65280
0.195849 -0.0227072 -1.46087 65280
0.198688 -0.0227072 -1.46087 65280
0.201526 -0.0227072 -1.46087 65280
0.204364 -0.0227072 -1.46087 65280
0.207203 -0.0227072 -1.46087 65280
0.210041 -0.0227072 -1.46087 65280
0.21288 -0.0227072 -1.46087 65280
0.215718 -0.0227072 -1.46087 65280
0.218556 -0.0227072 -1.46087 65280
0.221395 -0.0227072 -1.46087 65280
0.224233 -0.0227072 -1.46087 65280
0.227072 -0.0227072 -1.46087 65280
0.22991 -0.0227072 -1.46087 65280
0.232748 -0.0227072 -1.46087 65280
0.235587 -0.0227072 -1.46087 65280
0.238425 -0.0227072 -1.46087 65280
0.241264 -0.0227072 -1.46087 65280
0.244102 -0.0227072 -1.46087 65280
0.24694 -0.0227072 -1.46087 65280
0.249779 -0.0227072 -1.46087 65280
0.252617 -0.0227072 -1.46087 65280
0.25545499 -0.0227072 -1.46087 65280
0.25829399 -0.0227072 -1.46087 65280
0.261132 -0.0227072 -1.46087 65280
0.263971 -0.0227072 -1.46087 65280
0.26680899 -0.0227072 -1.46087 65280
0.269647 -0.0227072 -1.46087 65280
0.272486 -0.0227072 -1.46087 65280
0.27532399 -0.0227072 -1.46087 65280
0.27816299 -0.0227072 -1.46087 65280
0.281001 -0.0227072 -1.46087 65280
0.28383899 -0.0227072 -1.46087 65280
0.28667799 -0.0227072 -1.46087 65280
0.289516 -0.0227072 -1.46087 65280
0.292355 -0.0227072 -1.46087 65280
0.29519299 -0.0227072 -1.46087 65280
0.298031 -0.0227072 -1.46087 65280
0.30087 -0.0227072 -1.46087 65280
0.30370799 -0.0227072 -1.46087 65280
0.30654699 -0.0227072 -1.46087 65280
0.309385 -0.0227072 -1.46087 65280
0.31222299 -0.0227072 -1.46087 65280
0.31506199 -0.0227072 -1.46087 65280
0.3179 -0.0227072 -1.46087 65280
0.320739 -0.0227072 -1.46087 65280
0.32357699 -0.0227072 -1.46087 65280
0.326415 -0.0227072 -1.46087 65280
0.329254 -0.0227072 -1.46087 65280
0.33209199 -0.0227072 -1.46087 65280
0.33493099 -0.0227072 -1.46087 65280
0.337769 -0.0227072 -1.46087 65280
0.34060699 -0.0227072 -1.46087 65280
0.34344599 -0.0227072 -1.46087 65280
0.346284 -0.0227072 -1.46087 65280
0.34912199 -0.0227072 -1.46087 65280
0.35196099 -0.0227072 -1.46087 65280
0.354799 -0.0227072 -1.46087 65280
0.357638 -0.0227072 -1.46087 65280
0.36047599 -0.0227072 -1.46087 65280
0.363314 -0.0227072 -1.46087 65280
0.366153 -0.0227072 -1.46087 65280
0.36899099 -0.0227072 -1.46087 65280
0.37182999 -0.0227072 -1.46087 65280
0.374668 -0.0227072 -1.46087 65280
0.37750599 -0.0227072 -1.46087 65280
0.38034499 -0.0227072 -1.46087 65280
0.383183 -0.0227072 -1.46087 65280
0.386022 -0.0227072 -1.46087 65280
0.38885999 -0.0227072 -1.46087 65280
0.391698 -0.0227072 -1.46087 65280
0.394537 -0.0227072 -1.46087 65280
0.39737499 -0.0227072 -1.46087 65280
-0.399849 -0.019850699 -1.45954 65280
-0.39701301 -0.019850699 -1.45954 65280
-0.39417699 -0.019850699 -1.45954 65280
-0.39134201 -0.019850699 -1.45954 65280
-0.388506 -0.019850699 -1.45954 65280
-0.38567001 -0.019850699 -1.45954 65280
-0.38283399 -0.019850699 -1.45954 65280
-0.379998 -0.019850699 -1.45954 65280
-0.37716201 -0.019850699 -1.45954 65280
-0.374327 -0.019850699 -1.45954 65280
-0.37149099 -0.019850699 -1.45954 65280
-0.368655 -0.019850699 -1.45954 65280
-0.36581901 -0.019850699 -1.45954 65280
-0.36298299 -0.019850699 -1.45954 65280
-0.36014801 -0.019850699 -1.45954 65280
-0.35731199 -0.019850699 -1.45954 65280
-0.354476 -0.019850699 -1.45954 65280
-0.35163999 -0.019850699 -1.45954 65280
-0.348804 -0.019850699 -1.45954 65280
-0.34596899 -0.019850699 -1.45954 65280
-0.343133 -0.019850699 -1.45954 65280
-0.34029701 -0.019850699 -1.45954 65280
-0.33746099 -0.019850699 -1.45954 65280
-0.33462501 -0.019850699 -1.45954 65280
-0.33179 -0.019850699 -1.45954 65280
-0.32895401 -0.019850699 -1.45954 65280
-0.32611799 -0.019850699 -1.45954 65280
-0.323282 -0.019850699 -1.45954 65280
-0.32044601 -0.019850699 -1.45954 65280
-0.31761101 -0.019850699 -1.45954 65280
-0.31477499 -0.019850699 -1.45954 65280
-0.311939 -0.019850699 -1.45954 65280
-0.30910301 -0.019850699 -1.45954 65280
-0.30626699 -0.019850699 -1.45954 65280
-0.303431 -0.019850699 -1.45954 65280
-0.300596 -0.019850699 -1.45954 65280
-0.29776001 -0.019850699 -1.45954 65280
-0.29492399 -0.019850699 -1.45954 65280
-0.292088 -0.019850699 -1.45954 65280
-0.28925201 -0.019850699 -1.45954 65280
-0.28641701 -0.019850699 -1.45954 65280
-0.28358099 -0.019850699 -1.45954 65280
-0.280745 -0.019850699 -1.45954 65280
-0.27790901 -0.019850699 -1.45954 65280
-0.27507299 -0.019850699 -1.45954 65280
-0.27223799 -0.019850699 -1.45954 65280
-0.25341299 -0.0186726 -1.37292 65280
-0.24827699 -0.0184887 -1.3594 65280
-0.245708 -0.018494099 -1.3598 65280
-0.243288 -0.018510999 -1.36104 65280
-0.24087 -0.018528501 -1.3623199 65280
-0.238419 -0.0185437 -1.36344 65280
-0.235917 -0.0185553 -1.3643 65280
-0.23335201 -0.018562101 -1.36479 65280
-0.230749 -0.018565999 -1.36508 65280
-0.228138 -0.018569401 -1.36533 65280
-0.225558 -0.0185754 -1.36577 65280
-0.22313701 -0.018594701 -1.36719 65280
-0.220743 -0.0186169 -1.36882 65280
-0.218146 -0.018622199 -1.36921 65280
-0.215683 -0.018639199 -1.37047 65280
-0.213367 -0.0186696 -1.3727 65280
-0.211373 -0.018729299 -1.37709 65280
-0.21207701 -0.019032599 -1.39939 65280
-0.209839 -0.019076301 -1.4026 65280
-0.207451 -0.019107301 -1.40488 65280
-0.20500199 -0.019133501 -1.40681 65280
-0.20252199 -0.019157499 -1.4085799 65280
-0.200038 -0.019181799 -1.41036 65280
-0.197558 -0.019207001 -1.41221 65280
-0.195081 -0.0192334 -1.41415 65280
-0.192598 -0.019259799 -1.4161 65280
-0.190108 -0.019286299 -1.41804 65280
-0.187582 -0.019309999 -1.41978 65280
-0.184983 -0.019326599 -1.421 65280
-0.182423 -0.019347901 -1.42258 65280
-0.17990901 -0.019374801 -1.4245501 65280
-0.177458 -0.019409399 -1.4270999 65280
-0.175088 -0.0194542 -1.43039 65280
-0.17295 -0.019526601 -1.43571 65280
-0.172984 -0.019850699 -1.45954 65280
-0.170148 -0.019850699 -1.45954 65280
-0.16731299 -0.019850699 -1.45954 65280
-0.16447701 -0.019850699 -1.45954 65280
-0.161641 -0.019850699 -1.45954 65280
-0.158805 -0.019850699 -1.45954 65280
-0.15596899 -0.019850699 -1.45954 65280
-0.153134 -0.019850699 -1.45954 65280
-0.150298 -0.019850699 -1.45954 65280
-0.147462 -0.019850699 -1.45954 65280
-0.14462601 -0.019850699 -1.45954 65280
-0.14179 -0.019850699 -1.45954 65280
-0.138955 -0.019850699 -1.45954 65280
-0.13611899 -0.019850699 -1.45954 65280
-0.133283 -0.019850699 -1.45954 65280
-0.130447 -0.019850699 -1.45954 65280
-0.127611 -0.019850699 -1.45954 65280
-0.124776 -0.019850699 -1.45954 65280
-0.12194 -0.019850699 -1.45954 65280
-0.119104 -0.019850699 -1.45954 65280
-0.116268 -0.019850699 -1.45954 65280
-0.113432 -0.019850699 -1.45954 65280
-0.110597 -0.019850699 -1.45954 65280
-0.107761 -0.019850699 -1.45954 65280
-0.104925 -0.019850699 -1.45954 65280
-0.102089 -0.019850699 -1.45954 65280
-0.099253297 -0.019850699 -1.45954 65280
-0.096417502 -0.019850699 -1.45954 65280
-0.093581699 -0.019850699 -1.45954 65280
-0.090745904 -0.019850699 -1.45954 65280
-0.087909997 -0.019850699 -1.45954 65280
-0.085074201 -0.019850699 -1.45954 65280
-0.082238398 -0.019850699 -1.45954 65280
-0.079402603 -0.019850699 -1.45954 65280
-0.0765668 -0.019850699 -1.45954 65280
-0.073730998 -0.019850699 -1.45954 65280
-0.070895202 -0.019850699 -1.45954 65280
-0.0680594 -0.019850699 -1.45954 65280
-0.065223597 -0.019850699 -1.45954 65280
-0.062387802 -0.019850699 -1.45954 65280
-0.059551999 -0.019850699 -1.45954 65280
-0.0567162 -0.019850699 -1.45954 65280
-0.053880401 -0.019850699 -1.45954 65280
-0.051044501 -0.019850699 -1.45954 65280
-0.048208699 -0.019850699 -1.45954 65280
-0.0453729 -0.019850699 -1.45954 65280
-0.042537101 -0.019850699 -1.45954 65280
-0.039701302 -0.019850699 -1.45954 65280
-0.036865499 -0.019850699 -1.45954 65280
-0.0340297 -0.019850699 -1.45954 65280
-0.031193901 -0.019850699 -1.45954 65280
-0.0283581 -0.019850699 -1.45954 65280
-0.025522299 -0.019850699 -1.45954 65280
-0.0226865 -0.019850699 -1.45954 65280
-0.019850699 -0.019850699 -1.45954 65280
-0.0170148 -0.019850699 -1.45954 65280
-0.014179 -0.019850699 -1.45954 65280
-0.0113432 -0.019850699 -1.45954 65280
-0.0085074203 -0.019850699 -1.45954 65280
-0.0056716199 -0.019850699 -1.45954 65280
-0.00283581 -0.019850699 -1.45954 65280
0 -0.019850699 -1.45954 65280
0.00283581 -0.019850699 -1.45954 65280
0.0056716199 -0.019850699 -1.45954 65280
0.0085074203 -0.019850699 -1.45954 65280
0.0113432 -0.019850699 -1.45954 65280
0.014179 -0.019850699 -1.45954 65280
0.0170148 -0.019850699 -1.45954 65280
0.019850699 -0.019850699 -1.45954 65280
0.0226865 -0.019850699 -1.45954 65280
0.025522299 -0.019850699 -1.45954 65280
0.0283581 -0.019850699 -1.45954 65280
0.031193901 -0.019850699 -1.45954 65280
0.0340297 -0.019850699 -1.45954 65280
0.036865499 -0.019850699 -1.45954 65280
0.039701302 -0.019850699 -1.45954 65280
0.042537101 -0.019850699 -1.45954 65280
0.0453729 -0.019850699 -1.45954 65280
0.048208699 -0.019850699 -1.45954 65280
0.051044501 -0.019850699 -1.45954 65280
0.053880401 -0.019850699 -1.45954 65280
0.0567162 -0.019850699 -1.45954 65280
0.059551999 -0.019850699 -1.45954 65280
0.062387802 -0.019850699 -1.45954 65280
0.065223597 -0.019850699 -1.45954 65280
0.0680594 -0.019850699 -1.45954 65280
0.070895202 -0.019850699 -1.45954 65280
0.073730998 -0.019850699 -1.45954 65280
0.0765668 -0.019850699 -1.45954 65280
0.079402603 -0.019850699 -1.45954 65280
0.082238398 -0.019850699 -1.45954 65280
0.085074201 -0.019850699 -1.45954 65280
0.087909997 -0.019850699 -1.45954 65280
0.090745904 -0.019850699 -1.45954 65280
0.093581699 -0.019850699 -1.45954 65280
0.096417502 -0.019850699 -1.45954 65280
0.099253297 -0.019850699 -1.45954 65280
0.102089 -0.019850699 -1.45954 65280
0.104925 -0.019850699 -1.45954 65280
0.107761 -0.019850699 -1.45954 65280
0.110597 -0.019850699 -1.45954 65280
0.113432 -0.019850699 -1.45954 65280
0.116268 -0.019850699 -1.45954 65280
0.119104 -0.019850699 -1.45954 65280
0.12194 -0.019850699 -1.45954 65280
0.124776 -0.019850699 -1.45954 65280
0.127611 -0.019850699 -1.45954 65280
0.130447 -0.019850699 -1.45954 65280
0.133283 -0.019850699 -1.45954 65280
0.13611899 -0.019850699 -1.45954 65280
0.138955 -0.019850699 -1.45954 65280
0.14179 -0.019850699 -1.45954 65280
0.14462601 -0.019850699 -1.45954 65280
0.147462 -0.019850699 -1.45954 65280
0.150298 -0.019850699 -1.45954 65280
0.153134 -0.019850699 -1.45954 65280
0.15596899 -0.019850699 -1.45954 65280
0.158805 -0.019850699 -1.45954 65280
0.161641 -0.019850699 -1.45954 65280
0.16447701 -0.019850699 -1.45954 65280
0.16731299 -0.019850699 -1.45954 65280
0.170148 -0.019850699 -1.45954 65280
0.172984 -0.019850699 -1.45954 65280
0.17581999 -0.019850699 -1.45954 65280
0.178656 -0.019850699 -1.45954 65280
0.181492 -0.019850699 -1.45954 65280
0.184328 -0.019850699 -1.45954 65280
0.187163 -0.019850699 -1.45954 65280
0.189999 -0.019850699 -1.45954 65280
0.192835 -0.019850699 -1.45954 65280
0.19567101 -0.019850699 -1.45954 65280
0.198507 -0.019850699 -1.45954 65280
0.201342 -0.019850699 -1.45954 65280
0.20417801 -0.019850699 -1.45954 65280
0.20701399 -0.019850699 -1.45954 65280
0.20985 -0.019850699 -1.45954 65280
0.212686 -0.019850699 -1.45954 65280
0.21552099 -0.019850699 -1.45954 65280
0.218357 -0.019850699 -1.45954 65280
0.221193 -0.019850699 -1.45954 65280
0.224029 -0.019850699 -1.45954 65280
0.22686499 -0.019850699 -1.45954 65280
0.2297 -0.019850699 -1.45954 65280
0.232536 -0.019850699 -1.45954 65280
0.23537201 -0.019850699 -1.45954 65280
0.238208 -0.019850699 -1.45954 65280
0.241044 -0.019850699 -1.45954 65280
0.24387901 -0.019850699 -1.45954 65280
0.24671499 -0.019850699 -1.45954 65280
0.249551 -0.019850699 -1.45954 65280
0.25238699 -0.019850699 -1.45954 65280
0.25522301 -0.019850699 -1.45954 65280
0.258059 -0.019850699 -1.45954 65280
0.260894 -0.019850699 -1.45954 65280
0.26372999 -0.019850699 -1.45954 65280
0.26656601 -0.019850699 -1.45954 65280
0.269402 -0.019850699 -1.45954 65280
0.27223799 -0.019850699 -1.45954 65280
0.27507299 -0.019850699 -1.45954 65280
0.27790901 -0.019850699 -1.45954 65280
0.280745 -0.019850699 -1.45954 65280
0.28358099 -0.019850699 -1.45954 65280
0.28641701 -0.019850699 -1.45954 65280
0.28925201 -0.019850699 -1.45954 65280
0.292088 -0.019850699 -1.45954 65280
0.29492399 -0.019850699 -1.45954 65280
0.29776001 -0.019850699 -1.45954 65280
0.300596 -0.019850699 -1.45954 65280
0.303431 -0.019850699 -1.45954 65280
0.30626699 -0.019850699 -1.45954 65280
0.30910301 -0.019850699 -1.45954 65280
0.311939 -0.019850699 -1.45954 65280
0.31477499 -0.019850699 -1.45954 65280
0.31761101 -0.019850699 -1.45954 65280
0.32044601 -0.019850699 -1.45954 65280
0.323282 -0.019850699 -1.45954 65280
0.32611799 -0.019850699 -1.45954 65280
0.32895401 -0.019850699 -1.45954 65280
0.33179 -0.019850699 -1.45954 65280
0.33462501 -0.019850699 -1.45954 65280
0.33746099 -0.019850699 -1.45954 65280
0.34029701 -0.019850699 -1.45954 65280
0.343133 -0.019850699 -1.45954 65280
0.34596899 -0.019850699 -1.45954 65280
0.348804 -0.019850699 -1.45954 65280
0.35163999 -0.019850699 -1.45954 65280
0.354476 -0.019850699 -1.45954 65280
0.35731199 -0.019850699 -1.45954 65280
0.36014801 -0.019850699 -1.45954 65280
0.36298299 -0.019850699 -1.45954 65280
0.36581901 -0.019850699 -1.45954 65280
0.368655 -0.019850699 -1.45954 65280
0.37149099 -0.019850699 -1.45954 65280
0.374327 -0.019850699 -1.45954 65280
0.37716201 -0.019850699 -1.45954 65280
0.379998 -0.019850699 -1.45954 65280
0.38283399 -0.019850699 -1.45954 65280
0.38567001 -0.019850699 -1.45954 65280
0.388506 -0.019850699 -1.45954 65280
0.39134201 -0.019850699 -1.45954 65280
0.39417699 -0.019850699 -1.45954 65280
0.39701301 -0.019850699 -1.45954 65280
-0.39948499 -0.016999399 -1.45821 65280
-0.39665201 -0.016999399 -1.45821 65280
-0.39381799 -0.016999399 -1.45821 65280
-0.39098501 -0.016999399 -1.45821 65280
-0.388152 -0.016999399 -1.45821 65280
-0.38531899 -0.016999399 -1.45821 65280
-0.38248599 -0.016999399 -1.45821 65280
-0.37965199 -0.016999399 -1.45821 65280
-0.37681901 -0.016999399 -1.45821 65280
-0.37398601 -0.016999399 -1.45821 65280
-0.371153 -0.016999399 -1.45821 65280
-0.368319 -0.016999399 -1.45821 65280
-0.365486 -0.016999399 -1.45821 65280
-0.36265299 -0.016999399 -1.45821 65280
-0.35982001 -0.016999399 -1.45821 65280
-0.356987 -0.016999399 -1.45821 65280
-0.35415301 -0.016999399 -1.45821 65280
-0.35132 -0.016999399 -1.45821 65280
-0.34848699 -0.016999399 -1.45821 65280
-0.34565401 -0.016999399 -1.45821 65280
-0.34281999 -0.016999399 -1.45821 65280
-0.33998701 -0.016999399 -1.45821 65280
-0.337154 -0.016999399 -1.45821 65280
-0.33432099 -0.016999399 -1.45821 65280
-0.331487 -0.016999399 -1.45821 65280
-0.32865399 -0.016999399 -1.45821 65280
-0.32582101 -0.016999399 -1.45821 65280
-0.322988 -0.016999399 -1.45821 65280
-0.32015499 -0.016999399 -1.45821 65280
-0.317321 -0.016999399 -1.45821 65280
-0.31448799 -0.016999399 -1.45821 65280
-0.31165501 -0.016999399 -1.45821 65280
-0.30882201 -0.016999399 -1.45821 65280
-0.30598801 -0.016999399 -1.45821 65280
-0.303155 -0.016999399 -1.45821 65280
-0.300322 -0.016999399 -1.45821 65280
-0.29748899 -0.016999399 -1.45821 65280
-0.29465601 -0.016999399 -1.45821 65280
-0.29182199 -0.016999399 -1.45821 65280
-0.28898901 -0.016999399 -1.45821 65280
-0.286156 -0.016999399 -1.45821 65280
-0.28332299 -0.016999399 -1.45821 65280
-0.280489 -0.016999399 -1.45821 65280
-0.27765599 -0.016999399 -1.45821 65280
-0.27482301 -0.016999399 -1.45821 65280
-0.27199 -0.016999399 -1.45821 65280
-0.26915699 -0.016999399 -1.45821 65280
-0.250442 -0.015985601 -1.37125 65280
-0.245819 -0.0158593 -1.36042 65280
-0.24332 -0.015868699 -1.36122 65280
-0.24089 -0.0158829 -1.36244 65280
-0.23844799 -0.0158966 -1.36361 65280
-0.235974 -0.0159084 -1.36462 65280
-0.23344199 -0.0159165 -1.36532 65280
-0.230882 -0.0159229 -1.36587 65280
-0.228322 -0.0159295 -1.36643 65280
-0.225934 -0.015948299 -1.36805 65280
-0.223993 -0.0159995 -1.37244 65280
-0.221357 -0.016001699 -1.37263 65280
-0.218795 -0.0160094 -1.3732899 65280
-0.21645799 -0.016033901 -1.3753999 65280
-0.21575201 -0.0161814 -1.38805 65280
-0.214463 -0.016288299 -1.39722 65280
-0.212294 -0.0163303 -1.40082 65280
-0.209925 -0.0163578 -1.40318 65280
-0.207471 -0.016379301 -1.40502 65280
-0.20499 -0.016399199 -1.40672 65280
-0.202492 -0.016418301 -1.40836 65280
-0.200002 -0.016438499 -1.4101 65280
-0.197528 -0.016460599 -1.4119999 65280
-0.19505499 -0.016483599 -1.41396 65280
-0.192572 -0.016506201 -1.41591 65280
-0.19003899 -0.0165252 -1.4175299 65280
-0.18748499 -0.0165428 -1.41904 65280
-0.184944 -0.0165621 -1.4207 65280
-0.182437 -0.0165851 -1.42268 65280
-0.17996299 -0.016612001 -1.42498 65280
-0.177542 -0.016644601 -1.42778 65280
-0.17522299 -0.0166879 -1.4314899 65280
-0.17566 -0.016999399 -1.45821 65280
-0.17282701 -0.016999399 -1.45821 65280
-0.169994 -0.016999399 -1.45821 65280
-0.16716 -0.016999399 -1.45821 65280
-0.164327 -0.016999399 -1.45821 65280
-0.161494 -0.016999399 -1.45821 65280
-0.15866099 -0.016999399 -1.45821 65280
-0.155827 -0.016999399 -1.45821 65280
-0.15299401 -0.016999399 -1.45821 65280
-0.150161 -0.016999399 -1.45821 65280
-0.147328 -0.016999399 -1.45821 65280
-0.144495 -0.016999399 -1.45821 65280
-0.141661 -0.016999399 -1.45821 65280
-0.13882799 -0.016999399 -1.45821 65280
-0.135995 -0.016999399 -1.45821 65280
-0.13316201 -0.016999399 -1.45821 65280
-0.130328 -0.016999399 -1.45821 65280
-0.12749501 -0.016999399 -1.45821 65280
-0.124662 -0.016999399 -1.45821 65280
-0.121829 -0.016999399 -1.45821 65280
-0.118996 -0.016999399 -1.45821 65280
-0.116162 -0.016999399 -1.45821 65280
-0.113329 -0.016999399 -1.45821 65280
-0.110496 -0.016999399 -1.45821 65280
-0.107663 -0.016999399 -1.45821 65280
-0.104829 -0.016999399 -1.45821 65280
-0.101996 -0.016999399 -1.45821 65280
-0.099162899 -0.016999399 -1.45821 65280
-0.096329696 -0.016999399 -1.45821 65280
-0.093496501 -0.016999399 -1.45821 65280
-0.090663202 -0.016999399 -1.45821 65280
-0.08783 -0.016999399 -1.45821 65280
-0.084996797 -0.016999399 -1.45821 65280
-0.082163602 -0.016999399 -1.45821 65280
-0.079330303 -0.016999399 -1.45821 65280
-0.0764971 -0.016999399 -1.45821 65280
-0.073663898 -0.016999399 -1.45821 65280
-0.070830703 -0.016999399 -1.45821 65280
-0.067997403 -0.016999399 -1.45821 65280
-0.065164201 -0.016999399 -1.45821 65280
-0.062330998 -0.016999399 -1.45821 65280
-0.0594978 -0.016999399 -1.45821 65280
-0.0566645 -0.016999399 -1.45821 65280
-0.053831302 -0.016999399 -1.45821 65280
-0.050998099 -0.016999399 -1.45821 65280
