# .PCD v0.7 - Point Cloud Data file format
VERSION 0.7
FIELDS x y z rgb
SIZE 4 4 4 4
TYPE F F F U
COUNT 1 1 1 1
WIDTH 1252
HEIGHT 1
VIEWPOINT 0 0 0 1 0 0 0
POINTS 1252
DATA ascii
0.35298601 -0.0573962 -1.4770401 65280
0.355856 -0.0573962 -1.4770401 65280
0.35872599 -0.0573962 -1.4770401 65280
0.36159599 -0.0573962 -1.4770401 65280
0.36446601 -0.0573962 -1.4770401 65280
0.36733499 -0.0573962 -1.4770401 65280
0.37020499 -0.0573962 -1.4770401 65280
0.37307501 -0.0573962 -1.4770401 65280
0.375945 -0.0573962 -1.4770401 65280
0.378815 -0.0573962 -1.4770401 65280
0.38168401 -0.0573962 -1.4770401 65280
0.384554 -0.0573962 -1.4770401 65280
0.38742399 -0.0573962 -1.4770401 65280
0.39029399 -0.0573962 -1.4770401 65280
0.39316401 -0.0573962 -1.4770401 65280
0.39603299 -0.0573962 -1.4770401 65280
-0.40140301 -0.054476101 -1.47568 65280
-0.398536 -0.054476101 -1.47568 65280
-0.39566901 -0.054476101 -1.47568 65280
-0.39280099 -0.054476101 -1.47568 65280
-0.389934 -0.054476101 -1.47568 65280
-0.38706699 -0.054476101 -1.47568 65280
-0.38420001 -0.054476101 -1.47568 65280
-0.38133299 -0.054476101 -1.47568 65280
-0.37846601 -0.054476101 -1.47568 65280
-0.37559801 -0.054476101 -1.47568 65280
-0.372731 -0.054476101 -1.47568 65280
-0.36986399 -0.054476101 -1.47568 65280
-0.366997 -0.054476101 -1.47568 65280
-0.36412999 -0.054476101 -1.47568 65280
-0.36126301 -0.054476101 -1.47568 65280
-0.35839501 -0.054476101 -1.47568 65280
-0.355528 -0.054476101 -1.47568 65280
-0.35266101 -0.054476101 -1.47568 65280
-0.349794 -0.054476101 -1.47568 65280
-0.34692699 -0.054476101 -1.47568 65280
-0.34406 -0.054476101 -1.47568 65280
-0.34119201 -0.054476101 -1.47568 65280
-0.33832499 -0.054476101 -1.47568 65280
-0.33545801 -0.054476101 -1.47568 65280
-0.332591 -0.054476101 -1.47568 65280
-0.32972401 -0.054476101 -1.47568 65280
-0.326857 -0.054476101 -1.47568 65280
-0.32398999 -0.054476101 -1.47568 65280
-0.32112199 -0.054476101 -1.47568 65280
-0.31825501 -0.054476101 -1.47568 65280
-0.31538799 -0.054476101 -1.47568 65280
-0.31252101 -0.054476101 -1.47568 65280
-0.309654 -0.054476101 -1.47568 65280
-0.30678701 -0.054476101 -1.47568 65280
-0.30391899 -0.054476101 -1.47568 65280
-0.301052 -0.054476101 -1.47568 65280
-0.29818499 -0.054476101 -1.47568 65280
-0.29531801 -0.054476101 -1.47568 65280
-0.29245099 -0.054476101 -1.47568 65280
-0.28958401 -0.054476101 -1.47568 65280
-0.28671601 -0.054476101 -1.47568 65280
-0.283849 -0.054476101 -1.47568 65280
-0.28098199 -0.054476101 -1.47568 65280
-0.278115 -0.054476101 -1.47568 65280
-0.27524799 -0.054476101 -1.47568 65280
-0.27238101 -0.054476101 -1.47568 65280
-0.26951301 -0.054476101 -1.47568 65280
-0.266646 -0.054476101 -1.47568 65280
-0.26377901 -0.054476101 -1.47568 65280
-0.260912 -0.054476101 -1.47568 65280
-0.25804499 -0.054476101 -1.47568 65280
-0.255178 -0.054476101 -1.47568 65280
-0.25231001 -0.054476101 -1.47568 65280
-0.24944299 -0.054476101 -1.47568 65280
-0.246576 -0.054476101 -1.47568 65280
-0.243709 -0.054476101 -1.47568 65280
-0.240842 -0.054476101 -1.47568 65280
-0.237975 -0.054476101 -1.47568 65280
-0.235107 -0.054476101 -1.47568 65280
-0.23224001 -0.054476101 -1.47568 65280
-0.22937299 -0.054476101 -1.47568 65280
-0.22650599 -0.054476101 -1.47568 65280
-0.223639 -0.054476101 -1.47568 65280
-0.220772 -0.054476101 -1.47568 65280
-0.217904 -0.054476101 -1.47568 65280
-0.215037 -0.054476101 -1.47568 65280
-0.21217 -0.054476101 -1.47568 65280
-0.20930301 -0.054476101 -1.47568 65280
-0.20643599 -0.054476101 -1.47568 65280
-0.20356899 -0.054476101 -1.47568 65280
-0.200701 -0.054476101 -1.47568 65280
-0.197834 -0.054476101 -1.47568 65280
-0.194967 -0.054476101 -1.47568 65280
-0.1921 -0.054476101 -1.47568 65280
-0.18923301 -0.054476101 -1.47568 65280
-0.18636601 -0.054476101 -1.47568 65280
-0.183498 -0.054476101 -1.47568 65280
-0.180631 -0.054476101 -1.47568 65280
-0.177764 -0.054476101 -1.47568 65280
-0.174897 -0.054476101 -1.47568 65280
-0.17203 -0.054476101 -1.47568 65280
-0.169163 -0.054476101 -1.47568 65280
-0.16629501 -0.054476101 -1.47568 65280
-0.16342799 -0.054476101 -1.47568 65280
-0.160561 -0.054476101 -1.47568 65280
-0.157694 -0.054476101 -1.47568 65280
-0.154827 -0.054476101 -1.47568 65280
-0.15196 -0.054476101 -1.47568 65280
-0.149093 -0.054476101 -1.47568 65280
-0.14622501 -0.054476101 -1.47568 65280
-0.14335801 -0.054476101 -1.47568 65280
-0.14049099 -0.054476101 -1.47568 65280
-0.137624 -0.054476101 -1.47568 65280
-0.134757 -0.054476101 -1.47568 65280
-0.13189 -0.054476101 -1.47568 65280
-0.129022 -0.054476101 -1.47568 65280
-0.126155 -0.054476101 -1.47568 65280
-0.123288 -0.054476101 -1.47568 65280
-0.120421 -0.054476101 -1.47568 65280
-0.117554 -0.054476101 -1.47568 65280
-0.114687 -0.054476101 -1.47568 65280
-0.111819 -0.054476101 -1.47568 65280
-0.108952 -0.054476101 -1.47568 65280
-0.106085 -0.054476101 -1.47568 65280
-0.103218 -0.054476101 -1.47568 65280
-0.100351 -0.054476101 -1.47568 65280
-0.097483598 -0.054476101 -1.47568 65280
-0.094616398 -0.054476101 -1.47568 65280
-0.091749199 -0.054476101 -1.47568 65280
-0.088882104 -0.054476101 -1.47568 65280
-0.086014897 -0.054476101 -1.47568 65280
-0.083147697 -0.054476101 -1.47568 65280
-0.080280602 -0.054476101 -1.47568 65280
-0.077413402 -0.054476101 -1.47568 65280
-0.0745463 -0.054476101 -1.47568 65280
-0.0716791 -0.054476101 -1.47568 65280
-0.068811901 -0.054476101 -1.47568 65280
-0.065944798 -0.054476101 -1.47568 65280
-0.063077599 -0.054476101 -1.47568 65280
-0.060210399 -0.054476101 -1.47568 65280
-0.0573433 -0.054476101 -1.47568 65280
-0.054476101 -0.054476101 -1.47568 65280
-0.051608901 -0.054476101 -1.47568 65280
-0.048741799 -0.054476101 -1.47568 65280
-0.045874599 -0.054476101 -1.47568 65280
-0.0430075 -0.054476101 -1.47568 65280
-0.040140301 -0.054476101 -1.47568 65280
-0.034689099 -0.050699499 -1.3733701 65280
-0.031881899 -0.050479699 -1.36742 65280
-0.0291584 -0.050364502 -1.3643 65280
-0.0264556 -0.050265599 -1.3616199 65280
-0.023758201 -0.050156198 -1.35866 65280
-0.021092501 -0.050094601 -1.35699 65280
-0.0184485 -0.0500746 -1.35645 65280
-0.0158136 -0.050076298 -1.35649 65280
-0.0131841 -0.0500996 -1.35712 65280
-0.0105553 -0.050137799 -1.35816 65280
-0.0079229102 -0.050178401 -1.35926 65280
-0.00528683 -0.0502249 -1.36052 65280
-0.0026466299 -0.050285898 -1.36217 65280
0 -0.050359499 -1.3641599 65280
0.0026562901 -0.0504696 -1.3671499 65280
0.00533295 -0.050663002 -1.37238 65280
0.0082714995 -0.052386198 -1.41906 65280
0.0110271 -0.052378502 -1.41886 65280
0.0137825 -0.052373402 -1.41872 65280
0.0165419 -0.0523827 -1.41897 65280
0.0193075 -0.052406099 -1.4196 65280
0.0220834 -0.052448001 -1.42074 65280
0.0248971 -0.052560501 -1.42378 65280
0.027765401 -0.052754302 -1.42904 65280
0.031538799 -0.054476101 -1.47568 65280
0.034405999 -0.054476101 -1.47568 65280
0.037273102 -0.054476101 -1.47568 65280
0.040140301 -0.054476101 -1.47568 65280
0.0430075 -0.054476101 -1.47568 65280
0.045874599 -0.054476101 -1.47568 65280
0.048741799 -0.054476101 -1.47568 65280
0.051608901 -0.054476101 -1.47568 65280
0.054476101 -0.054476101 -1.47568 65280
0.0573433 -0.054476101 -1.47568 65280
0.060210399 -0.054476101 -1.47568 65280
0.063077599 -0.054476101 -1.47568 65280
0.065944798 -0.054476101 -1.47568 65280
0.068811901 -0.054476101 -1.47568 65280
0.0716791 -0.054476101 -1.47568 65280
0.0745463 -0.054476101 -1.47568 65280
0.077413402 -0.054476101 -1.47568 65280
0.080280602 -0.054476101 -1.47568 65280
0.083147697 -0.054476101 -1.47568 65280
0.086014897 -0.054476101 -1.47568 65280
0.088882104 -0.054476101 -1.47568 65280
0.091749199 -0.054476101 -1.47568 65280
0.094616398 -0.054476101 -1.47568 65280
0.097483598 -0.054476101 -1.47568 65280
0.100351 -0.054476101 -1.47568 65280
0.103218 -0.054476101 -1.47568 65280
0.106085 -0.054476101 -1.47568 65280
0.108952 -0.054476101 -1.47568 65280
0.111819 -0.054476101 -1.47568 65280
0.114687 -0.054476101 -1.47568 65280
0.117554 -0.054476101 -1.47568 65280
0.120421 -0.054476101 -1.47568 65280
0.123288 -0.054476101 -1.47568 65280
0.126155 -0.054476101 -1.47568 65280
0.129022 -0.054476101 -1.47568 65280
0.13189 -0.054476101 -1.47568 65280
0.134757 -0.054476101 -1.47568 65280
0.137624 -0.054476101 -1.47568 65280
0.14049099 -0.054476101 -1.47568 65280
0.14335801 -0.054476101 -1.47568 65280
0.14622501 -0.054476101 -1.47568 65280
0.149093 -0.054476101 -1.47568 65280
0.15196 -0.054476101 -1.47568 65280
0.154827 -0.054476101 -1.47568 65280
0.157694 -0.054476101 -1.47568 65280
0.160561 -0.054476101 -1.47568 65280
0.16342799 -0.054476101 -1.47568 65280
0.16629501 -0.054476101 -1.47568 65280
0.169163 -0.054476101 -1.47568 65280
0.17203 -0.054476101 -1.47568 65280
0.174897 -0.054476101 -1.47568 65280
0.177764 -0.054476101 -1.47568 65280
0.180631 -0.054476101 -1.47568 65280
0.183498 -0.054476101 -1.47568 65280
0.18636601 -0.054476101 -1.47568 65280
0.18923301 -0.054476101 -1.47568 65280
0.1921 -0.054476101 -1.47568 65280
0.194967 -0.054476101 -1.47568 65280
0.197834 -0.054476101 -1.47568 65280
0.200701 -0.054476101 -1.47568 65280
0.20356899 -0.054476101 -1.47568 65280
0.20643599 -0.054476101 -1.47568 65280
0.20930301 -0.054476101 -1.47568 65280
0.21217 -0.054476101 -1.47568 65280
0.215037 -0.054476101 -1.47568 65280
0.217904 -0.054476101 -1.47568 65280
0.220772 -0.054476101 -1.47568 65280
0.223639 -0.054476101 -1.47568 65280
0.22650599 -0.054476101 -1.47568 65280
0.22937299 -0.054476101 -1.47568 65280
0.23224001 -0.054476101 -1.47568 65280
0.235107 -0.054476101 -1.47568 65280
0.237975 -0.054476101 -1.47568 65280
0.240842 -0.054476101 -1.47568 65280
0.243709 -0.054476101 -1.47568 65280
0.246576 -0.054476101 -1.47568 65280
0.24944299 -0.054476101 -1.47568 65280
0.25231001 -0.054476101 -1.47568 65280
0.255178 -0.054476101 -1.47568 65280
0.25804499 -0.054476101 -1.47568 65280
0.260912 -0.054476101 -1.47568 65280
0.26377901 -0.054476101 -1.47568 65280
0.266646 -0.054476101 -1.47568 65280
0.26951301 -0.054476101 -1.47568 65280
0.27238101 -0.054476101 -1.47568 65280
0.27524799 -0.054476101 -1.47568 65280
0.278115 -0.054476101 -1.47568 65280
0.28098199 -0.054476101 -1.47568 65280
0.283849 -0.054476101 -1.47568 65280
0.28671601 -0.054476101 -1.47568 65280
0.28958401 -0.054476101 -1.47568 65280
0.29245099 -0.054476101 -1.47568 65280
0.29531801 -0.054476101 -1.47568 65280
0.29818499 -0.054476101 -1.47568 65280
0.301052 -0.054476101 -1.47568 65280
0.30391899 -0.054476101 -1.47568 65280
0.30678701 -0.054476101 -1.47568 65280
0.309654 -0.054476101 -1.47568 65280
0.31252101 -0.054476101 -1.47568 65280
0.31538799 -0.054476101 -1.47568 65280
0.31825501 -0.054476101 -1.47568 65280
0.32112199 -0.054476101 -1.47568 65280
0.32398999 -0.054476101 -1.47568 65280
0.326857 -0.054476101 -1.47568 65280
0.32972401 -0.054476101 -1.47568 65280
0.332591 -0.054476101 -1.47568 65280
0.33545801 -0.054476101 -1.47568 65280
0.33832499 -0.054476101 -1.47568 65280
0.34119201 -0.054476101 -1.47568 65280
0.34406 -0.054476101 -1.47568 65280
0.34692699 -0.054476101 -1.47568 65280
0.349794 -0.054476101 -1.47568 65280
0.35266101 -0.054476101 -1.47568 65280
0.355528 -0.054476101 -1.47568 65280
0.35839501 -0.054476101 -1.47568 65280
0.36126301 -0.054476101 -1.47568 65280
0.36412999 -0.054476101 -1.47568 65280
0.366997 -0.054476101 -1.47568 65280
0.36986399 -0.054476101 -1.47568 65280
0.372731 -0.054476101 -1.47568 65280
0.37559801 -0.054476101 -1.47568 65280
0.37846601 -0.054476101 -1.47568 65280
0.38133299 -0.054476101 -1.47568 65280
0.38420001 -0.054476101 -1.47568 65280
0.38706699 -0.054476101 -1.47568 65280
0.389934 -0.054476101 -1.47568 65280
0.39280099 -0.054476101 -1.47568 65280
0.39566901 -0.054476101 -1.47568 65280
0.398536 -0.054476101 -1.47568 65280
-0.40103301 -0.0515614 -1.4743201 65280
-0.39816901 -0.0515614 -1.4743201 65280
-0.39530399 -0.0515614 -1.4743201 65280
-0.39243999 -0.0515614 -1.4743201 65280
-0.389575 -0.0515614 -1.4743201 65280
-0.386711 -0.0515614 -1.4743201 65280
-0.38384601 -0.0515614 -1.4743201 65280
-0.38098201 -0.0515614 -1.4743201 65280
-0.378117 -0.0515614 -1.4743201 65280
-0.37525299 -0.0515614 -1.4743201 65280
-0.37238801 -0.0515614 -1.4743201 65280
-0.369524 -0.0515614 -1.4743201 65280
-0.36665899 -0.0515614 -1.4743201 65280
-0.36379501 -0.0515614 -1.4743201 65280
-0.36093 -0.0515614 -1.4743201 65280
-0.35806599 -0.0515614 -1.4743201 65280
-0.35520101 -0.0515614 -1.4743201 65280
-0.352337 -0.0515614 -1.4743201 65280
-0.34947199 -0.0515614 -1.4743201 65280
-0.34660801 -0.0515614 -1.4743201 65280
-0.343743 -0.0515614 -1.4743201 65280
-0.34087801 -0.0515614 -1.4743201 65280
-0.33801401 -0.0515614 -1.4743201 65280
-0.33514899 -0.0515614 -1.4743201 65280
-0.33228499 -0.0515614 -1.4743201 65280
-0.32942 -0.0515614 -1.4743201 65280
-0.326556 -0.0515614 -1.4743201 65280
-0.32369101 -0.0515614 -1.4743201 65280
-0.32082701 -0.0515614 -1.4743201 65280
-0.31796199 -0.0515614 -1.4743201 65280
-0.31509799 -0.0515614 -1.4743201 65280
-0.312233 -0.0515614 -1.4743201 65280
-0.309369 -0.0515614 -1.4743201 65280
-0.30650401 -0.0515614 -1.4743201 65280
-0.30364001 -0.0515614 -1.4743201 65280
-0.30077499 -0.0515614 -1.4743201 65280
-0.29791099 -0.0515614 -1.4743201 65280
-0.295046 -0.0515614 -1.4743201 65280
-0.292182 -0.0515614 -1.4743201 65280
-0.28931701 -0.0515614 -1.4743201 65280
-0.286452 -0.0515614 -1.4743201 65280
-0.28358799 -0.0515614 -1.4743201 65280
-0.28072301 -0.0515614 -1.4743201 65280
-0.277859 -0.0515614 -1.4743201 65280
-0.27499399 -0.0515614 -1.4743201 65280
-0.27213001 -0.0515614 -1.4743201 65280
-0.269265 -0.0515614 -1.4743201 65280
-0.26640099 -0.0515614 -1.4743201 65280
-0.26353601 -0.0515614 -1.4743201 65280
-0.260672 -0.0515614 -1.4743201 65280
-0.25780699 -0.0515614 -1.4743201 65280
-0.25494301 -0.0515614 -1.4743201 65280
-0.252078 -0.0515614 -1.4743201 65280
-0.24921399 -0.0515614 -1.4743201 65280
-0.24634901 -0.0515614 -1.4743201 65280
-0.243485 -0.0515614 -1.4743201 65280
-0.24062 -0.0515614 -1.4743201 65280
-0.237756 -0.0515614 -1.4743201 65280
-0.234891 -0.0515614 -1.4743201 65280
-0.23202699 -0.0515614 -1.4743201 65280
-0.22916199 -0.0515614 -1.4743201 65280
-0.22629701 -0.0515614 -1.4743201 65280
-0.223433 -0.0515614 -1.4743201 65280
-0.220568 -0.0515614 -1.4743201 65280
-0.217704 -0.0515614 -1.4743201 65280
-0.214839 -0.0515614 -1.4743201 65280
-0.21197499 -0.0515614 -1.4743201 65280
-0.20911001 -0.0515614 -1.4743201 65280
-0.206246 -0.0515614 -1.4743201 65280
-0.203381 -0.0515614 -1.4743201 65280
-0.200517 -0.0515614 -1.4743201 65280
-0.197652 -0.0515614 -1.4743201 65280
-0.19478799 -0.0515614 -1.4743201 65280
-0.19192301 -0.0515614 -1.4743201 65280
-0.189059 -0.0515614 -1.4743201 65280
-0.186194 -0.0515614 -1.4743201 65280
-0.18333 -0.0515614 -1.4743201 65280
-0.180465 -0.0515614 -1.4743201 65280
-0.17760099 -0.0515614 -1.4743201 65280
-0.17473599 -0.0515614 -1.4743201 65280
-0.17187101 -0.0515614 -1.4743201 65280
-0.169007 -0.0515614 -1.4743201 65280
-0.166142 -0.0515614 -1.4743201 65280
-0.163278 -0.0515614 -1.4743201 65280
-0.160413 -0.0515614 -1.4743201 65280
-0.15754899 -0.0515614 -1.4743201 65280
-0.15468401 -0.0515614 -1.4743201 65280
-0.15182 -0.0515614 -1.4743201 65280
-0.148955 -0.0515614 -1.4743201 65280
-0.146091 -0.0515614 -1.4743201 65280
-0.143226 -0.0515614 -1.4743201 65280
-0.14036199 -0.0515614 -1.4743201 65280
-0.13749699 -0.0515614 -1.4743201 65280
-0.134633 -0.0515614 -1.4743201 65280
-0.131768 -0.0515614 -1.4743201 65280
-0.128904 -0.0515614 -1.4743201 65280
-0.126039 -0.0515614 -1.4743201 65280
-0.123175 -0.0515614 -1.4743201 65280
-0.12031 -0.0515614 -1.4743201 65280
-0.117446 -0.0515614 -1.4743201 65280
-0.114581 -0.0515614 -1.4743201 65280
-0.111716 -0.0515614 -1.4743201 65280
-0.108852 -0.0515614 -1.4743201 65280
-0.105987 -0.0515614 -1.4743201 65280
-0.103123 -0.0515614 -1.4743201 65280
-0.100258 -0.0515614 -1.4743201 65280
-0.097393803 -0.0515614 -1.4743201 65280
-0.094529301 -0.0515614 -1.4743201 65280
-0.091664799 -0.0515614 -1.4743201 65280
-0.088800304 -0.0515614 -1.4743201 65280
-0.085935697 -0.0515614 -1.4743201 65280
-0.083071202 -0.0515614 -1.4743201 65280
-0.0802067 -0.0515614 -1.4743201 65280
-0.077342197 -0.0515614 -1.4743201 65280
-0.074477598 -0.0515614 -1.4743201 65280
-0.071613103 -0.0515614 -1.4743201 65280
-0.068748601 -0.0515614 -1.4743201 65280
-0.065884098 -0.0515614 -1.4743201 65280
-0.063019499 -0.0515614 -1.4743201 65280
-0.060155001 -0.0515614 -1.4743201 65280
-0.057290498 -0.0515614 -1.4743201 65280
-0.054426 -0.0515614 -1.4743201 65280
-0.0515614 -0.0515614 -1.4743201 65280
-0.048696902 -0.0515614 -1.4743201 65280
-0.045832399 -0.0515614 -1.4743201 65280
-0.042967901 -0.0515614 -1.4743201 65280
-0.040103301 -0.0515614 -1.4743201 65280
-0.0345883 -0.047891401 -1.36938 65280
-0.0318317 -0.0477475 -1.36526 65280
-0.0291206 -0.047651902 -1.36253 65280
-0.026407801 -0.047534 -1.3591599 65280
-0.023711801 -0.047423601 -1.3559999 65280
-0.021062899 -0.0473915 -1.35509 65280
-0.0184268 -0.0473832 -1.3548501 65280
-0.015795499 -0.0473864 -1.3549401 65280
-0.0131698 -0.0474112 -1.3556499 65280
-0.0105454 -0.047454301 -1.3568799 65280
-0.0079161199 -0.047496699 -1.35809 65280
-0.0052822898 -0.047540601 -1.35935 65280
-0.00264412 -0.047594201 -1.36088 65280
0 -0.0476657 -1.3629301 65280
0.00265344 -0.047761898 -1.36568 65280
0.0053245299 -0.047920801 -1.3702199 65280
0.0082683004 -0.049609799 -1.41851 65280
0.0110249 -0.049612101 -1.4185801 65280
0.0137834 -0.0496202 -1.41881 65280
0.0165447 -0.049634099 -1.41921 65280
0.019312499 -0.049660701 -1.41997 65280
0.0220988 -0.049722198 -1.42173 65280
0.024911201 -0.049822502 -1.4246 65280
0.027772101 -0.0499897 -1.4293801 65280
0.031509802 -0.0515614 -1.4743201 65280
0.0343743 -0.0515614 -1.4743201 65280
0.037238799 -0.0515614 -1.4743201 65280
0.040103301 -0.0515614 -1.4743201 65280
0.042967901 -0.0515614 -1.4743201 65280
0.045832399 -0.0515614 -1.4743201 65280
0.048696902 -0.0515614 -1.4743201 65280
0.0515614 -0.0515614 -1.4743201 65280
0.054426 -0.0515614 -1.4743201 65280
0.057290498 -0.0515614 -1.4743201 65280
0.060155001 -0.0515614 -1.4743201 65280
0.063019499 -0.0515614 -1.4743201 65280
0.065884098 -0.0515614 -1.4743201 65280
0.068748601 -0.0515614 -1.4743201 65280
0.071613103 -0.0515614 -1.4743201 65280
0.074477598 -0.0515614 -1.4743201 65280
0.077342197 -0.0515614 -1.4743201 65280
0.0802067 -0.0515614 -1.4743201 65280
0.083071202 -0.0515614 -1.4743201 65280
0.085935697 -0.0515614 -1.4743201 65280
0.088800304 -0.0515614 -1.4743201 65280
0.091664799 -0.0515614 -1.4743201 65280
0.094529301 -0.0515614 -1.4743201 65280
0.097393803 -0.0515614 -1.4743201 65280
0.100258 -0.0515614 -1.4743201 65280
0.103123 -0.0515614 -1.4743201 65280
0.105987 -0.0515614 -1.4743201 65280
0.108852 -0.0515614 -1.4743201 65280
0.111716 -0.0515614 -1.4743201 65280
0.114581 -0.0515614 -1.4743201 65280
0.117446 -0.0515614 -1.4743201 65280
0.12031 -0.0515614 -1.4743201 65280
0.123175 -0.0515614 -1.4743201 65280
0.126039 -0.0515614 -1.4743201 65280
0.128904 -0.0515614 -1.4743201 65280
0.131768 -0.0515614 -1.4743201 65280
0.134633 -0.0515614 -1.4743201 65280
0.13749699 -0.0515614 -1.4743201 65280
0.14036199 -0.0515614 -1.4743201 65280
0.143226 -0.0515614 -1.4743201 65280
0.146091 -0.0515614 -1.4743201 65280
0.148955 -0.0515614 -1.4743201 65280
0.15182 -0.0515614 -1.4743201 65280
0.15468401 -0.0515614 -1.4743201 65280
0.15754899 -0.0515614 -1.4743201 65280
0.160413 -0.0515614 -1.4743201 65280
0.163278 -0.0515614 -1.4743201 65280
0.166142 -0.0515614 -1.4743201 65280
0.169007 -0.0515614 -1.4743201 65280
0.17187101 -0.0515614 -1.4743201 65280
0.17473599 -0.0515614 -1.4743201 65280
0.17760099 -0.0515614 -1.4743201 65280
0.180465 -0.0515614 -1.4743201 65280
0.18333 -0.0515614 -1.4743201 65280
0.186194 -0.0515614 -1.4743201 65280
0.189059 -0.0515614 -1.4743201 65280
0.19192301 -0.0515614 -1.4743201 65280
0.19478799 -0.0515614 -1.4743201 65280
0.197652 -0.0515614 -1.4743201 65280
0.200517 -0.0515614 -1.4743201 65280
0.203381 -0.0515614 -1.4743201 65280
0.206246 -0.0515614 -1.4743201 65280
0.20911001 -0.0515614 -1.4743201 65280
0.21197499 -0.0515614 -1.4743201 65280
0.214839 -0.0515614 -1.4743201 65280
0.217704 -0.0515614 -1.4743201 65280
0.220568 -0.0515614 -1.4743201 65280
0.223433 -0.0515614 -1.4743201 65280
0.22629701 -0.0515614 -1.4743201 65280
0.22916199 -0.0515614 -1.4743201 65280
0.23202699 -0.0515614 -1.4743201 65280
0.234891 -0.0515614 -1.4743201 65280
0.237756 -0.0515614 -1.4743201 65280
0.24062 -0.0515614 -1.4743201 65280
0.243485 -0.0515614 -1.4743201 65280
0.24634901 -0.0515614 -1.4743201 65280
0.24921399 -0.0515614 -1.4743201 65280
0.252078 -0.0515614 -1.4743201 65280
0.25494301 -0.0515614 -1.4743201 65280
0.25780699 -0.0515614 -1.4743201 65280
0.260672 -0.0515614 -1.4743201 65280
0.26353601 -0.0515614 -1.4743201 65280
0.26640099 -0.0515614 -1.4743201 65280
0.269265 -0.0515614 -1.4743201 65280
0.27213001 -0.0515614 -1.4743201 65280
0.27499399 -0.0515614 -1.4743201 65280
0.277859 -0.0515614 -1.4743201 65280
0.28072301 -0.0515614 -1.4743201 65280
0.28358799 -0.0515614 -1.4743201 65280
0.286452 -0.0515614 -1.4743201 65280
0.28931701 -0.0515614 -1.4743201 65280
0.292182 -0.0515614 -1.4743201 65280
0.295046 -0.0515614 -1.4743201 65280
0.29791099 -0.0515614 -1.4743201 65280
0.30077499 -0.0515614 -1.4743201 65280
0.30364001 -0.0515614 -1.4743201 65280
0.30650401 -0.0515614 -1.4743201 65280
0.309369 -0.0515614 -1.4743201 65280
0.312233 -0.0515614 -1.4743201 65280
0.31509799 -0.0515614 -1.4743201 65280
0.31796199 -0.0515614 -1.4743201 65280
0.32082701 -0.0515614 -1.4743201 65280
0.32369101 -0.0515614 -1.4743201 65280
0.326556 -0.0515614 -1.4743201 65280
0.32942 -0.0515614 -1.4743201 65280
0.33228499 -0.0515614 -1.4743201 65280
0.33514899 -0.0515614 -1.4743201 65280
0.33801401 -0.0515614 -1.4743201 65280
0.34087801 -0.0515614 -1.4743201 65280
0.343743 -0.0515614 -1.4743201 65280
0.34660801 -0.0515614 -1.4743201 65280
0.34947199 -0.0515614 -1.4743201 65280
0.352337 -0.0515614 -1.4743201 65280
0.35520101 -0.0515614 -1.4743201 65280
0.35806599 -0.0515614 -1.4743201 65280
0.36093 -0.0515614 -1.4743201 65280
0.36379501 -0.0515614 -1.4743201 65280
0.36665899 -0.0515614 -1.4743201 65280
0.369524 -0.0515614 -1.4743201 65280
0.37238801 -0.0515614 -1.4743201 65280
0.37525299 -0.0515614 -1.4743201 65280
0.378117 -0.0515614 -1.4743201 65280
0.38098201 -0.0515614 -1.4743201 65280
0.38384601 -0.0515614 -1.4743201 65280
0.386711 -0.0515614 -1.4743201 65280
0.389575 -0.0515614 -1.4743201 65280
0.39243999 -0.0515614 -1.4743201 65280
0.39530399 -0.0515614 -1.4743201 65280
0.39816901 -0.0515614 -1.4743201 65280
-0.40066499 -0.048652101 -1.47296 65280
-0.39780301 -0.048652101 -1.47296 65280
-0.394941 -0.048652101 -1.47296 65280
-0.392079 -0.048652101 -1.47296 65280
-0.38921699 -0.048652101 -1.47296 65280
-0.38635501 -0.048652101 -1.47296 65280
-0.38349301 -0.048652101 -1.47296 65280
-0.380631 -0.048652101 -1.47296 65280
-0.37777001 -0.048652101 -1.47296 65280
-0.374908 -0.048652101 -1.47296 65280
-0.37204599 -0.048652101 -1.47296 65280
-0.36918399 -0.048652101 -1.47296 65280
-0.36632201 -0.048652101 -1.47296 65280
-0.36346 -0.048652101 -1.47296 65280
-0.360598 -0.048652101 -1.47296 65280
-0.35773599 -0.048652101 -1.47296 65280
-0.35487401 -0.048652101 -1.47296 65280
-0.35201299 -0.048652101 -1.47296 65280
-0.34915099 -0.048652101 -1.47296 65280
-0.34628901 -0.048652101 -1.47296 65280
-0.343427 -0.048652101 -1.47296 65280
-0.340565 -0.048652101 -1.47296 65280
-0.33770299 -0.048652101 -1.47296 65280
-0.33484101 -0.048652101 -1.47296 65280
-0.33197901 -0.048652101 -1.47296 65280
-0.329117 -0.048652101 -1.47296 65280
-0.32625601 -0.048652101 -1.47296 65280
-0.323394 -0.048652101 -1.47296 65280
-0.32053199 -0.048652101 -1.47296 65280
-0.31766999 -0.048652101 -1.47296 65280
-0.31480801 -0.048652101 -1.47296 65280
-0.311946 -0.048652101 -1.47296 65280
-0.309084 -0.048652101 -1.47296 65280
-0.30622199 -0.048652101 -1.47296 65280
-0.30335999 -0.048652101 -1.47296 65280
-0.30049899 -0.048652101 -1.47296 65280
-0.29763699 -0.048652101 -1.47296 65280
-0.29477501 -0.048652101 -1.47296 65280
-0.291913 -0.048652101 -1.47296 65280
-0.289051 -0.048652101 -1.47296 65280
-0.28618899 -0.048652101 -1.47296 65280
-0.28332701 -0.048652101 -1.47296 65280
-0.28046501 -0.048652101 -1.47296 65280
-0.277603 -0.048652101 -1.47296 65280
-0.27474201 -0.048652101 -1.47296 65280
-0.27188 -0.048652101 -1.47296 65280
-0.26901799 -0.048652101 -1.47296 65280
-0.26615599 -0.048652101 -1.47296 65280
-0.26329401 -0.048652101 -1.47296 65280
-0.260432 -0.048652101 -1.47296 65280
-0.25757 -0.048652101 -1.47296 65280
-0.25470799 -0.048652101 -1.47296 65280
-0.25184599 -0.048652101 -1.47296 65280
-0.24898399 -0.048652101 -1.47296 65280
-0.246123 -0.048652101 -1.47296 65280
-0.24326099 -0.048652101 -1.47296 65280
-0.240399 -0.048652101 -1.47296 65280
-0.237537 -0.048652101 -1.47296 65280
-0.23467501 -0.048652101 -1.47296 65280
-0.231813 -0.048652101 -1.47296 65280
-0.22895101 -0.048652101 -1.47296 65280
-0.226089 -0.048652101 -1.47296 65280
-0.22322699 -0.048652101 -1.47296 65280
-0.220366 -0.048652101 -1.47296 65280
-0.21750399 -0.048652101 -1.47296 65280
-0.214642 -0.048652101 -1.47296 65280
-0.21178 -0.048652101 -1.47296 65280
-0.20891801 -0.048652101 -1.47296 65280
-0.206056 -0.048652101 -1.47296 65280
-0.20319401 -0.048652101 -1.47296 65280
-0.200332 -0.048652101 -1.47296 65280
-0.19746999 -0.048652101 -1.47296 65280
-0.194609 -0.048652101 -1.47296 65280
-0.19174699 -0.048652101 -1.47296 65280
-0.188885 -0.048652101 -1.47296 65280
-0.186023 -0.048652101 -1.47296 65280
-0.18316101 -0.048652101 -1.47296 65280
-0.180299 -0.048652101 -1.47296 65280
-0.17743701 -0.048652101 -1.47296 65280
-0.174575 -0.048652101 -1.47296 65280
-0.17171299 -0.048652101 -1.47296 65280
-0.168852 -0.048652101 -1.47296 65280
-0.16599 -0.048652101 -1.47296 65280
-0.163128 -0.048652101 -1.47296 65280
-0.160266 -0.048652101 -1.47296 65280
-0.15740401 -0.048652101 -1.47296 65280
-0.154542 -0.048652101 -1.47296 65280
-0.15167999 -0.048652101 -1.47296 65280
-0.148818 -0.048652101 -1.47296 65280
-0.14595599 -0.048652101 -1.47296 65280
-0.143095 -0.048652101 -1.47296 65280
-0.140233 -0.048652101 -1.47296 65280
-0.137371 -0.048652101 -1.47296 65280
-0.134509 -0.048652101 -1.47296 65280
-0.13164701 -0.048652101 -1.47296 65280
-0.128785 -0.048652101 -1.47296 65280
-0.12592299 -0.048652101 -1.47296 65280
-0.123061 -0.048652101 -1.47296 65280
-0.120199 -0.048652101 -1.47296 65280
-0.117338 -0.048652101 -1.47296 65280
-0.114476 -0.048652101 -1.47296 65280
-0.111614 -0.048652101 -1.47296 65280
-0.108752 -0.048652101 -1.47296 65280
-0.10589 -0.048652101 -1.47296 65280
-0.103028 -0.048652101 -1.47296 65280
-0.100166 -0.048652101 -1.47296 65280
-0.097304299 -0.048652101 -1.47296 65280
-0.094442397 -0.048652101 -1.47296 65280
-0.091580503 -0.048652101 -1.47296 65280
-0.088718601 -0.048652101 -1.47296 65280
-0.085856698 -0.048652101 -1.47296 65280
-0.082994796 -0.048652101 -1.47296 65280
-0.080132902 -0.048652101 -1.47296 65280
-0.077271 -0.048652101 -1.47296 65280
-0.074409202 -0.048652101 -1.47296 65280
-0.0715473 -0.048652101 -1.47296 65280
-0.068685398 -0.048652101 -1.47296 65280
-0.065823503 -0.048652101 -1.47296 65280
-0.062961601 -0.048652101 -1.47296 65280
-0.060099699 -0.048652101 -1.47296 65280
-0.0572378 -0.048652101 -1.47296 65280
-0.054375902 -0.048652101 -1.47296 65280
-0.051514 -0.048652101 -1.47296 65280
-0.048652101 -0.048652101 -1.47296 65280
-0.0457903 -0.048652101 -1.47296 65280
-0.042928401 -0.048652101 -1.47296 65280
-0.0373892 -0.0454011 -1.37454 65280
-0.0345405 -0.0451684 -1.3674901 65280
-0.031794999 -0.045042999 -1.36369 65280
-0.02909 -0.044957198 -1.3611 65280
-0.026364701 -0.0448201 -1.35695 65280
-0.023688501 -0.044744998 -1.35467 65280
-0.021046801 -0.044724301 -1.35405 65280
-0.018412201 -0.0447153 -1.35377 65280
-0.0157835 -0.044719901 -1.35391 65280
-0.0131612 -0.044748198 -1.3547699 65280
-0.0105392 -0.0447914 -1.3560801 65280
-0.0079116002 -0.044832401 -1.35732 65280
-0.0052792099 -0.044873301 -1.35856 65280
-0.0026424499 -0.044921599 -1.36002 65280
0 -0.044987299 -1.36201 65280
0.0026518099 -0.0450808 -1.36484 65280
0.0053207101 -0.045226101 -1.36924 65280
0.0082652904 -0.0468366 -1.418 65280
0.0110231 -0.0468482 -1.41835 65280
0.0137826 -0.0468609 -1.41873 65280
0.016547499 -0.0468846 -1.41945 65280
0.01932 -0.046920002 -1.4205199 65280
0.0221067 -0.0469766 -1.42224 65280
0.0249217 -0.047074299 -1.42519 65280
0.0277812 -0.047228102 -1.42985 65280
0.0307432 -0.0475122 -1.43845 65280
0.034342699 -0.048652101 -1.47296 65280
0.037204601 -0.048652101 -1.47296 65280
0.040066499 -0.048652101 -1.47296 65280
0.042928401 -0.048652101 -1.47296 65280
0.0457903 -0.048652101 -1.47296 65280
0.048652101 -0.048652101 -1.47296 65280
0.051514 -0.048652101 -1.47296 65280
0.054375902 -0.048652101 -1.47296 65280
0.0572378 -0.048652101 -1.47296 65280
0.060099699 -0.048652101 -1.47296 65280
0.062961601 -0.048652101 -1.47296 65280
0.065823503 -0.048652101 -1.47296 65280
0.068685398 -0.048652101 -1.47296 65280
0.0715473 -0.048652101 -1.47296 65280
0.074409202 -0.048652101 -1.47296 65280
0.077271 -0.048652101 -1.47296 65280
0.080132902 -0.048652101 -1.47296 65280
0.082994796 -0.048652101 -1.47296 65280
0.085856698 -0.048652101 -1.47296 65280
0.088718601 -0.048652101 -1.47296 65280
0.091580503 -0.048652101 -1.47296 65280
0.094442397 -0.048652101 -1.47296 65280
0.097304299 -0.048652101 -1.47296 65280
0.100166 -0.048652101 -1.47296 65280
0.103028 -0.048652101 -1.47296 65280
0.10589 -0.048652101 -1.47296 65280
0.108752 -0.048652101 -1.47296 65280
0.111614 -0.048652101 -1.47296 65280
0.114476 -0.048652101 -1.47296 65280
0.117338 -0.048652101 -1.47296 65280
0.120199 -0.048652101 -1.47296 65280
0.123061 -0.048652101 -1.47296 65280
0.12592299 -0.048652101 -1.47296 65280
0.128785 -0.048652101 -1.47296 65280
0.13164701 -0.048652101 -1.47296 65280
0.134509 -0.048652101 -1.47296 65280
0.137371 -0.048652101 -1.47296 65280
0.140233 -0.048652101 -1.47296 65280
0.143095 -0.048652101 -1.47296 65280
0.14595599 -0.048652101 -1.47296 65280
0.148818 -0.048652101 -1.47296 65280
0.15167999 -0.048652101 -1.47296 65280
0.154542 -0.048652101 -1.47296 65280
0.15740401 -0.048652101 -1.47296 65280
0.160266 -0.048652101 -1.47296 65280
0.163128 -0.048652101 -1.47296 65280
0.16599 -0.048652101 -1.47296 65280
0.168852 -0.048652101 -1.47296 65280
0.17171299 -0.048652101 -1.47296 65280
0.174575 -0.048652101 -1.47296 65280
0.17743701 -0.048652101 -1.47296 65280
0.180299 -0.048652101 -1.47296 65280
0.18316101 -0.048652101 -1.47296 65280
0.186023 -0.048652101 -1.47296 65280
0.188885 -0.048652101 -1.47296 65280
0.19174699 -0.048652101 -1.47296 65280
0.194609 -0.048652101 -1.47296 65280
0.19746999 -0.048652101 -1.47296 65280
0.200332 -0.048652101 -1.47296 65280
0.20319401 -0.048652101 -1.47296 65280
0.206056 -0.048652101 -1.47296 65280
0.20891801 -0.048652101 -1.47296 65280
0.21178 -0.048652101 -1.47296 65280
0.214642 -0.048652101 -1.47296 65280
0.21750399 -0.048652101 -1.47296 65280
0.220366 -0.048652101 -1.47296 65280
0.22322699 -0.048652101 -1.47296 65280
0.226089 -0.048652101 -1.47296 65280
0.22895101 -0.048652101 -1.47296 65280
0.231813 -0.048652101 -1.47296 65280
0.23467501 -0.048652101 -1.47296 65280
0.237537 -0.048652101 -1.47296 65280
0.240399 -0.048652101 -1.47296 65280
0.24326099 -0.048652101 -1.47296 65280
0.246123 -0.048652101 -1.47296 65280
0.24898399 -0.048652101 -1.47296 65280
0.25184599 -0.048652101 -1.47296 65280
0.25470799 -0.048652101 -1.47296 65280
0.25757 -0.048652101 -1.47296 65280
0.260432 -0.048652101 -1.47296 65280
0.26329401 -0.048652101 -1.47296 65280
0.26615599 -0.048652101 -1.47296 65280
0.26901799 -0.048652101 -1.47296 65280
0.27188 -0.048652101 -1.47296 65280
0.27474201 -0.048652101 -1.47296 65280
0.277603 -0.048652101 -1.47296 65280
0.28046501 -0.048652101 -1.47296 65280
0.28332701 -0.048652101 -1.47296 65280
0.28618899 -0.048652101 -1.47296 65280
0.289051 -0.048652101 -1.47296 65280
0.291913 -0.048652101 -1.47296 65280
0.29477501 -0.048652101 -1.47296 65280
0.29763699 -0.048652101 -1.47296 65280
0.30049899 -0.048652101 -1.47296 65280
0.30335999 -0.048652101 -1.47296 65280
0.30622199 -0.048652101 -1.47296 65280
0.309084 -0.048652101 -1.47296 65280
0.311946 -0.048652101 -1.47296 65280
0.31480801 -0.048652101 -1.47296 65280
0.31766999 -0.048652101 -1.47296 65280
0.32053199 -0.048652101 -1.47296 65280
0.323394 -0.048652101 -1.47296 65280
0.32625601 -0.048652101 -1.47296 65280
0.329117 -0.048652101 -1.47296 65280
0.33197901 -0.048652101 -1.47296 65280
0.33484101 -0.048652101 -1.47296 65280
0.33770299 -0.048652101 -1.47296 65280
0.340565 -0.048652101 -1.47296 65280
0.343427 -0.048652101 -1.47296 65280
0.34628901 -0.048652101 -1.47296 65280
0.34915099 -0.048652101 -1.47296 65280
0.35201299 -0.048652101 -1.47296 65280
0.35487401 -0.048652101 -1.47296 65280
0.35773599 -0.048652101 -1.47296 65280
0.360598 -0.048652101 -1.47296 65280
0.36346 -0.048652101 -1.47296 65280
0.36632201 -0.048652101 -1.47296 65280
0.36918399 -0.048652101 -1.47296 65280
0.37204599 -0.048652101 -1.47296 65280
0.374908 -0.048652101 -1.47296 65280
0.37777001 -0.048652101 -1.47296 65280
0.380631 -0.048652101 -1.47296 65280
0.38349301 -0.048652101 -1.47296 65280
0.38635501 -0.048652101 -1.47296 65280
0.38921699 -0.048652101 -1.47296 65280
0.392079 -0.048652101 -1.47296 65280
0.394941 -0.048652101 -1.47296 65280
0.39780301 -0.048652101 -1.47296 65280
-0.40029699 -0.0457482 -1.47161 65280
-0.39743701 -0.0457482 -1.47161 65280
-0.39457801 -0.0457482 -1.47161 65280
-0.39171901 -0.0457482 -1.47161 65280
-0.38885999 -0.0457482 -1.47161 65280
-0.38600001 -0.0457482 -1.47161 65280
-0.38314101 -0.0457482 -1.47161 65280
-0.38028201 -0.0457482 -1.47161 65280
-0.377422 -0.0457482 -1.47161 65280
-0.37456301 -0.0457482 -1.47161 65280
-0.37170401 -0.0457482 -1.47161 65280
-0.36884499 -0.0457482 -1.47161 65280
-0.36598501 -0.0457482 -1.47161 65280
-0.36312601 -0.0457482 -1.47161 65280
-0.36026701 -0.0457482 -1.47161 65280
-0.35740799 -0.0457482 -1.47161 65280
-0.35454801 -0.0457482 -1.47161 65280
-0.35168901 -0.0457482 -1.47161 65280
-0.34883001 -0.0457482 -1.47161 65280
-0.34597099 -0.0457482 -1.47161 65280
-0.34311101 -0.0457482 -1.47161 65280
-0.34025201 -0.0457482 -1.47161 65280
-0.33739299 -0.0457482 -1.47161 65280
-0.33453399 -0.0457482 -1.47161 65280
-0.33167401 -0.0457482 -1.47161 65280
-0.32881501 -0.0457482 -1.47161 65280
-0.32595599 -0.0457482 -1.47161 65280
-0.32309699 -0.0457482 -1.47161 65280
-0.32023701 -0.0457482 -1.47161 65280
-0.31737801 -0.0457482 -1.47161 65280
-0.31451899 -0.0457482 -1.47161 65280
-0.31165901 -0.0457482 -1.47161 65280
-0.30880001 -0.0457482 -1.47161 65280
-0.30594099 -0.0457482 -1.47161 65280
-0.30308199 -0.0457482 -1.47161 65280
-0.30022201 -0.0457482 -1.47161 65280
-0.29736301 -0.0457482 -1.47161 65280
-0.29450399 -0.0457482 -1.47161 65280
-0.29164499 -0.0457482 -1.47161 65280
-0.28878501 -0.0457482 -1.47161 65280
-0.28592601 -0.0457482 -1.47161 65280
-0.28306699 -0.0457482 -1.47161 65280
-0.28020799 -0.0457482 -1.47161 65280
-0.27734801 -0.0457482 -1.47161 65280
-0.27448899 -0.0457482 -1.47161 65280
-0.27162999 -0.0457482 -1.47161 65280
-0.26877099 -0.0457482 -1.47161 65280
-0.26591101 -0.0457482 -1.47161 65280
-0.26305199 -0.0457482 -1.47161 65280
-0.26019299 -0.0457482 -1.47161 65280
-0.25733399 -0.0457482 -1.47161 65280
-0.25447401 -0.0457482 -1.47161 65280
-0.25161499 -0.0457482 -1.47161 65280
-0.24875601 -0.0457482 -1.47161 65280
-0.245896 -0.0457482 -1.47161 65280
-0.243037 -0.0457482 -1.47161 65280
-0.240178 -0.0457482 -1.47161 65280
-0.23731899 -0.0457482 -1.47161 65280
-0.234459 -0.0457482 -1.47161 65280
-0.2316 -0.0457482 -1.47161 65280
-0.22874101 -0.0457482 -1.47161 65280
-0.22588199 -0.0457482 -1.47161 65280
-0.223022 -0.0457482 -1.47161 65280
-0.220163 -0.0457482 -1.47161 65280
-0.21730401 -0.0457482 -1.47161 65280
-0.21444499 -0.0457482 -1.47161 65280
-0.211585 -0.0457482 -1.47161 65280
-0.208726 -0.0457482 -1.47161 65280
-0.20586701 -0.0457482 -1.47161 65280
-0.203008 -0.0457482 -1.47161 65280
-0.200148 -0.0457482 -1.47161 65280
-0.197289 -0.0457482 -1.47161 65280
-0.19442999 -0.0457482 -1.47161 65280
-0.191571 -0.0457482 -1.47161 65280
-0.188711 -0.0457482 -1.47161 65280
-0.18585201 -0.0457482 -1.47161 65280
-0.18299299 -0.0457482 -1.47161 65280
-0.180133 -0.0457482 -1.47161 65280
-0.177274 -0.0457482 -1.47161 65280
-0.17441501 -0.0457482 -1.47161 65280
-0.171556 -0.0457482 -1.47161 65280
-0.168696 -0.0457482 -1.47161 65280
-0.165837 -0.0457482 -1.47161 65280
-0.16297799 -0.0457482 -1.47161 65280
-0.160119 -0.0457482 -1.47161 65280
-0.157259 -0.0457482 -1.47161 65280
-0.15440001 -0.0457482 -1.47161 65280
-0.15154099 -0.0457482 -1.47161 65280
-0.148682 -0.0457482 -1.47161 65280
-0.145822 -0.0457482 -1.47161 65280
-0.14296301 -0.0457482 -1.47161 65280
-0.140104 -0.0457482 -1.47161 65280
-0.137245 -0.0457482 -1.47161 65280
-0.134385 -0.0457482 -1.47161 65280
-0.13152599 -0.0457482 -1.47161 65280
-0.128667 -0.0457482 -1.47161 65280
-0.125807 -0.0457482 -1.47161 65280
-0.122948 -0.0457482 -1.47161 65280
-0.120089 -0.0457482 -1.47161 65280
-0.11723 -0.0457482 -1.47161 65280
-0.11437 -0.0457482 -1.47161 65280
-0.111511 -0.0457482 -1.47161 65280
-0.108652 -0.0457482 -1.47161 65280
-0.105793 -0.0457482 -1.47161 65280
-0.102933 -0.0457482 -1.47161 65280
-0.100074 -0.0457482 -1.47161 65280
-0.0972149 -0.0457482 -1.47161 65280
-0.094355598 -0.0457482 -1.47161 65280
-0.091496401 -0.0457482 -1.47161 65280
-0.088637099 -0.0457482 -1.47161 65280
-0.085777797 -0.0457482 -1.47161 65280
-0.082918599 -0.0457482 -1.47161 65280
-0.080059297 -0.0457482 -1.47161 65280
-0.0772001 -0.0457482 -1.47161 65280
-0.074340798 -0.0457482 -1.47161 65280
-0.071481504 -0.0457482 -1.47161 65280
-0.068622299 -0.0457482 -1.47161 65280
-0.065762997 -0.0457482 -1.47161 65280
-0.062903702 -0.0457482 -1.47161 65280
-0.060044501 -0.0457482 -1.47161 65280
-0.057185199 -0.0457482 -1.47161 65280
-0.054326002 -0.0457482 -1.47161 65280
-0.0514667 -0.0457482 -1.47161 65280
-0.048607402 -0.0457482 -1.47161 65280
-0.0457482 -0.0457482 -1.47161 65280
-0.042888898 -0.0457482 -1.47161 65280
-0.0373067 -0.042636301 -1.37151 65280
-0.0344892 -0.042448301 -1.36546 65280
-0.031773701 -0.042365 -1.36278 65280
-0.029070999 -0.0422851 -1.3602099 65280
-0.026360501 -0.042176802 -1.35673 65280
-0.0236823 -0.042101901 -1.35432 65280
-0.0210377 -0.042075399 -1.35346 65280
-0.018402901 -0.042063698 -1.35309 65280
-0.015777601 -0.0420736 -1.35341 65280
-0.0131584 -0.042107001 -1.35448 65280
-0.0105369 -0.0421477 -1.35579 65280
-0.0079097897 -0.0421855 -1.35701 65280
-0.0052778102 -0.0422225 -1.3582 65280
-0.0026412499 -0.042260099 -1.35941 65280
0 -0.042326398 -1.36154 65280
0.00265104 -0.042416699 -1.36444 65280
0.0053192601 -0.042553999 -1.36886 65280
0.008262 -0.044064 -1.41743 65280
0.0110208 -0.0440832 -1.4180501 65280
0.0137834 -0.044106901 -1.41881 65280
0.0165498 -0.044132899 -1.41965 65280
0.0193255 -0.0441726 -1.42093 65280
0.0221163 -0.044232599 -1.42286 65280
0.024932999 -0.0443253 -1.42584 65280
0.027791001 -0.044465698 -1.4303499 65280
0.0307307 -0.044699099 -1.43786 65280
0.034311101 -0.0457482 -1.47161 65280
0.037170399 -0.0457482 -1.47161 65280
0.040029701 -0.0457482 -1.47161 65280
0.042888898 -0.0457482 -1.47161 65280
0.0457482 -0.0457482 -1.47161 65280
0.048607402 -0.0457482 -1.47161 65280
0.0514667 -0.0457482 -1.47161 65280
0.054326002 -0.0457482 -1.47161 65280
0.057185199 -0.0457482 -1.47161 65280
0.060044501 -0.0457482 -1.47161 65280
0.062903702 -0.0457482 -1.47161 65280
0.065762997 -0.0457482 -1.47161 65280
0.068622299 -0.0457482 -1.47161 65280
0.071481504 -0.0457482 -1.47161 65280
0.074340798 -0.0457482 -1.47161 65280
0.0772001 -0.0457482 -1.47161 65280
0.080059297 -0.0457482 -1.47161 65280
0.082918599 -0.0457482 -1.47161 65280
0.085777797 -0.0457482 -1.47161 65280
0.088637099 -0.0457482 -1.47161 65280
0.091496401 -0.0457482 -1.47161 65280
0.094355598 -0.0457482 -1.47161 65280
0.0972149 -0.0457482 -1.47161 65280
0.100074 -0.0457482 -1.47161 65280
0.102933 -0.0457482 -1.47161 65280
0.105793 -0.0457482 -1.47161 65280
0.108652 -0.0457482 -1.47161 65280
0.111511 -0.0457482 -1.47161 65280
0.11437 -0.0457482 -1.47161 65280
0.11723 -0.0457482 -1.47161 65280
0.120089 -0.0457482 -1.47161 65280
0.122948 -0.0457482 -1.47161 65280
0.125807 -0.0457482 -1.47161 65280
0.128667 -0.0457482 -1.47161 65280
0.13152599 -0.0457482 -1.47161 65280
0.134385 -0.0457482 -1.47161 65280
0.137245 -0.0457482 -1.47161 65280
0.140104 -0.0457482 -1.47161 65280
0.14296301 -0.0457482 -1.47161 65280
0.145822 -0.0457482 -1.47161 65280
0.148682 -0.0457482 -1.47161 65280
0.15154099 -0.0457482 -1.47161 65280
0.15440001 -0.0457482 -1.47161 65280
0.157259 -0.0457482 -1.47161 65280
0.160119 -0.0457482 -1.47161 65280
0.16297799 -0.0457482 -1.47161 65280
0.165837 -0.0457482 -1.47161 65280
0.168696 -0.0457482 -1.47161 65280
0.171556 -0.0457482 -1.47161 65280
0.17441501 -0.0457482 -1.47161 65280
0.177274 -0.0457482 -1.47161 65280
0.180133 -0.0457482 -1.47161 65280
0.18299299 -0.0457482 -1.47161 65280
0.18585201 -0.0457482 -1.47161 65280
0.188711 -0.0457482 -1.47161 65280
0.191571 -0.0457482 -1.47161 65280
0.19442999 -0.0457482 -1.47161 65280
0.197289 -0.0457482 -1.47161 65280
0.200148 -0.0457482 -1.47161 65280
0.203008 -0.0457482 -1.47161 65280
0.20586701 -0.0457482 -1.47161 65280
0.208726 -0.0457482 -1.47161 65280
0.211585 -0.0457482 -1.47161 65280
0.21444499 -0.0457482 -1.47161 65280
0.21730401 -0.0457482 -1.47161 65280
0.220163 -0.0457482 -1.47161 65280
0.223022 -0.0457482 -1.47161 65280
0.22588199 -0.0457482 -1.47161 65280
0.22874101 -0.0457482 -1.47161 65280
0.2316 -0.0457482 -1.47161 65280
0.234459 -0.0457482 -1.47161 65280
0.23731899 -0.0457482 -1.47161 65280
0.240178 -0.0457482 -1.47161 65280
0.243037 -0.0457482 -1.47161 65280
0.245896 -0.0457482 -1.47161 65280
0.24875601 -0.0457482 -1.47161 65280
0.25161499 -0.0457482 -1.47161 65280
0.25447401 -0.0457482 -1.47161 65280
0.25733399 -0.0457482 -1.47161 65280
0.26019299 -0.0457482 -1.47161 65280
0.26305199 -0.0457482 -1.47161 65280
0.26591101 -0.0457482 -1.47161 65280
0.26877099 -0.0457482 -1.47161 65280
0.27162999 -0.0457482 -1.47161 65280
0.27448899 -0.0457482 -1.47161 65280
0.27734801 -0.0457482 -1.47161 65280
0.28020799 -0.0457482 -1.47161 65280
0.28306699 -0.0457482 -1.47161 65280
0.28592601 -0.0457482 -1.47161 65280
0.28878501 -0.0457482 -1.47161 65280
0.29164499 -0.0457482 -1.47161 65280
0.29450399 -0.0457482 -1.47161 65280
0.29736301 -0.0457482 -1.47161 65280
0.30022201 -0.0457482 -1.47161 65280
0.30308199 -0.0457482 -1.47161 65280
0.30594099 -0.0457482 -1.47161 65280
0.30880001 -0.0457482 -1.47161 65280
0.31165901 -0.0457482 -1.47161 65280
0.31451899 -0.0457482 -1.47161 65280
0.31737801 -0.0457482 -1.47161 65280
0.32023701 -0.0457482 -1.47161 65280
0.32309699 -0.0457482 -1.47161 65280
0.32595599 -0.0457482 -1.47161 65280
0.32881501 -0.0457482 -1.47161 65280
0.33167401 -0.0457482 -1.47161 65280
0.33453399 -0.0457482 -1.47161 65280
0.33739299 -0.0457482 -1.47161 65280
0.34025201 -0.0457482 -1.47161 65280
0.34311101 -0.0457482 -1.47161 65280
0.34597099 -0.0457482 -1.47161 65280
0.34883001 -0.0457482 -1.47161 65280
0.35168901 -0.0457482 -1.47161 65280
0.35454801 -0.0457482 -1.47161 65280
0.35740799 -0.0457482 -1.47161 65280
0.36026701 -0.0457482 -1.47161 65280
0.36312601 -0.0457482 -1.47161 65280
0.36598501 -0.0457482 -1.47161 65280
0.36884499 -0.0457482 -1.47161 65280
0.37170401 -0.0457482 -1.47161 65280
0.37456301 -0.0457482 -1.47161 65280
0.377422 -0.0457482 -1.47161 65280
0.38028201 -0.0457482 -1.47161 65280
0.38314101 -0.0457482 -1.47161 65280
0.38600001 -0.0457482 -1.47161 65280
0.38885999 -0.0457482 -1.47161 65280
0.39171901 -0.0457482 -1.47161 65280
0.39457801 -0.0457482 -1.47161 65280
0.39743701 -0.0457482 -1.47161 65280
-0.39992899 -0.0428495 -1.47026 65280
-0.39707199 -0.0428495 -1.47026 65280
-0.394216 -0.0428495 -1.47026 65280
-0.391359 -0.0428495 -1.47026 65280
-0.388502 -0.0428495 -1.47026 65280
-0.38564599 -0.0428495 -1.47026 65280
-0.38278899 -0.0428495 -1.47026 65280
-0.37993199 -0.0428495 -1.47026 65280
-0.377076 -0.0428495 -1.47026 65280
-0.374219 -0.0428495 -1.47026 65280
-0.371362 -0.0428495 -1.47026 65280
-0.36850601 -0.0428495 -1.47026 65280
-0.36564901 -0.0428495 -1.47026 65280
-0.362793 -0.0428495 -1.47026 65280
-0.359936 -0.0428495 -1.47026 65280
-0.357079 -0.0428495 -1.47026 65280
-0.35422301 -0.0428495 -1.47026 65280
-0.35136601 -0.0428495 -1.47026 65280
-0.34850901 -0.0428495 -1.47026 65280
-0.345653 -0.0428495 -1.47026 65280
-0.342796 -0.0428495 -1.47026 65280
-0.339939 -0.0428495 -1.47026 65280
-0.33708301 -0.0428495 -1.47026 65280
-0.33422601 -0.0428495 -1.47026 65280
-0.33137 -0.0428495 -1.47026 65280
-0.328513 -0.0428495 -1.47026 65280
-0.325656 -0.0428495 -1.47026 65280
-0.32280001 -0.0428495 -1.47026 65280
-0.31994301 -0.0428495 -1.47026 65280
-0.31708601 -0.0428495 -1.47026 65280
-0.31423 -0.0428495 -1.47026 65280
-0.311373 -0.0428495 -1.47026 65280
-0.30851701 -0.0428495 -1.47026 65280
-0.30566001 -0.0428495 -1.47026 65280
-0.30280301 -0.0428495 -1.47026 65280
-0.29994699 -0.0428495 -1.47026 65280
-0.29708999 -0.0428495 -1.47026 65280
-0.29423299 -0.0428495 -1.47026 65280
-0.29137701 -0.0428495 -1.47026 65280
-0.28852001 -0.0428495 -1.47026 65280
-0.28566301 -0.0428495 -1.47026 65280
-0.28280699 -0.0428495 -1.47026 65280
-0.27994999 -0.0428495 -1.47026 65280
-0.27709401 -0.0428495 -1.47026 65280
-0.27423701 -0.0428495 -1.47026 65280
-0.27138001 -0.0428495 -1.47026 65280
-0.26852399 -0.0428495 -1.47026 65280
-0.26566699 -0.0428495 -1.47026 65280
-0.26280999 -0.0428495 -1.47026 65280
-0.25995401 -0.0428495 -1.47026 65280
-0.25709701 -0.0428495 -1.47026 65280
-0.25424001 -0.0428495 -1.47026 65280
-0.25138399 -0.0428495 -1.47026 65280
-0.24852701 -0.0428495 -1.47026 65280
-0.245671 -0.0428495 -1.47026 65280
-0.242814 -0.0428495 -1.47026 65280
-0.239957 -0.0428495 -1.47026 65280
-0.237101 -0.0428495 -1.47026 65280
-0.234244 -0.0428495 -1.47026 65280
-0.231387 -0.0428495 -1.47026 65280
-0.228531 -0.0428495 -1.47026 65280
-0.225674 -0.0428495 -1.47026 65280
-0.222817 -0.0428495 -1.47026 65280
-0.219961 -0.0428495 -1.47026 65280
-0.217104 -0.0428495 -1.47026 65280
-0.214248 -0.0428495 -1.47026 65280
-0.211391 -0.0428495 -1.47026 65280
-0.208534 -0.0428495 -1.47026 65280
-0.205678 -0.0428495 -1.47026 65280
-0.202821 -0.0428495 -1.47026 65280
-0.199964 -0.0428495 -1.47026 65280
-0.197108 -0.0428495 -1.47026 65280
-0.194251 -0.0428495 -1.47026 65280
-0.191394 -0.0428495 -1.47026 65280
-0.188538 -0.0428495 -1.47026 65280
-0.185681 -0.0428495 -1.47026 65280
-0.182825 -0.0428495 -1.47026 65280
-0.179968 -0.0428495 -1.47026 65280
-0.177111 -0.0428495 -1.47026 65280
-0.174255 -0.0428495 -1.47026 65280
-0.171398 -0.0428495 -1.47026 65280
-0.168541 -0.0428495 -1.47026 65280
-0.165685 -0.0428495 -1.47026 65280
-0.162828 -0.0428495 -1.47026 65280
-0.159972 -0.0428495 -1.47026 65280
-0.157115 -0.0428495 -1.47026 65280
-0.154258 -0.0428495 -1.47026 65280
-0.151402 -0.0428495 -1.47026 65280
-0.148545 -0.0428495 -1.47026 65280
-0.145688 -0.0428495 -1.47026 65280
-0.142832 -0.0428495 -1.47026 65280
-0.139975 -0.0428495 -1.47026 65280
-0.137118 -0.0428495 -1.47026 65280
-0.134262 -0.0428495 -1.47026 65280
-0.131405 -0.0428495 -1.47026 65280
-0.12854899 -0.0428495 -1.47026 65280
-0.125692 -0.0428495 -1.47026 65280
-0.122835 -0.0428495 -1.47026 65280
-0.119979 -0.0428495 -1.47026 65280
-0.117122 -0.0428495 -1.47026 65280
-0.114265 -0.0428495 -1.47026 65280
-0.111409 -0.0428495 -1.47026 65280
-0.108552 -0.0428495 -1.47026 65280
-0.105695 -0.0428495 -1.47026 65280
-0.102839 -0.0428495 -1.47026 65280
-0.099982202 -0.0428495 -1.47026 65280
-0.097125597 -0.0428495 -1.47026 65280
-0.094268903 -0.0428495 -1.47026 65280
-0.091412298 -0.0428495 -1.47026 65280
-0.088555701 -0.0428495 -1.47026 65280
-0.085698999 -0.0428495 -1.47026 65280
-0.082842402 -0.0428495 -1.47026 65280
-0.079985797 -0.0428495 -1.47026 65280
-0.077129103 -0.0428495 -1.47026 65280
-0.074272498 -0.0428495 -1.47026 65280
-0.071415901 -0.0428495 -1.47026 65280
