# .PCD v0.7 - Point Cloud Data file format
VERSION 0.7
FIELDS x y z rgb
SIZE 4 4 4 4
TYPE F F F U
COUNT 1 1 1 1
WIDTH 1047
HEIGHT 1
VIEWPOINT 0 0 0 1 0 0 0
POINTS 1047
DATA ascii
-0.014962229 -0.04510732 -1.4546027 16711680
-0.067208812 -0.015187087 -1.4425005 16711680
-0.065596476 -0.01662086 -1.4452293 16711680
-0.015560287 -0.041534949 -1.4566631 16711680
-0.012683538 -0.042478126 -1.4549309 16711680
-0.065964542 -0.0106565 -1.4413439 16711680
-0.064948179 -0.012503542 -1.4447236 16711680
-0.01270214 -0.038695402 -1.4567038 16711680
-0.0094678849 -0.038933054 -1.454229 16711680
-0.0643638 -0.0063282284 -1.4391323 16711680
-0.0062330235 -0.035401847 -1.4524244 16711680
-0.062346153 -0.0021873545 -1.4373089 16711680
-0.0034833699 -0.031615779 -1.4507496 16711680
-0.060107522 0.0018790253 -1.4355637 16711680
-0.00093409605 -0.027659595 -1.4490687 16711680
-0.057670906 0.0058728419 -1.4336988 16711680
0.001487188 -0.023677738 -1.447175 16711680
-0.055090245 0.0096795727 -1.4316369 16711680
0.0037314482 -0.019726848 -1.4450641 16711680
-0.052264608 0.013332263 -1.4297837 16711680
0.005671585 -0.015626336 -1.4430106 16711680
-0.049085386 0.016932946 -1.4280845 16711680
0.007306559 -0.011252359 -1.4410102 16711680
-0.045832369 0.020189598 -1.4261715 16711680
-0.04386365 0.02157408 -1.4280294 16711680
0.0081128944 -0.0044023078 -1.4398922 16711680
0.0087509882 -0.0070801466 -1.438647 16711680
-0.043233842 0.022586346 -1.4238086 16711680
-0.040957194 0.023922279 -1.4254909 16711680
0.0092767756 -0.0012210291 -1.4369061 16711680
0.010037506 -0.0040497184 -1.4359565 16711680
-0.037474737 0.026229441 -1.423291 16711680
-0.033979438 0.026919752 -1.4252303 16711680
0.0079889577 0.0058153179 -1.4348077 16711680
0.0099183675 0.0025435928 -1.4341156 16711680
-0.034684729 0.028034441 -1.4209484 16711680
-0.030977115 0.028604377 -1.422578 16711680
-0.027304571 0.029113941 -1.424136 16711680
0.0063938331 0.012348026 -1.4317619 16711680
0.0085388254 0.0088689886 -1.4315517 16711680
0.010625469 0.0053905025 -1.431307 16711680
-0.027926313 0.029876348 -1.4201057 16711680
-0.02413597 0.030434154 -1.421621 16711680
-0.019999353 0.030676585 -1.4232671 16711680
0.0038326886 0.01885017 -1.4287325 16711680
0.0065962281 0.01503294 -1.4286702 16711680
0.0087321233 0.011535462 -1.4284745 16711680
-0.021363562 0.031245716 -1.4193825 16711680
-0.017392648 0.031188767 -1.4207408 16711680
-0.012838542 0.030478936 -1.4217399 16711680
-0.0080851745 0.028968859 -1.422798 16711680
-0.0035299882 0.026677668 -1.4238677 16711680
0.00051859766 0.023823775 -1.4247336 16711680
0.0038726963 0.020553406 -1.4255917 16711680
0.0065184478 0.017307332 -1.425732 16711680
-0.010731036 0.03045601 -1.4188919 16711680
-0.0070609469 0.029061548 -1.4202048 16711680
-0.0031301472 0.027100619 -1.421077 16711680
0.00040973723 0.024875835 -1.4214473 16711680
-0.059003323 -0.040427502 -1.4486614 16711680
-0.055628531 -0.042396054 -1.4505517 16711680
-0.051577214 -0.044915576 -1.4517707 16711680
-0.047182478 -0.047085445 -1.4528065 16711680
-0.042590652 -0.048914433 -1.4535235 16711680
-0.038609296 -0.050630495 -1.4533052 16711680
-0.065151431 -0.032473367 -1.4452074 16711680
-0.062875077 -0.035238281 -1.447395 16711680
-0.059915699 -0.038146429 -1.4494641 16711680
-0.05668088 -0.039691404 -1.4518294 16711680
-0.040390052 -0.047802243 -1.4555693 16711680
-0.036775116 -0.049788006 -1.4547284 16711680
-0.032068357 -0.050636344 -1.4543948 16711680
-0.027998675 -0.051044833 -1.4536813 16711680
-0.067498498 -0.026495963 -1.4427291 16711680
-0.065936372 -0.029294021 -1.445024 16711680
-0.02499746 -0.049620278 -1.4544204 16711680
-0.021339476 -0.049648251 -1.4532489 16711680
-0.069167562 -0.020686612 -1.4399002 16711680
-0.06801784 -0.022917524 -1.4422355 16711680
-0.018075975 -0.047933746 -1.4535865 16711680
-0.014903985 -0.047815375 -1.4522432 16711680
-0.068792507 -0.01657065 -1.4387465 16711680
-0.011560779 -0.045217928 -1.451733 16711680
-0.067521997 -0.012135064 -1.4364533 16711680
-0.0080474224 -0.04185649 -1.4500452 16711680
-0.065931402 -0.0078845713 -1.432676 16711680
-0.065752029 -0.0079630995 -1.4350843 16711680
-0.0052952003 -0.038155191 -1.4488769 16711680
-0.0043228902 -0.038709309 -1.4467481 16711680
-0.063857973 -0.0036707856 -1.4315634 16711680
-0.063544966 -0.0034816051 -1.4338115 16711680
-0.0026097614 -0.033945899 -1.4477288 16711680
-0.001794124 -0.0347015 -1.4457269 16711680
-0.061681636 0.00035356171 -1.4298846 16711680
-0.061241694 0.00070646312 -1.432425 16711680
-0.00020021759 -0.029989693 -1.446388 16711680
0.00072123297 -0.030834192 -1.4441276 16711680
-0.059330508 0.0042785946 -1.4282014 16711680
-0.058661751 0.0049916077 -1.4305425 16711680
0.0024340805 -0.025527932 -1.4444921 16711680
0.0030473359 -0.026988925 -1.4424218 16711680
-0.056952912 0.0079248212 -1.4260094 16711680
-0.056179352 0.0087588169 -1.4282545 16711680
0.0047844891 -0.021730613 -1.4421887 16711680
0.0053500924 -0.023219831 -1.4402473 16711680
-0.054382294 0.011486422 -1.423817 16711680
-0.053377427 0.012558131 -1.4257225 16711680
0.0070707258 -0.017630722 -1.4396006 16711680
0.0075066406 -0.019345412 -1.4379396 16711680
-0.052369073 0.014020259 -1.4216985 16711680
-0.050654519 0.015807394 -1.4233537 16711680
0.0089590866 -0.013999687 -1.4369731 16711680
0.0092763398 -0.016519494 -1.4353949 16711680
-0.04742042 0.019096687 -1.4215525 16711680
0.010398367 -0.0097971885 -1.4347277 16711680
-0.043755759 0.022286538 -1.4198283 16711680
-0.041445006 0.024134923 -1.4216713 16711680
0.01111895 -0.00182583 -1.4333472 16711680
0.011454435 -0.0052129086 -1.432511 16711680
-0.041009996 0.024371605 -1.4178236 16711680
-0.03882613 0.025983479 -1.4187425 16711680
0.0120568 0.000561703 -1.4303491 16711680
0.01231266 -0.0022874624 -1.4299872 16711680
-0.034881793 0.028108802 -1.4171118 16711680
-0.031543955 0.029217817 -1.4181727 16711680
0.010881418 0.0079204347 -1.427886 16711680
0.012141133 0.004607141 -1.4278483 16711680
-0.032026023 0.028866626 -1.4149246 16711680
-0.028409056 0.029823683 -1.4162272 16711680
-0.024828631 0.030740343 -1.4170221 16711680
0.0088367518 0.013885157 -1.4246734 16711680
0.010300385 0.010500403 -1.4250137 16711680
0.011953989 0.0068957899 -1.4249701 16711680
-0.025238926 0.030360047 -1.4135383 16711680
-0.02177453 0.031171132 -1.415273 16711680
-0.017176043 0.031461358 -1.415978 16711680
-0.013072286 0.031045269 -1.4178783 16711680
0.0024647713 0.023272224 -1.4214076 16711680
0.0056568962 0.020025544 -1.4212095 16711680
0.0081087928 0.016209874 -1.4221854 16711680
0.0099595618 0.012768449 -1.4215403 16711680
-0.014844273 0.03123178 -1.4141577 16711680
-0.011060888 0.030534964 -1.4156687 16711680
-0.0065877289 0.029025964 -1.4168391 16711680
-0.0022104345 0.026836466 -1.4178257 16711680
0.0017665196 0.024107698 -1.4186749 16711680
0.0048301052 0.021398481 -1.4186443 16711680
-0.06201636 -0.040569104 -1.4435608 16711680
-0.060017258 -0.042184692 -1.4450125 16711680
-0.056321926 -0.045196578 -1.4463563 16711680
-0.052066892 -0.047877297 -1.4476166 16711680
-0.047690891 -0.050065376 -1.448615 16711680
-0.04292215 -0.051907316 -1.4493964 16711680
-0.03817153 -0.05309619 -1.4500277 16711680
-0.03533816 -0.053903814 -1.4496706 16711680
-0.066111416 -0.034371182 -1.4413067 16711680
-0.063660465 -0.038189813 -1.4431344 16711680
-0.061602108 -0.039626021 -1.4457203 16711680
-0.035565622 -0.052642312 -1.4516538 16711680
-0.032485798 -0.05374644 -1.4503173 16711680
-0.027721012 -0.053591989 -1.4502083 16711680
-0.068590969 -0.028820347 -1.4386244 16711680
-0.067286715 -0.031540658 -1.4407002 16711680
-0.024679452 -0.052969918 -1.4503816 16711680
-0.021046303 -0.052562583 -1.4495206 16711680
-0.070147529 -0.023127621 -1.4359287 16711680
-0.069542907 -0.025436535 -1.4378849 16711680
-0.017675372 -0.051357072 -1.4497268 16711680
-0.014888504 -0.05069023 -1.4486306 16711680
-0.069745265 -0.01845824 -1.4339379 16711680
-0.010737048 -0.047805391 -1.447401 16711680
-0.068160743 -0.013194164 -1.4306629 16711680
-0.068540901 -0.014261098 -1.4323823 16711680
-0.0076623373 -0.044637669 -1.4462399 16711680
-0.0064246282 -0.04392717 -1.4447544 16711680
-0.066686921 -0.0094222464 -1.4294497 16711680
-0.067195579 -0.010679065 -1.4328839 16711680
-0.0039729271 -0.0407902 -1.4437969 16711680
-0.064755224 -0.0052094841 -1.4279529 16711680
-0.0012097247 -0.036966175 -1.4424109 16711680
-0.06261082 -0.0011513047 -1.4254727 16711680
0.0015644263 -0.033255927 -1.440237 16711680
-0.060352713 0.0026709177 -1.4234703 16711680
0.0040293168 -0.029527299 -1.4381706 16711680
-0.057735961 0.0067316461 -1.4220034 16711680
0.0062633026 -0.025262803 -1.4366156 16711680
-0.054990329 0.010529334 -1.420337 16711680
0.0083292592 -0.021048052 -1.4347292 16711680
-0.052170526 0.01381892 -1.4182975 16711680
-0.050770067 0.015725318 -1.4193293 16711680
0.010373747 -0.014854245 -1.433278 16711680
0.010020649 -0.017283699 -1.4324881 16711680
-0.050382271 0.015478721 -1.41643 16711680
-0.048407655 0.017657733 -1.4167492 16711680
0.011496717 -0.012331208 -1.4303856 16711680
0.010984907 -0.015207137 -1.4304911 16711680
-0.044588402 0.020852495 -1.4152062 16711680
0.012446007 -0.0076568425 -1.4282093 16711680
-0.041046724 0.023442626 -1.4139887 16711680
-0.038977049 0.024783291 -1.4132767 16711680
0.013130886 -0.0012559276 -1.4251511 16711680
0.012965268 -0.003558198 -1.4262617 16711680
-0.035452206 0.026636884 -1.412369 16711680
0.012981916 0.0024135467 -1.4234241 16711680
-0.032204688 0.0277596 -1.4118009 16711680
-0.028872769 0.028667383 -1.4114519 16711680
0.011340914 0.0085444469 -1.4206814 16711680
0.012296846 0.0055245608 -1.4219769 16711680
-0.025497781 0.029447436 -1.4102635 16711680
-0.021767654 0.030432045 -1.4105833 16711680
-0.018083587 0.031111948 -1.4116741 16711680
0.0073304344 0.018430674 -1.4174855 16711680
0.0091818515 0.014966024 -1.4176643 16711680
0.010516027 0.011478517 -1.4184079 16711680
-0.018534046 0.030567434 -1.4091128 16711680
-0.015486168 0.030751437 -1.4101866 16711680
-0.010535561 0.029938243 -1.410691 16711680
-0.0057387538 0.028313093 -1.4115031 16711680
-0.0013577919 0.026123784 -1.4125106 16711680
0.0027536899 0.023293652 -1.4137273 16711680
0.006209502 0.019905396 -1.4151669 16711680
0.0080750044 0.017262565 -1.4152001 16711680
-0.062037773 -0.042187691 -1.4401195 16711680
-0.06003397 -0.044356991 -1.4404209 16711680
-0.056327634 -0.047397025 -1.4417745 16711680
-0.052125197 -0.050044496 -1.4431057 16711680
-0.047745749 -0.052237965 -1.4440947 16711680
-0.042996146 -0.054058373 -1.4448316 16711680
-0.038197976 -0.055271354 -1.4454124 16711680
-0.035324156 -0.055372428 -1.4466535 16711680
-0.066077188 -0.03659473 -1.4368198 16711680
-0.063675493 -0.040313922 -1.4386095 16711680
-0.06161546 -0.04323519 -1.4380809 16711680
-0.03566068 -0.056219477 -1.4439695 16711680
-0.032487128 -0.055926252 -1.4456437 16711680
-0.027692355 -0.0557248 -1.4456674 16711680
-0.0686974 -0.030777419 -1.4341718 16711680
-0.067301914 -0.034268953 -1.435078 16711680
-0.024722684 -0.055540148 -1.4449632 16711680
-0.020941354 -0.054658182 -1.4450814 16711680
-0.070230961 -0.02524079 -1.4316249 16711680
-0.069683351 -0.028166164 -1.4324563 16711680
-0.017551396 -0.054044757 -1.4442478 16711680
-0.014998137 -0.052915394 -1.4441643 16711680
-0.069806777 -0.020602901 -1.4291576 16711680
-0.010763109 -0.050114408 -1.4426442 16711680
-0.068352386 -0.015103046 -1.4269893 16711680
-0.068841875 -0.017051101 -1.4272336 16711680
-0.0079091396 -0.04755719 -1.4411534 16711680
-0.0065576117 -0.04599024 -1.4410948 16711680
-0.066937506 -0.011483688 -1.4250337 16711680
-0.0038578548 -0.04302571 -1.4394342 16711680
-0.065078676 -0.0072996411 -1.4230459 16711680
-0.00094347261 -0.039362371 -1.4377036 16711680
-0.0629391 -0.003039645 -1.4213333 16711680
0.0017894711 -0.035386428 -1.4361049 16711680
-0.060572453 0.000768831 -1.4192007 16711680
0.0042158756 -0.031555429 -1.4339788 16711680
-0.057917215 0.0046017356 -1.4173894 16711680
0.0063417014 -0.027526658 -1.4320554 16711680
-0.054966025 0.0082557686 -1.4155438 16711680
-0.052940574 0.0085054282 -1.4129111 16711680
0.008301096 -0.021925496 -1.4268526 16711680
0.0082454439 -0.023255741 -1.4299939 16711680
-0.052249335 0.011816118 -1.4147562 16711680
-0.050799802 0.011806721 -1.4129101 16711680
0.0096367132 -0.018359065 -1.4266601 16711680
0.009770317 -0.019183865 -1.4289238 16711680
-0.047807377 0.014971497 -1.4121357 16711680
0.010740029 -0.014293702 -1.4255308 16711680
-0.044045456 0.018234894 -1.4108664 16711680
-0.041324485 0.018167615 -1.4083138 16711680
0.011086786 -0.0079178177 -1.4202818 16711680
0.011640659 -0.0096987532 -1.4235909 16711680
-0.041053344 0.021079097 -1.4103665 16711680
-0.038999978 0.021331478 -1.4086945 16711680
0.0121073 -0.0041975416 -1.4203777 16711680
0.012414733 -0.0056622927 -1.4225694 16711680
-0.035098068 0.024014551 -1.40819 16711680
-0.031856652 0.024194717 -1.4067562 16711680
0.01113767 0.0026813662 -1.4165455 16711680
0.012244167 0.0003566267 -1.4189987 16711680
-0.032129075 0.026144005 -1.4089686 16711680
-0.028756902 0.026109546 -1.4069599 16711680
0.01090146 0.0062951837 -1.4160613 16711680
0.011990024 0.0040711947 -1.4189799 16711680
-0.025337361 0.027915899 -1.4067359 16711680
-0.022175094 0.028619438 -1.405772 16711680
0.0096904431 0.012759639 -1.4130664 16711680
0.010534192 0.009927975 -1.414933 16711680
-0.018795263 0.029302087 -1.4051248 16711680
-0.015160429 0.029581025 -1.4053558 16711680
-0.010004809 0.028880417 -1.4056913 16711680
-0.0053342022 0.027499203 -1.4072968 16711680
-0.0006868206 0.025172111 -1.4083508 16711680
0.003426902 0.022163868 -1.4087809 16711680
0.0067917239 0.018640473 -1.4103541 16711680
0.0086630639 0.015553031 -1.411467 16711680
-0.0078311004 0.027843207 -1.4039626 16711680
-0.0048438124 0.02688431 -1.4052707 16711680
-0.00074348599 0.024832767 -1.4061981 16711680
0.0020461399 0.022906929 -1.4062184 16711680
-0.059069328 -0.046106067 -1.4366972 16711680
-0.055814791 -0.048834614 -1.4370084 16711680
-0.051855102 -0.051427849 -1.4381584 16711680
-0.047219485 -0.053745043 -1.4392214 16711680
-0.042687014 -0.055395097 -1.4400049 16711680
-0.038746551 -0.056265697 -1.4413334 16711680
-0.065216608 -0.038313553 -1.4327521 16711680
-0.063014485 -0.041703582 -1.4336861 16711680
-0.060069926 -0.045216918 -1.4345965 16711680
-0.057273533 -0.047874033 -1.4338915 16711680
-0.04000517 -0.056482017 -1.4378641 16711680
-0.036676671 -0.056864653 -1.4399815 16711680
-0.032223765 -0.057116486 -1.4406825 16711680
-0.028082438 -0.056868903 -1.4412653 16711680
-0.067726322 -0.032638304 -1.4299496 16711680
-0.066116482 -0.036203332 -1.4306601 16711680
-0.025258301 -0.056634299 -1.4399958 16711680
-0.021406043 -0.055797879 -1.4405248 16711680
-0.069393732 -0.026738897 -1.4271983 16711680
-0.06853237 -0.029886698 -1.4276911 16711680
-0.018092668 -0.055131305 -1.4391488 16711680
-0.015061439 -0.053952541 -1.4395961 16711680
-0.068857178 -0.023125926 -1.424934 16711680
-0.011697745 -0.051655214 -1.4379339 16711680
-0.067608736 -0.01564331 -1.4236073 16711680
-0.067668594 -0.018646918 -1.4227484 16711680
-0.0082509536 -0.04848627 -1.4363964 16711680
-0.0061949436 -0.046351619 -1.4376681 16711680
-0.066217691 -0.013111032 -1.421379 16711680
-0.06596832 -0.015125193 -1.4200575 16711680
-0.0054187831 -0.045371156 -1.4337677 16711680
-0.0042076632 -0.044108387 -1.4355321 16711680
-0.064301439 -0.0096022002 -1.4190203 16711680
-0.063807271 -0.011392815 -1.4173511 16711680
-0.002779156 -0.041920289 -1.4312882 16711680
-0.0017200336 -0.040898331 -1.4333147 16711680
-0.062097758 -0.0057949726 -1.4169236 16711680
-0.061215721 -0.0071895719 -1.4149628 16711680
-6.7824498e-05 -0.037701398 -1.4288903 16711680
0.00082195178 -0.037119463 -1.4312065 16711680
-0.059689805 -0.0018100236 -1.4152428 16711680
-0.058517799 -0.0027603153 -1.413269 16711680
0.0024683606 -0.033216633 -1.4271773 16711680
0.0031264368 -0.033202507 -1.4295777 16711680
-0.057166144 0.0022685006 -1.4140911 16711680
-0.055711195 0.0012591388 -1.4120407 16711680
0.0044718552 -0.028873287 -1.4258497 16711680
0.0052967984 -0.028980048 -1.4283551 16711680
-0.054531027 0.0061798319 -1.4132266 16711680
-0.052727047 0.0050710272 -1.4111277 16711680
0.0061357636 -0.024285713 -1.4245443 16711680
0.0070527028 -0.025020052 -1.4273583 16711680
-0.049292237 0.0084754284 -1.4099907 16711680
-0.046353124 0.007702427 -1.4078017 16711680
0.0058879647 -0.01839968 -1.4197199 16711680
0.0073219258 -0.019861501 -1.4230013 16711680
-0.046132375 0.012124376 -1.4091489 16711680
-0.043879516 0.010785513 -1.4071214 16711680
0.00714642 -0.014848186 -1.418831 16711680
0.0086553153 -0.015358628 -1.4216626 16711680
-0.043364823 0.015374482 -1.4084656 16711680
-0.040952768 0.014725538 -1.4064299 16711680
0.0088923294 -0.010223011 -1.4178826 16711680
0.0099871811 -0.011288854 -1.420735 16711680
-0.037542574 0.018054698 -1.405429 16711680
-0.034353595 0.017634358 -1.4033027 16711680
0.0085967686 -0.0041571334 -1.4131781 16711680
0.0099503901 -0.0057525598 -1.4163219 16711680
-0.034633368 0.0210553 -1.4052584 16711680
-0.031544652 0.020641483 -1.4037179 16711680
0.009312829 0.00014920719 -1.4130647 16711680
0.010754911 -0.0016186703 -1.4156274 16711680
-0.027815221 0.0232086 -1.4031802 16711680
-0.025377961 0.023485232 -1.4012927 16711680
0.0090535935 0.0062972568 -1.4091629 16711680
0.0094858948 0.0045948178 -1.411697 16711680
-0.025288787 0.025681794 -1.4034976 16711680
-0.022179222 0.025978014 -1.4014882 16711680
0.0091840085 0.010328848 -1.4086592 16711680
0.0099300127 0.0081322622 -1.4115857 16711680
-0.018699132 0.027485773 -1.4012027 16711680
-0.014928044 0.027803447 -1.4005584 16711680
-0.010685014 0.027778529 -1.4010701 16711680
0.0045423713 0.020167477 -1.404549 16711680
0.0070203338 0.016827062 -1.4055706 16711680
0.0085739251 0.01384983 -1.407444 16711680
-0.008694768 0.027158801 -1.4006573 16711680
-0.0047680028 0.025850959 -1.4013364 16711680
-0.00020481646 0.023569427 -1.402378 16711680
0.0031430013 0.021246254 -1.4033712 16711680
-0.054980591 -0.049627762 -1.4338604 16711680
-0.051062323 -0.052172907 -1.4345078 16711680
-0.046936605 -0.054236576 -1.4353772 16711680
-0.042656146 -0.055790499 -1.4366808 16711680
-0.06402225 -0.039629109 -1.4297737 16711680
-0.061653383 -0.042714868 -1.4293463 16711680
-0.058645241 -0.046121527 -1.430128 16711680
-0.055044316 -0.049353719 -1.4311872 16711680
-0.050641667 -0.052290495 -1.4316076 16711680
-0.046244033 -0.054489549 -1.4326146 16711680
-0.041549217 -0.056122251 -1.4343226 16711680
-0.036657758 -0.057103973 -1.4351828 16711680
-0.032144018 -0.05744819 -1.4361 16711680
-0.028721493 -0.057298657 -1.4377655 16711680
-0.066474818 -0.033762231 -1.4266186 16711680
-0.064470842 -0.037245817 -1.4263661 16711680
-0.062151663 -0.040996186 -1.4265501 16711680
-0.029640062 -0.057269257 -1.4340543 16711680
-0.025405679 -0.056762919 -1.435333 16711680
-0.021768546 -0.056114558 -1.4368546 16711680
-0.068250753 -0.027856797 -1.4242121 16711680
-0.066514514 -0.031256057 -1.423444 16711680
-0.064604193 -0.034808483 -1.4232125 16711680
-0.022376059 -0.055916425 -1.4328427 16711680
-0.018706415 -0.055165417 -1.4344192 16711680
-0.015194248 -0.054089129 -1.4355909 16711680
-0.067195848 -0.025176536 -1.4213487 16711680
-0.066236585 -0.027779298 -1.4202306 16711680
-0.015030898 -0.053343035 -1.4319261 16711680
-0.012938706 -0.052300587 -1.4337316 16711680
-0.065702699 -0.021436252 -1.4187338 16711680
-0.064967103 -0.024811042 -1.4176252 16711680
-0.012517199 -0.050994296 -1.4295969 16711680
-0.009993542 -0.049350586 -1.4314748 16711680
-0.064110108 -0.017172208 -1.4166859 16711680
-0.0068778172 -0.04586539 -1.4297208 16711680
-0.062056161 -0.013151348 -1.4145585 16711680
-0.0040868018 -0.042182133 -1.4278865 16711680
-0.059691392 -0.009130178 -1.4126781 16711680
-0.0015973412 -0.038176179 -1.4259555 16711680
-0.056865212 -0.0053518806 -1.4109236 16711680
0.00043550134 -0.03397245 -1.4240438 16711680
-0.053842165 -0.0017800741 -1.4095843 16711680
-0.051293455 -0.0030403715 -1.4077166 16711680
0.00030998886 -0.028811891 -1.4194772 16711680
0.0020743273 -0.029635038 -1.4223971 16711680
-0.050990146 0.0019924361 -1.4088578 16711680
-0.047960266 0.00023607351 -1.4070281 16711680
-0.044096597 -0.00032823533 -1.4059774 16711680
-0.00085905567 -0.021964964 -1.4158498 16711680
0.0012973882 -0.024413511 -1.4182957 16711680
0.0036228076 -0.025306106 -1.4213319 16711680
-0.048450835 0.0051773284 -1.408308 16711680
-0.045209579 0.0042291973 -1.4066734 16711680
-0.041819319 0.002375314 -1.4054315 16711680
0.00019564107 -0.018634286 -1.4150249 16711680
0.0030568261 -0.019832851 -1.4177077 16711680
0.0048920531 -0.021451533 -1.420458 16711680
-0.042266771 0.008302873 -1.4058316 16711680
-0.038968436 0.0059763379 -1.4043336 16711680
0.0018740576 -0.01438115 -1.4136784 16711680
0.0048271026 -0.01527622 -1.4165899 16711680
-0.039088354 0.012088638 -1.4046164 16711680
-0.036331061 0.010067312 -1.4031162 16711680
0.0039612651 -0.01001848 -1.4122312 16711680
0.0064635742 -0.010681652 -1.4150017 16711680
-0.036804236 0.015068389 -1.4038399 16711680
-0.033422805 0.013971271 -1.4018723 16711680
0.0058439318 -0.0056923088 -1.4108474 16711680
0.007785609 -0.0069322665 -1.4138011 16711680
-0.030078217 0.017271897 -1.4007401 16711680
-0.028237805 0.016569655 -1.3986424 16711680
0.0061840434 -0.00066843443 -1.4064878 16711680
0.0069774967 -0.0012933528 -1.4092112 16711680
-0.02759449 0.020309724 -1.4005213 16711680
-0.025233377 0.020334382 -1.398419 16711680
0.0075409319 0.0038972143 -1.4058937 16711680
0.0080656167 0.0024717115 -1.4086648 16711680
-0.021249315 0.023113135 -1.3974251 16711680
-0.018649656 0.023138441 -1.395252 16711680
0.0074033458 0.010403279 -1.4014989 16711680
0.0079229642 0.0085520297 -1.4041464 16711680
-0.018581819 0.025213845 -1.3975967 16711680
-0.015229634 0.025400408 -1.3961415 16711680
-0.011378474 0.026015863 -1.3963028 16711680
0.0052431766 0.017691612 -1.4000702 16711680
0.0068955962 0.014323663 -1.4011965 16711680
0.0080227349 0.011903383 -1.4036561 16711680
-0.0088697392 0.025506914 -1.3960829 16711680
-0.0044277273 0.024171516 -1.3967186 16711680
-5.2338466e-05 0.021984633 -1.3977153 16711680
0.003622679 0.01926598 -1.3990034 16711680
-0.059796795 -0.043900292 -1.4262135 16711680
-0.057236012 -0.046417896 -1.4262813 16711680
-0.053586155 -0.049465921 -1.4265121 16711680
-0.049596723 -0.052206337 -1.427309 16711680
-0.045221355 -0.054393288 -1.4283024 16711680
-0.040666018 -0.055915315 -1.4294341 16711680
-0.036256175 -0.05687904 -1.4309969 16711680
-0.032984152 -0.057308175 -1.4323685 16711680
-0.062486954 -0.03814435 -1.4228438 16711680
-0.060036816 -0.041590367 -1.4229242 16711680
-0.057165638 -0.045124684 -1.4232929 16711680
-0.053747647 -0.048281632 -1.4233887 16711680
-0.038605332 -0.055854008 -1.4268545 16711680
-0.03430577 -0.056543581 -1.4284962 16711680
-0.029929247 -0.056643397 -1.4298137 16711680
-0.026078306 -0.056490961 -1.431484 16711680
-0.064454794 -0.032355417 -1.4203931 16711680
-0.062288873 -0.03559877 -1.4200281 16711680
-0.059819914 -0.039049555 -1.4195322 16711680
-0.026907453 -0.055497088 -1.4270287 16711680
-0.023104263 -0.055186298 -1.4289827 16711680
-0.019277191 -0.054698236 -1.4305958 16711680
-0.063836388 -0.029259216 -1.4174283 16711680
-0.061420552 -0.032469716 -1.4165853 16711680
-0.019984346 -0.053203326 -1.4260594 16711680
-0.016528413 -0.052916996 -1.4281837 16711680
-0.06407851 -0.022958243 -1.4163127 16711680
-0.06251023 -0.025568074 -1.4147624 16711680
-0.060713053 -0.029443001 -1.4142421 16711680
-0.01721981 -0.051216371 -1.4241945 16711680
-0.01345679 -0.050045021 -1.4258448 16711680
-0.011150761 -0.049421128 -1.4283683 16711680
-0.062271923 -0.019349655 -1.4140999 16711680
-0.060557611 -0.021628056 -1.4122736 16711680
-0.010606581 -0.04660856 -1.4236553 16711680
-0.0085496176 -0.046179429 -1.4263419 16711680
-0.059950687 -0.015615334 -1.4118342 16711680
-0.058265992 -0.017673004 -1.410164 16711680
-0.0080417711 -0.042780034 -1.4216291 16711680
-0.0061464459 -0.042517401 -1.4241188 16711680
-0.057696603 -0.011570469 -1.4102749 16711680
-0.055364557 -0.013718205 -1.4083405 16711680
-0.0058835503 -0.038479842 -1.4196957 16711680
-0.0038021021 -0.038673636 -1.4225777 16711680
-0.055222731 -0.008157745 -1.4089618 16711680
-0.05257263 -0.0098247761 -1.4072583 16711680
-0.049122598 -0.011358013 -1.4060069 16711680
-0.0066519976 -0.032621462 -1.4157027 16711680
-0.0041100532 -0.034087457 -1.4182811 16711680
-0.0019321553 -0.034909628 -1.4212512 16711680
-0.053394247 -0.0055515724 -1.4082493 16711680
-0.049846597 -0.0057852822 -1.4067018 16711680
-0.046103951 -0.0080093723 -1.4053478 16711680
-0.005457541 -0.028346304 -1.4146307 16711680
-0.0022103433 -0.029607723 -1.4175818 16711680
-0.0006509833 -0.031900641 -1.4203086 16711680
-0.046835348 -0.0026270226 -1.4062915 16711680
-0.04310872 -0.0040393546 -1.4048347 16711680
-0.040001273 -0.0052901022 -1.4031255 16711680
-0.0059433989 -0.022433307 -1.4108732 16711680
-0.0037927702 -0.023660792 -1.4138321 16711680
-0.0011126716 -0.025331017 -1.4167627 16711680
-0.04008504 -0.00022781733 -1.4040382 16711680
-0.037354819 -0.0021255249 -1.4022413 16711680
-0.0045367349 -0.018531404 -1.4097276 16711680
-0.002201844 -0.019220171 -1.4127717 16711680
-0.037235763 0.0036257524 -1.402863 16711680
-0.034706168 0.001684621 -1.400988 16711680
-0.0026046485 -0.014330683 -1.4082601 16711680
-0.0004685428 -0.014732691 -1.4111272 16711680
-0.034384392 0.0076327659 -1.4012388 16711680
-0.032246649 0.0056574568 -1.3993064 16711680
-0.00026563555 -0.010337787 -1.4066159 16711680
0.0017107408 -0.010427963 -1.4094796 16711680
-0.031724017 0.011338748 -1.3997402 16711680
-0.029878758 0.0098346528 -1.3976918 16711680
0.0022571255 -0.0062481202 -1.4050893 16711680
0.0038598571 -0.0060427082 -1.407786 16711680
-0.027192229 0.013722632 -1.3962417 16711680
0.0043049064 -0.0019866414 -1.4034257 16711680
-0.023685386 0.017120061 -1.3946483 16711680
-0.021017993 0.017160827 -1.392109 16711680
0.0050825235 0.0041469596 -1.3980601 16711680
0.00562164 0.0024652816 -1.4014652 16711680
-0.020803599 0.020007037 -1.3941127 16711680
-0.0186651 0.020401925 -1.3925616 16711680
0.0061392207 0.0079854522 -1.3982235 16711680
0.0064327363 0.0063094851 -1.4003571 16711680
-0.01476266 0.022887841 -1.3921568 16711680
-0.011393802 0.023244984 -1.3910469 16711680
0.0049582887 0.015055958 -1.3947604 16711680
0.0060927775 0.012481764 -1.3968861 16711680
-0.0088049714 0.02350558 -1.3916724 16711680
-0.0043423846 0.02225234 -1.3920991 16711680
4.625693e-05 0.020060029 -1.3931055 16711680
0.0035543777 0.017320681 -1.3944848 16711680
-0.051391684 -0.050151721 -1.4237136 16711680
-0.048227198 -0.052150328 -1.4240388 16711680
-0.044738702 -0.053895149 -1.4248437 16711680
-0.041683193 -0.05505003 -1.4258765 16711680
-0.057914831 -0.04190487 -1.4197494 16711680
-0.055264466 -0.044981807 -1.4198242 16711680
-0.051703453 -0.048398808 -1.4201603 16711680
-0.047855236 -0.051385734 -1.4210224 16711680
-0.043309487 -0.05365625 -1.42206 16711680
-0.038559325 -0.054978706 -1.423309 16711680
-0.034015227 -0.055609509 -1.4246901 16711680
-0.030268092 -0.055772241 -1.4260827 16711680
-0.059771352 -0.03614923 -1.4170903 16711680
-0.057418145 -0.039538376 -1.4168612 16711680
-0.054683167 -0.043093622 -1.4165231 16711680
-0.051932424 -0.046428114 -1.4167823 16711680
-0.03581024 -0.054472923 -1.4204477 16711680
-0.031637318 -0.054561097 -1.4217545 16711680
-0.027598966 -0.05446884 -1.4237944 16711680
-0.024235833 -0.054224513 -1.4252859 16711680
-0.059043586 -0.033231862 -1.4147125 16711680
-0.05634588 -0.036506653 -1.4136831 16711680
-0.054591417 -0.040126886 -1.4135844 16711680
-0.02850339 -0.053249132 -1.419639 16711680
-0.024677949 -0.052288808 -1.4209529 16711680
-0.021200597 -0.052185826 -1.4233664 16711680
-0.059968546 -0.02684612 -1.4126198 16711680
-0.057551764 -0.029752191 -1.4120158 16711680
-0.054822691 -0.032531999 -1.4107331 16711680
-0.021482598 -0.049181882 -1.4183416 16711680
-0.018303093 -0.049369324 -1.4210271 16711680
-0.015023986 -0.049291626 -1.422863 16711680
-0.058140866 -0.023364697 -1.4104964 16711680
-0.05520818 -0.026160007 -1.4094405 16711680
-0.052865922 -0.0281846 -1.4082177 16711680
-0.018272426 -0.045408178 -1.4161046 16711680
-0.015943518 -0.045788959 -1.4184039 16711680
-0.012717743 -0.046229918 -1.4209172 16711680
-0.056084871 -0.019619936 -1.4087474 16711680
-0.052768186 -0.022197707 -1.4074376 16711680
-0.050500415 -0.024188524 -1.4062594 16711680
-0.015811857 -0.041469976 -1.4141523 16711680
-0.013516471 -0.041835301 -1.4164048 16711680
-0.010291744 -0.042614799 -1.4192132 16711680
-0.053513553 -0.016063463 -1.4073232 16711680
-0.050439715 -0.017960982 -1.4061388 16711680
-0.047445893 -0.019875815 -1.4046029 16711680
-0.013578778 -0.036819417 -1.4123499 16711680
-0.011064049 -0.037656583 -1.415121 16711680
-0.0083875209 -0.038668539 -1.4176332 16711680
-0.051436491 -0.013786227 -1.4066054 16711680
-0.047734648 -0.013963604 -1.4051896 16711680
-0.044395898 -0.016142592 -1.4034417 16711680
-0.011943265 -0.032381058 -1.4108601 16711680
-0.0091126058 -0.033328518 -1.4140218 16711680
-0.007424023 -0.035710473 -1.4166436 16711680
-0.044636607 -0.010473499 -1.4043154 16711680
-0.041423723 -0.012299072 -1.4026214 16711680
-0.038078759 -0.013231171 -1.4009988 16711680
-0.012240939 -0.026186777 -1.4069149 16711680
-0.010291629 -0.027822547 -1.4097121 16711680
-0.0078795329 -0.029030349 -1.412699 16711680
-0.042249843 -0.0078860763 -1.4037066 16711680
-0.038606621 -0.0084187025 -1.4019898 16711680
-0.035340901 -0.010237582 -1.400365 16711680
-0.011237901 -0.022268459 -1.4058126 16711680
-0.0085501727 -0.023412 -1.4088919 16711680
-0.0068546049 -0.02554306 -1.4117579 16711680
-0.035481423 -0.0044532176 -1.4010397 16711680
-0.032219328 -0.0068130614 -1.3994585 16711680
-0.029107664 -0.0078725573 -1.3983243 16711680
-0.011959285 -0.016447501 -1.4022676 16711680
-0.0098412428 -0.017922381 -1.4045782 16711680
-0.0069297533 -0.018839967 -1.4076056 16711680
-0.03242851 -0.00048911106 -1.3995206 16711680
-0.029493358 -0.0028191218 -1.3981289 16711680
-0.026649768 -0.0050214613 -1.3971574 16711680
-0.010737872 -0.013023366 -1.4008037 16711680
-0.0078410171 -0.013702244 -1.4031153 16711680
-0.0049609896 -0.01421695 -1.4057903 16711680
-0.03000306 0.0035041235 -1.3976151 16711680
-0.027247127 0.0011084573 -1.3961679 16711680
-0.024629813 -0.0013825018 -1.3953679 16711680
-0.0083908327 -0.0095246853 -1.3990856 16711680
-0.0053716023 -0.0098326746 -1.4011322 16711680
-0.002536986 -0.01024625 -1.4038953 16711680
-0.027750585 0.0074448008 -1.395545 16711680
-0.025358267 0.0050642565 -1.3938681 16711680
-0.023678388 0.0013050875 -1.3939116 16711680
-0.0063405503 -0.0074074408 -1.3978941 16711680
-0.0025000572 -0.0063572098 -1.3990847 16711680
2.0811334e-05 -0.0064430274 -1.4018983 16711680
-0.025241869 0.011117239 -1.3935112 16711680
-0.023434471 0.0091709159 -1.3916315 16711680
0.00041037053 -0.0027374923 -1.3970765 16711680
0.0021928549 -0.0026201978 -1.3997799 16711680
-0.022991946 0.014441561 -1.3923969 16711680
-0.021068625 0.013723113 -1.3901684 16711680
0.0031270366 0.0015604729 -1.3957467 16711680
0.0039454177 0.00097298808 -1.3985541 16711680
-0.017778005 0.017343681 -1.3890891 16711680
0.0044954885 0.0060650222 -1.394153 16711680
-0.014301482 0.019831598 -1.3880997 16711680
-0.011426237 0.020603672 -1.3869926 16711680
0.0043716226 0.012582917 -1.3905807 16711680
0.004925387 0.010209411 -1.3924738 16711680
-0.0083925836 0.021149226 -1.3872745 16711680
-0.004212616 0.02007518 -1.3876526 16711680
-0.00012360886 0.018029083 -1.3885847 16711680
0.003063878 0.015421011 -1.3898879 16711680
-0.049742155 -0.048472613 -1.4169983 16711680
-0.046359301 -0.050921634 -1.417389 16711680
-0.042425632 -0.052867524 -1.4182352 16711680
-0.039007176 -0.053942986 -1.4194192 16711680
-0.052431077 -0.043499559 -1.4134165 16711680
-0.04974094 -0.046848521 -1.4137244 16711680
-0.045916438 -0.050065175 -1.4142697 16711680
-0.041033935 -0.052534074 -1.4154365 16711680
-0.036186062 -0.053598925 -1.4168539 16711680
-0.03206357 -0.053626195 -1.4180111 16711680
-0.053901806 -0.037567332 -1.4112152 16711680
-0.052408315 -0.040706672 -1.4104993 16711680
-0.05027457 -0.0445178 -1.4101509 16711680
-0.03292729 -0.053181924 -1.4140677 16711680
-0.028990062 -0.052413691 -1.415795 16711680
-0.026065689 -0.051497132 -1.417523 16711680
-0.052605577 -0.034430869 -1.4083712 16711680
-0.051912699 -0.037695654 -1.4075779 16711680
-0.025877116 -0.050663646 -1.4134856 16711680
-0.023231158 -0.049015708 -1.4150628 16711680
-0.051108532 -0.030050673 -1.4063414 16711680
-0.020042202 -0.045589335 -1.4134469 16711680
-0.048632693 -0.026116516 -1.4044118 16711680
-0.017660309 -0.041579627 -1.4114755 16711680
-0.045645595 -0.02264132 -1.4029007 16711680
-0.042810135 -0.023269277 -1.4005305 16711680
-0.017210513 -0.036068339 -1.4064616 16711680
-0.0160724 -0.037441872 -1.4096799 16711680
-0.042639896 -0.018771699 -1.4020783 16711680
-0.040194787 -0.02024767 -1.4002527 16711680
-0.01624899 -0.032198079 -1.4056635 16711680
-0.014405675 -0.03296994 -1.4086062 16711680
-0.040224157 -0.015707903 -1.4014844 16711680
-0.036855973 -0.016552769 -1.3998102 16711680
-0.033070195 -0.017924488 -1.3981692 16711680
-0.01762867 -0.025758218 -1.4016488 16711680
-0.015019241 -0.0274575 -1.4047978 16711680
-0.013156026 -0.02923638 -1.4076662 16711680
-0.033811737 -0.012929764 -1.3994557 16711680
-0.030145649 -0.015003797 -1.3981472 16711680
-0.025542732 -0.016634962 -1.3975497 16711680
-0.020351971 -0.019240007 -1.3987384 16711680
-0.016848207 -0.021656398 -1.4011881 16711680
-0.013728973 -0.023013737 -1.4040755 16711680
-0.031020023 -0.0097325286 -1.3989073 16711680
-0.027700925 -0.010637009 -1.3980136 16711680
-0.023423107 -0.013252915 -1.3976488 16711680
-0.018909991 -0.015426562 -1.3986646 16711680
-0.014667648 -0.017060658 -1.4010023 16711680
-0.012577193 -0.018935332 -1.4031266 16711680
-0.024558976 -0.006584934 -1.3968242 16711680
-0.020866094 -0.0090850359 -1.3968459 16711680
-0.016815726 -0.011105984 -1.3977702 16711680
-0.012918313 -0.012404231 -1.3994808 16711680
-0.022309132 -0.0023120502 -1.394725 16711680
-0.018335763 -0.0047318423 -1.3946967 16711680
-0.014093118 -0.0068577863 -1.3956678 16711680
-0.010104775 -0.0084141167 -1.3975109 16711680
-0.022624558 0.0041362755 -1.3920687 16711680
-0.020422766 0.0014942316 -1.3920003 16711680
-0.016245771 -0.0011955593 -1.3919586 16711680
-0.011536479 -0.0035624644 -1.3930441 16711680
-0.0071888212 -0.0050980616 -1.3950249 16711680
-0.004125338 -0.0053388737 -1.396511 16711680
-0.021296935 0.0073335692 -1.3898621 16711680
-0.018210635 0.0046605431 -1.3886782 16711680
-0.014171708 0.001411574 -1.3890153 16711680
-0.0095667727 -0.00090134423 -1.3900926 16711680
-0.0048259385 -0.0020336676 -1.39174 16711680
-0.0015391465 -0.0025492422 -1.3943758 16711680
-0.018923376 0.01081267 -1.386968 16711680
-0.017433675 0.0079678409 -1.38589 16711680
-0.0017216764 0.0001114523 -1.3894844 16711680
0.00089330785 0.00089268666 -1.3915282 16711680
-0.016338903 0.014377514 -1.3854121 16711680
-0.014947794 0.013650972 -1.3833747 16711680
0.0022035576 0.0051153712 -1.3873018 16711680
0.0027769711 0.0048274118 -1.3897706 16711680
-0.014044332 0.017119139 -1.3851073 16711680
-0.011360995 0.017414467 -1.3831985 16711680
0.0032226462 0.01012779 -1.3865339 16711680
0.0037430953 0.0081035607 -1.3892093 16711680
-0.0080864392 0.018718353 -1.3832934 16711680
-0.0048140995 0.017715927 -1.3829894 16711680
1.4014542e-05 0.015299834 -1.3840902 16711680
0.0023890715 0.013507683 -1.3856572 16711680
-0.047847584 -0.0470808 -1.4099101 16711680
-0.044448297 -0.049816899 -1.4101787 16711680
-0.040155306 -0.051958904 -1.4111191 16711680
-0.036126345 -0.052943267 -1.4125973 16711680
-0.050447486 -0.04217533 -1.4065855 16711680
-0.048295964 -0.045867283 -1.4072362 16711680
-0.044609167 -0.049261637 -1.4072157 16711680
-0.038613856 -0.052262239 -1.4085873 16711680
-0.034020331 -0.05300824 -1.4104795 16711680
-0.029811829 -0.052498888 -1.4113244 16711680
-0.050865941 -0.035976585 -1.4037849 16711680
-0.050918765 -0.038776021 -1.4043244 16711680
-0.026130021 -0.051162571 -1.4099773 16711680
-0.023999913 -0.049642641 -1.4100267 16711680
-0.049843166 -0.03318616 -1.4019792 16711680
-0.021622511 -0.047373317 -1.4083714 16711680
-0.047189232 -0.029126875 -1.4001426 16711680
-0.019250453 -0.043079555 -1.4064898 16711680
-0.044876114 -0.026588898 -1.3996387 16711680
-0.042864695 -0.02577012 -1.3983152 16711680
-0.018361963 -0.038028896 -1.4039085 16711680
-0.018381197 -0.039920583 -1.4056587 16711680
-0.038749389 -0.02327447 -1.3976151 16711680
-0.035624083 -0.023320463 -1.3960505 16711680
-0.019563841 -0.031471588 -1.3997198 16711680
-0.018400548 -0.033434428 -1.4022584 16711680
-0.035812292 -0.020173831 -1.3981951 16711680
-0.032531098 -0.021169152 -1.3966459 16711680
-0.027821979 -0.022324916 -1.3957614 16711680
-0.022894774 -0.024765771 -1.3969015 16711680
-0.01978205 -0.027543059 -1.3995543 16711680
-0.017836425 -0.029551372 -1.4023454 16711680
-0.02942531 -0.01835734 -1.3973323 16711680
-0.026039517 -0.019604063 -1.3970165 16711680
-0.022096163 -0.02150918 -1.3979459 16711680
-0.019547155 -0.023310225 -1.3995852 16711680
-0.015577635 0.0047874972 -1.3863922 16711680
-0.012622187 0.0025635473 -1.3869468 16711680
-0.008817574 0.0006558951 -1.3878218 16711680
-0.0053461473 -0.00032339431 -1.3887168 16711680
-0.015184698 0.0072255172 -1.3832678 16711680
-0.011723893 0.0038854163 -1.3837775 16711680
-0.0071641151 0.0016196258 -1.3847824 16711680
-0.0026697069 0.00090644695 -1.3861411 16711680
-0.014020018 0.01102528 -1.3808804 16711680
0.00056152605 0.0037672445 -1.3841628 16711680
-0.010445796 0.014446788 -1.379531 16711680
-0.0071498714 0.014324993 -1.3776293 16711680
0.00037886947 0.010533193 -1.3791806 16711680
0.0017222613 0.0084175877 -1.3822474 16711680
-0.0076158531 0.016476102 -1.3800154 16711680
-0.0047893431 0.015035126 -1.3791518 16711680
-0.00070757046 0.012994844 -1.3800837 16711680
0.0016142689 0.011838377 -1.3821205 16711680
-0.042076979 -0.05092549 -1.4073149 16711680
-0.041018166 -0.051425364 -1.4076298 16711680
-0.049911998 -0.044120952 -1.4013828 16711680
-0.047382135 -0.047484294 -1.403185 16711680
-0.04380814 -0.050441261 -1.4045352 16711680
-0.03898517 -0.052852221 -1.4056453 16711680
-0.034344938 -0.054015093 -1.4061594 16711680
-0.029750327 -0.054209523 -1.4059701 16711680
-0.051361576 -0.038666483 -1.3984035 16711680
-0.05087591 -0.040818103 -1.4004006 16711680
-0.026401304 -0.053078845 -1.4060187 16711680
-0.02364059 -0.052498102 -1.4045956 16711680
-0.050534498 -0.034932129 -1.3970916 16711680
-0.02085704 -0.049770474 -1.403873 16711680
-0.047781225 -0.030868366 -1.3952441 16711680
-0.018560246 -0.04548458 -1.4019146 16711680
-0.045090616 -0.028737349 -1.3934122 16711680
-0.042647425 -0.027343521 -1.3940505 16711680
-0.018209837 -0.039615013 -1.3997498 16711680
-0.017759897 -0.042332962 -1.3997239 16711680
-0.038935065 -0.025828365 -1.3923506 16711680
-0.035622317 -0.02480777 -1.3931425 16711680
-0.019686405 -0.032775063 -1.3967822 16711680
-0.018420905 -0.036111668 -1.3970727 16711680
-0.036058854 -0.024779323 -1.389799 16711680
-0.032521997 -0.024333026 -1.3914652 16711680
-0.027998134 -0.024464065 -1.3921387 16711680
-0.023188002 -0.026847925 -1.3933365 16711680
-0.020380557 -0.030453473 -1.3943074 16711680
-0.018218722 -0.033701785 -1.3938117 16711680
-0.025968922 -0.024710573 -1.3896573 16711680
-0.023548698 -0.025927495 -1.390215 16711680
-0.012963867 0.0064089652 -1.3796704 16711680
-0.010320015 0.0041744318 -1.3796827 16711680
-0.0062817466 0.0021545198 -1.3805928 16711680
-0.0031671096 0.0014982522 -1.3819286 16711680
-0.01203583 0.0084069185 -1.3776622 16711680
-0.0097832512 0.0055629089 -1.3763791 16711680
-0.0044657327 0.0028245728 -1.3776567 16711680
-0.001408143 0.0030841157 -1.3800652 16711680
-0.0098249875 0.011296384 -1.3765163 16711680
-0.0065490846 0.010662729 -1.3752004 16711680
-0.0017415117 0.0082577206 -1.3762914 16711680
9.1098249e-05 0.0064319149 -1.3788375 16711680
-0.0043520294 0.012852967 -1.3768659 16711680
-0.0018383656 0.011598013 -1.3774378 16711680
-0.051189691 -0.050561219 -1.3970225 16711680
-0.048445925 -0.052387521 -1.3987266 16711680
-0.044512153 -0.054584067 -1.4004191 16711680
-0.040332727 -0.056665983 -1.401376 16711680
-0.03600999 -0.058602996 -1.4015801 16711680
-0.032700557 -0.060039446 -1.4012221 16711680
-0.053503908 -0.044802435 -1.394696 16711680
-0.051597342 -0.046776652 -1.3972501 16711680
-0.04839544 -0.049612686 -1.3998288 16711680
-0.044142552 -0.051989827 -1.4019967 16711680
-0.03905832 -0.054521516 -1.4031599 16711680
-0.034251146 -0.056606971 -1.4031155 16711680
-0.029435365 -0.057855137 -1.4023104 16711680
-0.025986241 -0.058549874 -1.4009734 16711680
-0.053122923 -0.040798359 -1.3943868 16711680
-0.051796686 -0.042709935 -1.3976166 16711680
-0.026285956 -0.055392422 -1.4034508 16711680
-0.022949925 -0.055801723 -1.4012369 16711680
-0.052978218 -0.035980549 -1.389712 16711680
-0.052209064 -0.036093313 -1.392508 16711680
-0.019243008 -0.052543506 -1.4000535 16711680
-0.017573129 -0.053288259 -1.397681 16711680
-0.051174115 -0.033000138 -1.3883064 16711680
-0.049659088 -0.032026049 -1.3906691 16711680
-0.01683934 -0.048432499 -1.3981634 16711680
-0.01592961 -0.050571069 -1.3963355 16711680
-0.046051111 -0.028742051 -1.3888221 16711680
-0.042727038 -0.027226394 -1.3905858 16711680
-0.016821491 -0.040215097 -1.396489 16711680
-0.015583186 -0.044048429 -1.3957614 16711680
-0.042897217 -0.026332773 -1.3864785 16711680
-0.039930776 -0.025581103 -1.388262 16711680
-0.016277492 -0.037417077 -1.3936952 16711680
-0.014626035 -0.040482841 -1.3929489 16711680
-0.040455557 -0.024601499 -1.3842607 16711680
-0.03679036 -0.02388986 -1.3857719 16711680
-0.032791547 -0.023679487 -1.3875751 16711680
-0.028124709 -0.024059108 -1.3890306 16711680
-0.021696903 -0.027288618 -1.3905343 16711680
-0.018408883 -0.030845212 -1.3908552 16711680
-0.015771888 -0.034399532 -1.3905734 16711680
-0.013823137 -0.037939023 -1.3903557 16711680
-0.033791579 -0.022523906 -1.3834714 16711680
-0.030239103 -0.022692513 -1.3847513 16711680
-0.025855701 -0.023574695 -1.3860972 16711680
-0.021522962 -0.025737692 -1.3870895 16711680
-0.018076655 -0.028781891 -1.387612 16711680
-0.015512075 -0.031656712 -1.3876363 16711680
-0.022401853 -0.023633014 -1.3834701 16711680
-0.0076285563 0.0054907557 -1.3748842 16711680
-0.0048314091 0.004229622 -1.375434 16711680
-0.0062936265 0.0072563253 -1.3741105 16711680
-0.0041127242 0.0061707068 -1.3746077 16711680
-0.048270717 -0.064549834 -1.3974454 16711680
-0.045361273 -0.066005662 -1.3981321 16711680
-0.053632461 -0.056952521 -1.394395 16711680
-0.051305488 -0.059246432 -1.3961214 16711680
-0.047412075 -0.061308794 -1.3977687 16711680
-0.042996451 -0.063561082 -1.3987701 16711680
-0.038713992 -0.06546244 -1.3989936 16711680
-0.03514244 -0.066170976 -1.3986177 16711680
-0.055288322 -0.05061052 -1.3918368 16711680
-0.05353988 -0.052808627 -1.3943315 16711680
-0.05016692 -0.055317238 -1.3969243 16711680
-0.046113454 -0.057594165 -1.3986403 16711680
-0.041230746 -0.060100943 -1.3997393 16711680
-0.03666015 -0.062075924 -1.4000092 16711680
-0.031970892 -0.063603148 -1.3992271 16711680
-0.02849534 -0.063988812 -1.3979613 16711680
-0.055287682 -0.046854146 -1.3916204 16711680
-0.05363401 -0.049020622 -1.394515 16711680
-0.029139718 -0.061098211 -1.4002452 16711680
-0.025565788 -0.061708607 -1.3984396 16711680
-0.055693567 -0.041066982 -1.3880917 16711680
-0.055166937 -0.042334128 -1.390519 16711680
-0.021724021 -0.059006959 -1.3981515 16711680
-0.019654222 -0.059086151 -1.3963348 16711680
-0.054292217 -0.037234832 -1.3871522 16711680
-0.05388489 -0.038021374 -1.3902291 16711680
-0.019038843 -0.055488907 -1.3981842 16711680
-0.017115192 -0.055838056 -1.395614 16711680
-0.051998354 -0.033199586 -1.3852922 16711680
-0.049755618 -0.031126473 -1.3870417 16711680
-0.014801107 -0.048525102 -1.3949871 16711680
-0.014589676 -0.051879674 -1.3938216 16711680
-0.049333133 -0.029854622 -1.3831733 16711680
-0.047548577 -0.028767738 -1.3850105 16711680
-0.01351181 -0.045880482 -1.3928447 16711680
-0.012695771 -0.048197102 -1.391495 16711680
-0.047144216 -0.027587418 -1.3809782 16711680
-0.044477545 -0.026141439 -1.3825444 16711680
-0.012208537 -0.042324312 -1.389852 16711680
-0.011360982 -0.045435514 -1.389099 16711680
-0.040878277 -0.023985919 -1.380451 16711680
-0.037660904 -0.023111913 -1.3820248 16711680
-0.013407892 -0.035242409 -1.3875878 16711680
-0.011777664 -0.038495295 -1.3870487 16711680
-0.038135674 -0.022670552 -1.3779465 16711680
-0.034532458 -0.022061996 -1.379627 16711680
-0.030192658 -0.021849595 -1.3807595 16711680
-0.025110485 -0.022732323 -1.3825786 16711680
-0.020027127 -0.025265396 -1.3837191 16711680
-0.016014226 -0.02891632 -1.3839937 16711680
-0.013445592 -0.032611422 -1.38449 16711680
-0.011370818 -0.036073409 -1.3840938 16711680
-0.027887002 -0.021661926 -1.3785864 16711680
-0.023820113 -0.022665622 -1.3799088 16711680
-0.019749342 -0.024701457 -1.3808621 16711680
-0.016316647 -0.027455162 -1.3812646 16711680
-0.055096246 -0.068898037 -1.3953223 16711680
-0.0523149 -0.071595639 -1.3970513 16711680
-0.04807464 -0.073683396 -1.3980311 16711680
-0.043862455 -0.074501246 -1.3978922 16711680
-0.056511238 -0.063214019 -1.392565 16711680
-0.054466508 -0.064930663 -1.3949252 16711680
-0.050046057 -0.066913851 -1.3970813 16711680
-0.045658268 -0.069117561 -1.3980833 16711680
-0.041017741 -0.0717353 -1.3979955 16711680
-0.037775856 -0.072571747 -1.3968434 16711680
-0.055545852 -0.059103139 -1.3916951 16711680
-0.053357266 -0.061103452 -1.3949795 16711680
-0.050121941 -0.06344825 -1.3968315 16711680
-0.042820692 -0.067126594 -1.3984876 16711680
-0.038681038 -0.068421386 -1.3983303 16711680
-0.03487717 -0.069498561 -1.3964378 16711680
-0.056057774 -0.052537363 -1.3888299 16711680
-0.055667836 -0.055215307 -1.3905259 16711680
-0.031295452 -0.067386843 -1.3960007 16711680
-0.028515207 -0.066334993 -1.3950806 16711680
-0.056361623 -0.048706569 -1.3871886 16711680
-0.024870686 -0.064435229 -1.3945061 16711680
-0.056719743 -0.043162912 -1.3845882 16711680
-0.056763016 -0.045673929 -1.385908 16711680
-0.021835662 -0.063125484 -1.3938494 16711680
-0.019476652 -0.061790988 -1.393093 16711680
-0.055577599 -0.038617793 -1.3824755 16711680
-0.015863083 -0.058514141 -1.3915215 16711680
-0.053395703 -0.034609094 -1.3804839 16711680
-0.013246592 -0.054685459 -1.3896464 16711680
-0.050526842 -0.030878473 -1.3788738 16711680
-0.011332901 -0.05043681 -1.3877715 16711680
-0.047225635 -0.027703555 -1.3771505 16711680
-0.044967622 -0.025821116 -1.3783579 16711680
-0.01027159 -0.04319749 -1.3862852 16711680
-0.010062845 -0.046252348 -1.3855536 16711680
-0.044638917 -0.025918413 -1.374931 16711680
-0.042018559 -0.024371687 -1.3759018 16711680
-0.0098875966 -0.04044468 -1.383276 16711680
-0.0093385857 -0.043680858 -1.3830597 16711680
-0.038379379 -0.022974774 -1.3744192 16711680
-0.034886535 -0.022111654 -1.3750101 16711680
-0.031142296 -0.021532044 -1.3769157 16711680
-0.013890321 -0.030152488 -1.3808626 16711680
-0.01163489 -0.033773914 -1.3803478 16711680
-0.010258371 -0.037000053 -1.3808775 16711680
-0.031871967 -0.021793198 -1.3736219 16711680
-0.02817376 -0.021800369 -1.3744767 16711680
-0.022951387 -0.022859987 -1.374854 16711680
-0.018569645 -0.02505138 -1.375846 16711680
-0.014906276 -0.028382523 -1.3775535 16711680
-0.012548978 -0.03143774 -1.3780401 16711680
-0.05828435 -0.068994462 -1.3889563 16711680
-0.055430628 -0.069739811 -1.3927274 16711680
-0.051861204 -0.072067916 -1.3946166 16711680
-0.047816694 -0.07406728 -1.3955193 16711680
-0.043449394 -0.075727478 -1.3954521 16711680
-0.040020149 -0.078141063 -1.393134 16711680
-0.058147505 -0.064928256 -1.38925 16711680
-0.054328054 -0.067037456 -1.3905975 16711680
-0.049973201 -0.069074124 -1.3911884 16711680
-0.045301639 -0.071411654 -1.3922577 16711680
