# .PCD v0.7 - Point Cloud Data file format
VERSION 0.7
FIELDS x y z
SIZE 4 4 4
TYPE F F F
COUNT 1 1 1
WIDTH 1453
HEIGHT 1
VIEWPOINT 0 0 0 1 0 0 0
POINTS 1453
DATA ascii
0.3904565 -0.12219299 -1.445765
-0.39340296 -0.115211 -1.44627
0.39059296 -0.115211 -1.44627
-0.39340299 -0.10537601 -1.44627
0.39059299 -0.10537601 -1.44627
-0.39340296 -0.095540762 -1.44627
0.39059296 -0.095540702 -1.44627
-0.39340299 -0.085705653 -1.44627
0.39059299 -0.085705601 -1.44627
-0.39340299 -0.074465573 -1.44627
0.39059249 -0.074465454 -1.446265
-0.39340296 -0.064630501 -1.44627
0.39059201 -0.064630397 -1.44626
-0.39340299 -0.054795373 -1.44627
0.39059201 -0.054795302 -1.44626
-0.39340296 -0.044960301 -1.44627
0.39059201 -0.044960264 -1.44626
-0.39340299 -0.035125226 -1.44627
0.39059201 -0.0351252 -1.44626
-0.39340201 -0.025290167 -1.44626
0.39059201 -0.025290167 -1.44626
-0.39340201 -0.0154551 -1.44626
0.39059201 -0.0154551 -1.44626
-0.39340201 -0.005620033 -1.44626
0.39059201 -0.005620033 -1.44626
-0.39235988 0.0048187743 -1.4468613
-0.38481688 0.0053429296 -1.4477938
-0.37508571 0.0058790981 -1.4475443
-0.36466265 0.005368615 -1.4477817
-0.35493511 0.0059044613 -1.4475329
-0.34456041 0.0056237802 -1.4476633
-0.33471575 0.0056237802 -1.4476633
-0.32487124 0.0056237797 -1.4476633
-0.31502655 0.0056237797 -1.4476632
-0.30954099 0.0042203749 -1.4483149
-0.22361267 0.0056237802 -1.4476633
-0.21517439 0.0056237802 -1.4476632
-0.20532979 0.0056237797 -1.4476633
-0.19548534 0.0056237802 -1.4476633
-0.18463272 0.005368616 -1.447782
-0.174936 0.0059044608 -1.4475329
-0.16454518 0.0056237802 -1.4476633
-0.15470067 0.0056237807 -1.4476633
-0.14485599 0.0056237802 -1.4476632
-0.13501135 0.0056237807 -1.4476632
-0.12516682 0.0056237802 -1.4476634
-0.11532222 0.0056237802 -1.4476634
-0.10547766 0.0056237802 -1.4476634
-0.094617672 0.005368616 -1.4477818
-0.084936552 0.0059044613 -1.447533
-0.074537553 0.0056237797 -1.4476632
-0.064692967 0.0056237802 -1.4476632
-0.054848384 0.0056237802 -1.4476633
-0.047816534 0.0056237802 -1.4476633
0.045003787 0.0056237802 -1.4476633
0.054848377 0.0056237797 -1.4476632
0.064692967 0.0056237802 -1.4476634
0.074537553 0.0056237802 -1.4476633
0.084936544 0.0059044613 -1.447533
0.094617672 0.005368616 -1.4477818
0.10547767 0.0056237802 -1.4476633
0.11532223 0.0056237802 -1.4476634
0.12516685 0.0056237802 -1.4476632
0.13501135 0.0056237802 -1.4476633
0.14485599 0.0056237802 -1.4476632
0.15470068 0.0056237802 -1.4476634
0.16454516 0.0056237802 -1.4476634
0.174936 0.0059044613 -1.447533
0.18463273 0.0053686155 -1.4477817
0.19548534 0.0056237807 -1.4476634
0.20532981 0.0056237802 -1.4476634
0.211146 0.0028152801 -1.44897
0.30940136 0.0056237802 -1.4476633
0.31502658 0.0056237797 -1.4476632
0.32487121 0.0056237802 -1.4476634
0.33471578 0.0056237807 -1.4476634
0.34456041 0.0056237802 -1.4476634
0.35493508 0.0059044613 -1.4475329
0.36466262 0.005368616 -1.4477818
0.37508571 0.0058790981 -1.4475445
0.38481694 0.0053429301 -1.4477941
0.39059201 0.0042150249 -1.44626
-0.39208618 0.01458062 -1.44349
-0.38521639 0.015697295 -1.4429699
-0.37496489 0.015019558 -1.4432859
-0.36525637 0.015816694 -1.4429142
-0.35468936 0.015418127 -1.4431001
-0.34487584 0.015418127 -1.4431001
-0.33506235 0.015418126 -1.4431001
-0.32485044 0.015096009 -1.4432499
-0.31512603 0.015697295 -1.44297
-0.221705 0.01262815 -1.4444001
-0.21449596 0.015418126 -1.4431
-0.20468253 0.015418127 -1.4431001
-0.19486894 0.015418126 -1.4431
-0.18505524 0.015418126 -1.4431
-0.17524174 0.015418126 -1.4431
-0.1650137 0.015096009 -1.4432501
-0.15531987 0.015697295 -1.4429699
-0.14439926 0.015418127 -1.4431002
-0.13458559 0.015418126 -1.4431
-0.12477218 0.015418126 -1.4431
-0.11495841 0.015418126 -1.4431
-0.10514506 0.015418127 -1.4431
-0.095331527 0.015418126 -1.4431
-0.085517995 0.015418126 -1.4431
-0.074302539 0.015418126 -1.4431
-0.06448897 0.015418127 -1.4431
-0.05467543 0.015418126 -1.4431002
-0.046263825 0.015418125 -1.4431
0.044861894 0.015418126 -1.4431
0.054675423 0.015418126 -1.4431
0.06448897 0.015418126 -1.4430999
0.074302532 0.015418126 -1.4431
0.085518003 0.015418126 -1.4431002
0.095331542 0.015418126 -1.4431
0.10514507 0.015418126 -1.4431001
0.11495841 0.015418127 -1.4431001
0.12477218 0.015418126 -1.4431001
0.13458559 0.015418126 -1.4430999
0.14439926 0.015418127 -1.4431
0.15531988 0.015697295 -1.4429699
0.1650137 0.015096009 -1.4432501
0.17524174 0.015418126 -1.4430999
0.18505524 0.015418126 -1.4431
0.19486894 0.015418126 -1.4431
0.20468248 0.015418127 -1.4431
0.30842549 0.015418125 -1.4431
0.31512597 0.015697295 -1.4429699
0.32485044 0.015096009 -1.4432499
0.33506235 0.015418127 -1.4430997
0.34487581 0.015418127 -1.4431
0.3546893 0.015418127 -1.4431
0.36525637 0.015816694 -1.4429142
0.37496492 0.015019559 -1.4432857
0.38521644 0.015697295 -1.4429703
0.39026499 0.0112306 -1.44505
-0.4007 0.193345 -1.4421901
-0.39509764 0.19334567 -1.4421934
-0.38529325 0.19334699 -1.442205
-0.37548599 0.19334702 -1.4422098
-0.36567849 0.19334701 -1.44221
-0.35447001 0.19334701 -1.44221
-0.34466267 0.19334702 -1.4422098
-0.33485502 0.19334701 -1.44221
-0.32504767 0.19334702 -1.4422098
-0.31524 0.19334701 -1.44221
-0.30543301 0.19334702 -1.4422098
-0.29562503 0.19334701 -1.44221
-0.28441674 0.19334701 -1.44221
-0.274609 0.19334702 -1.4422098
-0.26480201 0.19334701 -1.44221
-0.254994 0.19334702 -1.4422098
-0.24518698 0.19334701 -1.44221
-0.235379 0.19334702 -1.4422098
-0.22557199 0.19334701 -1.44221
-0.21436299 0.19334701 -1.44221
-0.204556 0.19334702 -1.4422098
-0.19474825 0.19334701 -1.44221
-0.18494099 0.19334702 -1.4422098
-0.17513326 0.19334701 -1.44221
-0.165326 0.19334702 -1.4422098
-0.1555185 0.19334701 -1.44221
-0.14431001 0.19334701 -1.44221
-0.13450234 0.19334702 -1.4422098
-0.124695 0.19334701 -1.44221
-0.11488766 0.19334702 -1.4422098
-0.10508 0.19334701 -1.44221
-0.095272563 0.19334702 -1.4422098
-0.085465103 0.19334701 -1.44221
-0.074256577 0.19334701 -1.44221
-0.064449102 0.19334702 -1.4422098
-0.054641627 0.19334701 -1.44221
-0.044834167 0.19334702 -1.4422098
-0.035026677 0.19334701 -1.44221
-0.0252192 0.19334702 -1.4422098
-0.015411725 0.19334701 -1.44221
-0.0056042667 0.19334702 -1.4422098
0.0042031999 0.19334701 -1.44221
0.015411725 0.19334701 -1.44221
0.0252192 0.19334702 -1.4422098
0.035026673 0.19334701 -1.44221
0.044834167 0.19334702 -1.4422098
0.054641627 0.19334701 -1.44221
0.064449102 0.19334702 -1.4422098
0.074256577 0.19334701 -1.44221
0.085465103 0.19334701 -1.44221
0.095272563 0.19334702 -1.4422098
0.10508 0.19334701 -1.44221
0.11488766 0.19334702 -1.4422098
0.124695 0.19334701 -1.44221
0.13450234 0.19334702 -1.4422098
0.14431001 0.19334701 -1.44221
0.1555185 0.19334701 -1.44221
0.165326 0.19334702 -1.4422098
0.17513326 0.19334701 -1.44221
0.18494099 0.19334702 -1.4422098
0.19474825 0.19334701 -1.44221
0.20455599 0.19334702 -1.4422098
0.21436299 0.19334701 -1.44221
0.225572 0.19334701 -1.44221
0.23537898 0.19334702 -1.4422098
0.245187 0.19334701 -1.44221
0.254994 0.19334702 -1.4422098
0.26480201 0.19334701 -1.44221
0.274609 0.19334702 -1.4422098
0.28441674 0.19334701 -1.44221
0.295625 0.19334701 -1.44221
0.30543301 0.19334702 -1.4422098
0.31524 0.19334701 -1.44221
0.32504764 0.19334702 -1.4422098
0.33485502 0.19334701 -1.44221
0.34466267 0.19334702 -1.4422098
0.35447001 0.19334701 -1.44221
0.36567849 0.19334701 -1.44221
0.37548634 0.19334733 -1.4422098
0.38529199 0.1933465 -1.4422026
0.39509699 0.19334532 -1.4421901
-0.39179 -0.130597 -1.43012
-0.38484323 -0.130597 -1.43012
-0.37511835 -0.130597 -1.43012
-0.36539301 -0.130597 -1.43012
-0.35427824 -0.130597 -1.43012
-0.34455299 -0.130597 -1.43012
-0.33482775 -0.130597 -1.43012
-0.32510233 -0.130597 -1.43012
-0.315377 -0.130597 -1.43012
-0.30426249 -0.130597 -1.43012
-0.29453734 -0.130597 -1.43012
-0.284812 -0.130597 -1.43012
-0.27508667 -0.130597 -1.43012
-0.26536125 -0.130597 -1.43012
-0.25424677 -0.130597 -1.43012
-0.24452133 -0.130597 -1.43012
-0.23479626 -0.130597 -1.43012
-0.22507101 -0.130597 -1.43012
-0.21534576 -0.130597 -1.43012
-0.20423099 -0.130597 -1.43012
-0.19450568 -0.130597 -1.43012
-0.18478024 -0.130597 -1.43012
-0.17505501 -0.130597 -1.43012
-0.16532999 -0.130597 -1.43012
-0.15421526 -0.130597 -1.43012
-0.14449 -0.130597 -1.43012
-0.13476475 -0.130597 -1.43012
-0.12503934 -0.130597 -1.43012
-0.11531401 -0.130597 -1.43012
-0.1041995 -0.130597 -1.43012
-0.094474196 -0.130597 -1.43012
-0.084748894 -0.130597 -1.43012
-0.075023629 -0.130597 -1.43012
-0.065298349 -0.130597 -1.43012
-0.054183751 -0.130597 -1.43012
-0.044458434 -0.130597 -1.43012
-0.034733154 -0.130597 -1.43012
-0.025007868 -0.130597 -1.43012
-0.0152826 -0.130597 -1.43012
-0.0055573066 -0.130597 -1.43012
0.00416798 -0.130597 -1.43012
0.0152826 -0.130597 -1.43012
0.025007866 -0.130597 -1.43012
0.03473315 -0.130597 -1.43012
0.044458434 -0.130597 -1.43012
0.054183751 -0.130597 -1.43012
0.065298349 -0.130597 -1.43012
0.075023629 -0.130597 -1.43012
0.084748894 -0.130597 -1.43012
0.094474196 -0.130597 -1.43012
0.1041995 -0.130597 -1.43012
0.11531401 -0.130597 -1.43012
0.12503934 -0.130597 -1.43012
0.13476475 -0.130597 -1.43012
0.14449 -0.130597 -1.43012
0.15421525 -0.130597 -1.43012
0.16532999 -0.130597 -1.43012
0.17505498 -0.130597 -1.43012
0.18478024 -0.130597 -1.43012
0.19450568 -0.130597 -1.43012
0.20423099 -0.130597 -1.43012
0.21534576 -0.130597 -1.43012
0.225071 -0.130597 -1.43012
0.23479626 -0.130597 -1.43012
0.24452133 -0.130597 -1.43012
0.25424677 -0.130597 -1.43012
0.26536128 -0.130597 -1.43012
0.27508667 -0.130597 -1.43012
0.284812 -0.130597 -1.43012
0.29453734 -0.130597 -1.43012
0.30426249 -0.130597 -1.43012
0.315377 -0.130597 -1.43012
0.32510233 -0.130597 -1.43012
0.33482775 -0.130597 -1.43012
0.34455299 -0.130597 -1.43012
0.35427827 -0.130597 -1.43012
0.36539298 -0.130597 -1.43012
0.37511835 -0.130597 -1.43012
0.38484326 -0.130597 -1.43012
-0.39258099 -0.126211 -1.43555
-0.38479733 -0.12826601 -1.43513
-0.37503776 -0.12826601 -1.43513
-0.36527833 -0.12826601 -1.43513
-0.35551924 -0.12826601 -1.43513
-0.34436551 -0.12826601 -1.43513
-0.33460632 -0.12826601 -1.43513
-0.32484674 -0.12826601 -1.43513
-0.31508768 -0.12826601 -1.43513
-0.30532825 -0.12826601 -1.43513
-0.29556867 -0.12826601 -1.43513
-0.28580952 -0.12826601 -1.43513
-0.274656 -0.12826601 -1.43513
-0.26489666 -0.12826601 -1.43513
-0.25513726 -0.12826601 -1.43513
-0.245378 -0.12826601 -1.43513
-0.2356185 -0.12826601 -1.43513
-0.224465 -0.12826601 -1.43513
-0.21470566 -0.12826601 -1.43513
-0.2049465 -0.12826601 -1.43513
-0.19518702 -0.12826601 -1.43513
-0.18542749 -0.12826601 -1.43513
-0.17427425 -0.12826601 -1.43513
-0.16451466 -0.12826601 -1.43513
-0.1547555 -0.12826601 -1.43513
-0.144996 -0.12826601 -1.43513
-0.1352365 -0.12826601 -1.43513
-0.12547733 -0.12826601 -1.43513
-0.115718 -0.12826601 -1.43513
-0.1045645 -0.12826601 -1.43513
-0.094805099 -0.12826601 -1.43513
-0.085045777 -0.12826601 -1.43513
-0.075286396 -0.12826601 -1.43513
-0.065527052 -0.12826601 -1.43513
-0.054373499 -0.12826601 -1.43513
-0.0446142 -0.12826601 -1.43513
-0.0348548 -0.12826601 -1.43513
-0.0250955 -0.12826601 -1.43513
-0.015336099 -0.12826601 -1.43513
-0.0055767731 -0.12826601 -1.43513
0.0041825799 -0.12826601 -1.43513
0.015336099 -0.12826601 -1.43513
0.0250955 -0.12826601 -1.43513
0.0348548 -0.12826601 -1.43513
0.0446142 -0.12826601 -1.43513
0.054373499 -0.12826601 -1.43513
0.065527052 -0.12826601 -1.43513
0.075286403 -0.12826601 -1.43513
0.085045777 -0.12826601 -1.43513
0.094805099 -0.12826601 -1.43513
0.1045645 -0.12826601 -1.43513
0.115718 -0.12826601 -1.43513
0.12547733 -0.12826601 -1.43513
0.1352365 -0.12826601 -1.43513
0.14499599 -0.12826601 -1.43513
0.15475549 -0.12826601 -1.43513
0.16451466 -0.12826601 -1.43513
0.17427425 -0.12826601 -1.43513
0.18542752 -0.12826601 -1.43513
0.19518702 -0.12826601 -1.43513
0.20494649 -0.12826601 -1.43513
0.21470566 -0.12826601 -1.43513
0.224465 -0.12826601 -1.43513
0.2356185 -0.12826601 -1.43513
0.245378 -0.12826601 -1.43513
0.25513723 -0.12826601 -1.43513
0.26489666 -0.12826601 -1.43513
0.274656 -0.12826601 -1.43513
0.28580949 -0.12826601 -1.43513
0.29556867 -0.12826601 -1.43513
0.30532825 -0.12826601 -1.43513
0.31508768 -0.12826601 -1.43513
0.32484674 -0.12826601 -1.43513
0.33460632 -0.12826601 -1.43513
0.34436548 -0.12826601 -1.43513
0.35551924 -0.12826601 -1.43513
0.36527833 -0.12826601 -1.43513
0.37503776 -0.12826601 -1.43513
0.38479733 -0.12826601 -1.43513
0.39052734 -0.12552601 -1.4356899
-0.39339399 -0.115786 -1.4359699
0.39060375 -0.115786 -1.4359699
-0.39339399 -0.104626 -1.4359699
0.39060301 -0.104626 -1.4359699
-0.39339367 -0.094860874 -1.4359699
0.39060298 -0.09486077 -1.4359699
-0.39339301 -0.085095704 -1.4359699
0.39060301 -0.085095622 -1.4359699
-0.39339301 -0.0753306 -1.4359699
0.39060298 -0.075330533 -1.4359699
-0.39339301 -0.065565526 -1.4359699
0.39060301 -0.065565422 -1.4359699
-0.39339301 -0.054405399 -1.4359699
0.39060199 -0.054405302 -1.4359699
-0.39339301 -0.044640299 -1.4359699
0.39060199 -0.044640262 -1.4359699
-0.39339301 -0.034875251 -1.4359699
0.39060199 -0.034875199 -1.4359699
-0.39339301 -0.025110165 -1.4359699
0.39060199 -0.025110133 -1.4359699
-0.39339301 -0.0153451 -1.4359699
0.39060199 -0.0153451 -1.4359699
-0.39339301 -0.0055800364 -1.4359699
0.39060199 -0.0055800336 -1.4359699
-0.39339224 0.0041850251 -1.4359699
0.208609 0.006953645 -1.431565
0.39060199 0.0041850251 -1.4359699
-0.393392 0.0153451 -1.4359699
0.208609 0.015298001 -1.43156
0.39060199 0.0153451 -1.4359699
-0.39234969 0.025131965 -1.4372649
-0.3847318 0.024901837 -1.4386773
-0.3750619 0.025430959 -1.438431
-0.36475453 0.025153795 -1.4385601
-0.35497153 0.025153801 -1.43856
-0.34518883 0.025153801 -1.4385601
-0.33487692 0.024876472 -1.4386891
-0.32521555 0.025405915 -1.4384429
-0.31485 0.024901837 -1.4386774
-0.30997199 0.0279254 -1.43727
-0.21444844 0.024757614 -1.4387444
-0.20543651 0.025153795 -1.4385601
-0.19465281 0.024901835 -1.4386773
-0.18501529 0.025430959 -1.438431
-0.17469066 0.025153801 -1.43856
-0.16490811 0.025153801 -1.43856
-0.15512542 0.025153801 -1.4385601
-0.14534289 0.025153801 -1.43856
-0.13556002 0.025153799 -1.4385601
-0.12437967 0.025153801 -1.43856
-0.11459723 0.025153799 -1.43856
-0.10481451 0.025153795 -1.4385601
-0.09503179 0.025153801 -1.43856
-0.085249089 0.025153801 -1.43856
-0.075466424 0.025153801 -1.43856
-0.06568373 0.025153801 -1.43856
-0.054503527 0.025153799 -1.43856
-0.046118364 0.025153799 -1.43856
0.044720843 0.025153801 -1.43856
0.054503527 0.025153799 -1.4385601
0.06568373 0.025153801 -1.4385601
0.075466417 0.025153801 -1.43856
0.085249096 0.025153799 -1.43856
0.09503179 0.025153801 -1.43856
0.10481451 0.025153801 -1.43856
0.11459723 0.025153801 -1.43856
0.12437967 0.025153799 -1.43856
0.13555999 0.025153795 -1.4385601
0.14534289 0.025153799 -1.43856
0.15512542 0.025153801 -1.4385601
0.16490811 0.025153799 -1.43856
0.17469066 0.025153795 -1.43856
0.18501529 0.025430959 -1.438431
0.1946528 0.024901837 -1.4386773
0.20518152 0.025123626 -1.43681
0.30838665 0.025153801 -1.43856
0.31485 0.024901837 -1.4386773
0.32521555 0.025405915 -1.4384429
0.33487689 0.024876472 -1.438689
0.34518886 0.025153799 -1.4385601
0.35497156 0.025153799 -1.43856
0.36475447 0.025153801 -1.43856
0.3750619 0.025430959 -1.438431
0.3847318 0.024901837 -1.4386773
0.39060199 0.025110133 -1.4359699
-0.39205432 0.033907149 -1.4344783
-0.38525459 0.035219133 -1.4338694
-0.37475649 0.034825545 -1.4340527
-0.36500439 0.034825545 -1.4340525
-0.35525244 0.034825545 -1.4340527
-0.34474775 0.03443196 -1.4342358
-0.33510765 0.035219133 -1.4338694
-0.32491025 0.034550205 -1.4341809
-0.31524664 0.035143252 -1.4339046
-0.30699509 0.035376567 -1.433796
-0.21237321 0.033998519 -1.434438
-0.20479256 0.034825545 -1.4340528
-0.19504058 0.034825549 -1.4340525
-0.18528852 0.034825549 -1.4340525
-0.174762 0.03443196 -1.4342358
-0.16516574 0.035219129 -1.4338692
-0.15463918 0.034825545 -1.4340526
-0.14488716 0.034825549 -1.4340525
-0.13513525 0.034825545 -1.4340527
-0.12538326 0.034825545 -1.4340525
-0.11563132 0.034825545 -1.4340527
-0.10448594 0.034825549 -1.4340527
-0.094733953 0.034825549 -1.4340525
-0.084981941 0.034825545 -1.4340526
-0.075229906 0.034825549 -1.4340525
-0.065477878 0.034825545 -1.4340526
-0.054332722 0.034825549 -1.4340526
-0.045973826 0.034825549 -1.4340525
0.038973149 0.03758065 -1.43277
0.044580694 0.034825549 -1.4340526
0.054332722 0.034825545 -1.4340526
0.065477878 0.034825545 -1.4340526
0.075229906 0.034825552 -1.4340526
0.084981933 0.034825549 -1.4340526
0.094733961 0.034825549 -1.4340525
0.10448594 0.034825545 -1.4340528
0.1156313 0.034825545 -1.4340525
0.12538326 0.034825549 -1.4340525
0.13513526 0.034825545 -1.4340525
0.14488716 0.034825549 -1.4340525
0.15463918 0.034825549 -1.4340526
0.16516571 0.035219137 -1.4338694
0.174762 0.03443196 -1.4342357
0.18528852 0.034825545 -1.4340526
0.19504058 0.034825549 -1.4340525
0.20470195 0.034811217 -1.433432
0.30927849 0.034825552 -1.4340525
0.3152467 0.035143252 -1.4339046
0.32491025 0.034550201 -1.434181
0.33510762 0.035219129 -1.4338694
0.34474775 0.03443196 -1.4342358
0.35525241 0.034825545 -1.4340525
0.36500442 0.034825549 -1.4340525
0.37475652 0.034825549 -1.4340525
0.38525456 0.035219137 -1.4338694
0.39042848 0.03207035 -1.4353299
-0.39199001 0.041701 -1.43085
-0.385039 0.041701 -1.43085
-0.37530899 0.041701 -1.43085
-0.36557901 0.041701 -1.43085
-0.35445902 0.041701 -1.43085
-0.34472799 0.041701 -1.43085
-0.33499801 0.041701 -1.43085
-0.325268 0.041701 -1.43085
-0.31553799 0.041701 -1.43085
-0.30441725 0.041701 -1.43085
-0.211285 0.041701 -1.43085
-0.204335 0.041701 -1.43085
-0.19460499 0.041701 -1.43085
-0.1848745 0.041701 -1.43085
-0.175144 0.041701 -1.43085
-0.16541401 0.041701 -1.43085
-0.154294 0.041701 -1.43085
-0.14456366 0.041701 -1.43085
-0.13483299 0.041701 -1.43085
-0.125103 0.041701 -1.43085
-0.115373 0.041701 -1.43085
-0.10425275 0.041701 -1.43085
-0.094522297 0.041701 -1.43085
-0.084792078 0.041701 -1.43085
-0.075061835 0.041701 -1.43085
-0.065331601 0.041701 -1.43085
-0.054211326 0.041701 -1.43085
-0.04587115 0.041701 -1.43085
0.038920902 0.041701 -1.43085
0.044481099 0.041701 -1.43085
0.054211326 0.041701 -1.43085
0.065331601 0.041701 -1.43085
0.075061835 0.041701 -1.43085
0.084792078 0.041701 -1.43085
0.094522297 0.041701 -1.43085
0.10425275 0.041701 -1.43085
0.115373 0.041701 -1.43085
0.12510301 0.041701 -1.43085
0.13483299 0.041701 -1.43085
0.14456366 0.041701 -1.43085
0.15429401 0.041701 -1.43085
0.16541401 0.041701 -1.43085
0.175144 0.041701 -1.43085
0.1848745 0.041701 -1.43085
0.19460499 0.041701 -1.43085
0.204335 0.041701 -1.43085
0.308588 0.041701 -1.43085
0.31553799 0.041701 -1.43085
0.325268 0.041701 -1.43085
0.33499801 0.041701 -1.43085
0.34472799 0.041701 -1.43085
0.35445899 0.041701 -1.43085
0.36557901 0.041701 -1.43085
0.37530899 0.041701 -1.43085
0.385039 0.041701 -1.43085
-0.401149 0.189432 -1.43378
-0.39418727 0.1894325 -1.4337876
-0.38443968 0.18943401 -1.4338001
-0.37468949 0.18943401 -1.4338
-0.364939 0.18943401 -1.4338001
-0.35518897 0.18943401 -1.4338
-0.34543869 0.18943401 -1.4338001
-0.33568823 0.18943401 -1.4338
-0.324545 0.18943401 -1.4338
-0.31479499 0.18943401 -1.4338001
-0.3050445 0.18943401 -1.4338
-0.29529399 0.18943401 -1.4338001
-0.28554401 0.18943401 -1.4338
-0.27440101 0.18943401 -1.4338
-0.26465067 0.18943401 -1.4338001
-0.25490028 0.18943401 -1.4338
-0.24514998 0.18943401 -1.4338001
-0.23539974 0.18943401 -1.4338
-0.22425649 0.18943401 -1.4338
-0.21450599 0.18943401 -1.4338001
-0.20475601 0.18943401 -1.4338
-0.19500566 0.18943401 -1.4338001
-0.18525526 0.18943401 -1.4338
-0.175505 0.18943401 -1.4338001
-0.16575475 0.18943401 -1.4338
-0.15461175 0.18943401 -1.4338
-0.14486134 0.18943401 -1.4338001
-0.135111 0.18943401 -1.4338
-0.12536101 0.18943401 -1.4338001
-0.1156105 0.18943401 -1.4338
-0.10446724 0.18943401 -1.4338
-0.094716996 0.18943401 -1.4338001
-0.084966749 0.18943401 -1.4338
-0.075216502 0.18943401 -1.4338001
-0.065466195 0.18943401 -1.4338
-0.054322999 0.18943401 -1.4338
-0.0445727 0.18943401 -1.4338001
-0.034822397 0.18943401 -1.4338
-0.0250722 0.18943401 -1.4338001
-0.015321899 0.18943401 -1.4338
-0.0055715931 0.18943401 -1.4338001
0.0041786949 0.18943401 -1.4338
0.015321901 0.18943401 -1.4338
0.025072202 0.18943401 -1.4338001
0.034822397 0.18943401 -1.4338
0.0445727 0.18943401 -1.4338001
0.054322999 0.18943401 -1.4338
0.065466195 0.18943401 -1.4338
0.075216502 0.18943401 -1.4338001
0.084966749 0.18943401 -1.4338
0.094716996 0.18943401 -1.4338001
0.10446725 0.18943401 -1.4338
0.1156105 0.18943401 -1.4338
0.12536101 0.18943401 -1.4338001
0.135111 0.18943401 -1.4338
0.14486133 0.18943401 -1.4338001
0.15461175 0.18943401 -1.4338
0.16575475 0.18943401 -1.4338
0.175505 0.18943401 -1.4338001
0.18525526 0.18943401 -1.4338
0.19500566 0.18943401 -1.4338001
0.20475599 0.18943401 -1.4338
0.21450599 0.18943401 -1.4338001
0.22425649 0.18943401 -1.4338
0.23539975 0.18943401 -1.4338
0.24515001 0.18943401 -1.4338001
0.25490025 0.18943401 -1.4338
0.26465067 0.18943401 -1.4338001
0.27440101 0.18943401 -1.4338
0.28554401 0.18943401 -1.4338
0.29529402 0.18943401 -1.4338001
0.30504447 0.18943401 -1.4338
0.31479499 0.18943401 -1.4338001
0.324545 0.18943401 -1.4338
0.33568823 0.18943401 -1.4338
0.34543869 0.18943401 -1.4338001
0.355189 0.18943401 -1.4338
0.364939 0.18943401 -1.4338001
0.37468976 0.18943401 -1.4338
0.38443899 0.18943368 -1.4337965
0.39418626 0.18943226 -1.433785
-0.39221001 -0.13280925 -1.424085
-0.38491514 -0.1342247 -1.4223272
-0.37523142 -0.13389631 -1.4230329
-0.36557055 -0.1342247 -1.4223272
-0.35519785 -0.13406049 -1.42268
-0.34481785 -0.13389628 -1.4230329
-0.335172 -0.1342247 -1.4223272
-0.32479176 -0.13406049 -1.42268
-0.31440416 -0.13389628 -1.4230329
-0.30477327 -0.1342247 -1.4223272
-0.29505029 -0.13389628 -1.4230329
-0.28542927 -0.1342247 -1.4223272
-0.27503675 -0.13406052 -1.42268
-0.26463687 -0.13389628 -1.4230329
-0.25503057 -0.1342247 -1.4223272
-0.24463072 -0.13406049 -1.42268
-0.23495598 -0.1340605 -1.42268
-0.22528125 -0.13406052 -1.42268
-0.21486901 -0.13389631 -1.4230329
-0.20528758 -0.13422473 -1.4223272
-0.19487527 -0.1340605 -1.42268
-0.1852005 -0.1340605 -1.42268
-0.17552575 -0.1340605 -1.42268
-0.16446912 -0.13406049 -1.42268
-0.15479434 -0.1340605 -1.42268
-0.14511974 -0.13406052 -1.42268
-0.13468742 -0.13389631 -1.4230329
-0.1251457 -0.1342247 -1.4223272
-0.11471362 -0.13406052 -1.42268
-0.10503884 -0.1340605 -1.42268
-0.095364451 -0.1340605 -1.42268
-0.084307715 -0.13406049 -1.42268
-0.07463304 -0.1340605 -1.42268
-0.064958386 -0.13406052 -1.42268
-0.055283751 -0.1340605 -1.42268
-0.045609087 -0.13406052 -1.42268
-0.034552321 -0.13406049 -1.42268
-0.024877699 -0.1340605 -1.42268
-0.015203012 -0.13406049 -1.42268
-0.0055283769 -0.1340605 -1.42268
0.0041462826 -0.1340605 -1.42268
0.015203012 -0.13406049 -1.42268
0.024877699 -0.1340605 -1.42268
0.034552325 -0.13406052 -1.42268
0.04560909 -0.13406049 -1.42268
0.055283751 -0.1340605 -1.42268
0.064958386 -0.13406052 -1.42268
0.074633054 -0.1340605 -1.42268
0.084307715 -0.13406049 -1.42268
0.095364444 -0.13406049 -1.42268
0.10503883 -0.1340605 -1.42268
0.11471363 -0.13406049 -1.42268
0.1251457 -0.1342247 -1.4223272
0.13468744 -0.13389631 -1.4230329
0.14511974 -0.13406049 -1.42268
0.15479434 -0.1340605 -1.42268
0.16446912 -0.13406052 -1.42268
0.17552575 -0.1340605 -1.42268
0.1852005 -0.1340605 -1.42268
0.19487526 -0.1340605 -1.42268
0.20528758 -0.13422473 -1.4223272
0.21486901 -0.13389628 -1.4230329
0.22528124 -0.13406052 -1.42268
0.23495598 -0.1340605 -1.42268
0.24463075 -0.13406052 -1.42268
0.25503057 -0.1342247 -1.4223272
0.26463684 -0.13389631 -1.4230329
0.27503675 -0.1340605 -1.42268
0.28542927 -0.13422473 -1.4223272
0.29505029 -0.13389628 -1.4230329
0.30477327 -0.1342247 -1.4223272
0.31440416 -0.13389631 -1.4230329
0.32479176 -0.13406049 -1.42268
0.335172 -0.1342247 -1.4223272
0.34481785 -0.13389628 -1.4230329
0.35519788 -0.1340605 -1.42268
0.36557055 -0.1342247 -1.4223272
0.37523144 -0.13389628 -1.4230329
0.38491514 -0.13422473 -1.4223272
0.39052051 -0.131558 -1.42549
-0.39338401 -0.12466401 -1.42583
0.390614 -0.124664 -1.42583
-0.39338401 -0.11496775 -1.42583
0.39061323 -0.11496775 -1.42583
-0.39338401 -0.10527167 -1.42583
0.39061299 -0.10527167 -1.42583
-0.39338401 -0.095575593 -1.42583
0.39061299 -0.095575549 -1.4258225
-0.39338401 -0.084494352 -1.42583
0.39061299 -0.084494248 -1.42582
-0.39338401 -0.074798308 -1.42583
0.39061299 -0.074798197 -1.42582
-0.39338374 -0.065102227 -1.4258275
0.39061272 -0.0651021 -1.42582
-0.393383 -0.055406097 -1.42582
0.39061201 -0.055406004 -1.42582
-0.393383 -0.04571005 -1.42582
0.39061201 -0.045709949 -1.42582
-0.393383 -0.034628823 -1.42582
0.39061201 -0.034628749 -1.42582
-0.393383 -0.024932699 -1.42582
0.39061201 -0.024932699 -1.42582
-0.393383 -0.015236651 -1.42582
0.39061201 -0.015236651 -1.42582
-0.393383 -0.0055406033 -1.42582
0.39061201 -0.0055405931 -1.42582
-0.393383 0.00415545 -1.42582
0.39061201 0.0041554449 -1.42582
-0.393383 0.01523665 -1.42582
0.39061201 0.01523665 -1.42582
-0.393383 0.024932699 -1.42582
0.39061201 0.024932699 -1.42582
-0.39338201 0.034628749 -1.42582
-0.21322399 0.033229701 -1.42523
0.39061201 0.034628749 -1.42582
-0.39248571 0.046337921 -1.4268816
-0.38476202 0.046926819 -1.4284127
-0.37516087 0.047448423 -1.428169
-0.36492682 0.047175203 -1.4282967
-0.35521412 0.047175203 -1.4282966
-0.3455011 0.047175199 -1.4282967
-0.33480594 0.046926819 -1.4284128
-0.32521349 0.047448415 -1.428169
-0.31497481 0.047175195 -1.4282967
-0.30526212 0.047175203 -1.4282967
-0.29895198 0.047858253 -1.4279776
-0.21090834 0.047175199 -1.4282966
-0.2053581 0.047175203 -1.4282966
-0.19564526 0.047175199 -1.4282967
-0.18454474 0.047175199 -1.4282967
-0.17483199 0.047175203 -1.4282966
-0.16511899 0.047175199 -1.4282967
-0.15540612 0.047175203 -1.4282967
-0.14569324 0.047175195 -1.4282967
-0.13459276 0.047175199 -1.4282967
-0.12487999 0.047175203 -1.4282967
-0.11516699 0.047175199 -1.4282967
-0.10545411 0.047175203 -1.4282966
-0.095741279 0.047175195 -1.4282967
-0.084640831 0.047175203 -1.4282967
-0.074927948 0.047175195 -1.4282967
-0.065215088 0.047175199 -1.4282967
-0.055502184 0.047175195 -1.4282967
-0.047176871 0.047175203 -1.4282967
0.038851533 0.047175199 -1.4282966
0.045789313 0.047175203 -1.4282967
0.055502176 0.047175203 -1.4282967
0.065215096 0.047175195 -1.4282967
0.074927948 0.047175203 -1.4282967
0.084640831 0.047175199 -1.4282967
0.095741294 0.047175195 -1.4282967
0.10545411 0.047175203 -1.4282966
0.115167 0.047175203 -1.4282967
0.12487999 0.047175195 -1.4282967
0.13459274 0.047175203 -1.4282966
0.14569324 0.047175199 -1.4282966
0.1554061 0.047175206 -1.4282966
0.16511899 0.047175199 -1.4282967
0.174832 0.047175199 -1.4282966
0.18454476 0.047175199 -1.4282967
0.19564526 0.047175203 -1.4282967
0.2053581 0.047175195 -1.4282967
0.30803701 0.047175199 -1.4282966
0.31497484 0.047175199 -1.4282967
0.32521352 0.047448415 -1.428169
0.33480594 0.046926819 -1.4284128
0.34550107 0.047175203 -1.4282967
0.35521412 0.047175203 -1.4282966
0.36492684 0.047175195 -1.4282967
0.3751609 0.047448419 -1.428169
0.38476199 0.046926819 -1.4284128
0.39061201 0.045709949 -1.42582
-0.39197659 0.054808937 -1.4247401
-0.3852298 0.055624228 -1.42436
-0.37502399 0.055352468 -1.4244866
-0.36481547 0.05508054 -1.4246129
-0.35524353 0.055599675 -1.4243717
-0.34457946 0.055352468 -1.4244865
-0.33489224 0.055352464 -1.4244866
-0.32520542 0.055352468 -1.4244866
-0.31499237 0.05508054 -1.4246129
-0.30542889 0.055599675 -1.4243717
-0.29645777 0.055692371 -1.4243287
-0.2113128 0.05586984 -1.423552
-0.2048101 0.055352464 -1.4244866
-0.19512336 0.055352468 -1.4244866
-0.18489859 0.05508054 -1.4246129
-0.17535736 0.055599675 -1.4243716
-0.1646785 0.055352475 -1.4244866
-0.15499145 0.055352464 -1.4244866
-0.14530459 0.055352475 -1.4244865
-0.13462155 0.055105411 -1.4246018
-0.12508871 0.055624228 -1.4243599
-0.11485984 0.055352468 -1.4244866
-0.10517278 0.055352464 -1.4244866
-0.095485806 0.055352468 -1.4244866
-0.084414989 0.055352468 -1.4244866
-0.074728042 0.055352464 -1.4244866
-0.065041073 0.055352468 -1.4244865
-0.0553541 0.055352464 -1.4244866
-0.045667153 0.055352468 -1.4244865
0.038047925 0.056031875 -1.42417
0.045667153 0.055352468 -1.4244866
0.0553541 0.055352464 -1.4244866
0.065041073 0.055352468 -1.4244866
0.074728042 0.055352464 -1.4244866
0.084414989 0.055352468 -1.4244866
0.095485806 0.055352468 -1.4244866
0.10517278 0.055352464 -1.4244866
0.11485983 0.055352468 -1.4244866
0.12508871 0.055624228 -1.4243599
0.13462156 0.055105411 -1.4246017
0.14530458 0.055352468 -1.4244865
0.15499145 0.055352464 -1.4244866
0.1646785 0.055352468 -1.4244866
0.17535736 0.055599675 -1.4243716
0.18489861 0.05508054 -1.4246129
0.19512333 0.055352468 -1.4244866
0.20481011 0.055352464 -1.4244865
0.30826718 0.055896319 -1.424234
0.3149924 0.05508054 -1.4246129
0.32520542 0.055352468 -1.4244866
0.33489221 0.055352464 -1.4244866
0.34457943 0.055352468 -1.4244866
0.35524356 0.055599675 -1.4243717
0.3648155 0.05508054 -1.4246128
0.37502399 0.055352468 -1.4244865
0.3852298 0.055624235 -1.4243599
0.39042002 0.05399365 -1.42512
-0.392142 0.062134501 -1.421325
-0.38523772 0.062134504 -1.421325
-0.37480667 0.061941188 -1.4214156
-0.36529168 0.062327813 -1.4212343
-0.35486075 0.062134504 -1.4213248
-0.34519517 0.062134504 -1.4213248
-0.3355296 0.062134501 -1.421325
-0.32448348 0.062134504 -1.4213248
-0.31481814 0.062134504 -1.4213251
-0.30515265 0.062134504 -1.4213248
-0.29471642 0.061941184 -1.4214157
-0.28983501 0.063487701 -1.4206899
-0.21352899 0.06258557 -1.4211134
-0.2057364 0.062134504 -1.4213248
-0.19469014 0.062134501 -1.421325
-0.18502481 0.062134501 -1.4213248
-0.17535926 0.062134501 -1.421325
-0.164313 0.062134504 -1.4213248
-0.1546475 0.062134504 -1.4213248
-0.14498213 0.062134504 -1.4213248
-0.13531651 0.062134504 -1.4213251
-0.125651 0.062134504 -1.421325
-0.11460463 0.062134504 -1.4213248
-0.10493933 0.062134504 -1.4213251
-0.095273867 0.062134501 -1.4213248
-0.084227636 0.062134504 -1.4213248
-0.074562185 0.062134504 -1.4213248
-0.064896695 0.062134501 -1.421325
-0.055231228 0.062134504 -1.4213251
-0.045565788 0.062134504 -1.421325
-0.038644701 0.063487701 -1.4206899
0.037281074 0.062134501 -1.421325
0.045565788 0.062134504 -1.421325
0.055231232 0.062134504 -1.4213251
0.064896695 0.062134501 -1.421325
0.074562185 0.062134501 -1.4213248
0.084227644 0.062134504 -1.4213248
0.095273867 0.062134501 -1.421325
0.10493934 0.062134504 -1.4213248
0.11460463 0.062134504 -1.4213248
0.125651 0.062134501 -1.421325
0.13531651 0.062134501 -1.4213248
0.14498213 0.062134501 -1.421325
0.15464748 0.062134504 -1.4213248
0.164313 0.062134501 -1.421325
0.17535925 0.062134504 -1.4213248
0.18502484 0.062134501 -1.4213251
0.19469014 0.062134504 -1.4213248
0.20435548 0.062134504 -1.4213248
0.30653334 0.062134504 -1.4213251
0.31481817 0.062134504 -1.4213248
0.32448351 0.062134501 -1.421325
0.33552963 0.062134504 -1.4213248
0.34519517 0.062134501 -1.4213248
0.35486075 0.062134504 -1.4213248
0.36529168 0.062327813 -1.4212343
0.37480673 0.061941188 -1.4214157
0.38523772 0.062134504 -1.4213248
-0.3946715 0.18556474 -1.425475
-0.38498032 0.18556599 -1.4254833
-0.375287 0.18556625 -1.42549
-0.36420849 0.18556599 -1.42549
-0.35451469 0.18556599 -1.42549
-0.34482074 0.18556599 -1.42549
-0.335127 0.18556599 -1.42549
-0.32543325 0.18556599 -1.42549
-0.31435475 0.18556599 -1.42549
-0.30466101 0.18556599 -1.42549
-0.29496723 0.18556599 -1.42549
-0.28527331 0.18556599 -1.42549
-0.27557975 0.18556599 -1.42549
-0.26450124 0.18556599 -1.42549
-0.25480732 0.18556599 -1.42549
-0.24511349 0.18556599 -1.42549
-0.23541968 0.18556599 -1.42549
-0.22572625 0.18556599 -1.42549
-0.2146475 0.18556599 -1.42549
-0.20495367 0.18556599 -1.42549
-0.19526 0.18556599 -1.42549
-0.1841815 0.18556599 -1.42549
-0.17448767 0.18556599 -1.42549
-0.16479374 0.18556599 -1.42549
-0.15509999 0.18556599 -1.42549
-0.1454065 0.18556599 -1.42549
-0.13432775 0.18556599 -1.42549
-0.124634 0.18556599 -1.42549
-0.11494025 0.18556599 -1.42549
-0.10524666 0.18556599 -1.42549
-0.095552742 0.18556599 -1.42549
-0.084474176 0.18556599 -1.42549
-0.074780427 0.18556599 -1.42549
-0.065086648 0.18556599 -1.42549
-0.055392902 0.18556599 -1.42549
-0.045699149 0.18556599 -1.42549
-0.03462055 0.18556599 -1.42549
-0.024926832 0.18556599 -1.42549
-0.01523305 0.18556599 -1.42549
-0.0055392906 0.18556599 -1.42549
0.004154468 0.18556599 -1.42549
0.015233049 0.18556599 -1.42549
0.024926834 0.18556599 -1.42549
0.03462055 0.18556599 -1.42549
0.045699149 0.18556599 -1.42549
0.055392902 0.18556599 -1.42549
0.065086648 0.18556599 -1.42549
0.074780434 0.18556599 -1.42549
0.084474176 0.18556599 -1.42549
0.09555275 0.18556599 -1.42549
0.10524666 0.18556599 -1.42549
0.11494024 0.18556599 -1.42549
0.124634 0.18556599 -1.42549
0.13432774 0.18556599 -1.42549
0.1454065 0.18556599 -1.42549
0.1551 0.18556599 -1.42549
0.16479374 0.18556599 -1.42549
0.17448767 0.18556599 -1.42549
0.1841815 0.18556599 -1.42549
0.19526 0.18556599 -1.42549
0.20495367 0.18556599 -1.42549
0.2146475 0.18556599 -1.42549
0.22572625 0.18556599 -1.42549
0.23541968 0.18556599 -1.42549
0.24511349 0.18556599 -1.42549
0.25480732 0.18556599 -1.42549
0.26450124 0.18556599 -1.42549
0.27557975 0.18556599 -1.42549
0.28527331 0.18556599 -1.42549
0.29496726 0.18556599 -1.42549
0.30466101 0.18556599 -1.42549
0.31435475 0.18556599 -1.42549
0.32543325 0.18556599 -1.42549
0.335127 0.18556599 -1.42549
0.34482074 0.18556599 -1.42549
0.35451469 0.18556599 -1.42549
0.36420849 0.18556599 -1.42549
0.37528676 0.18556625 -1.4254875
0.38497999 0.18556567 -1.4254833
0.39328599 0.18556465 -1.4254733
-0.3924672 -0.13631621 -1.414534
-0.38500544 -0.13878843 -1.4125172
-0.37538889 -0.13846458 -1.4132129
-0.36509886 -0.1386265 -1.412865
-0.3548167 -0.13878843 -1.4125172
-0.34518498 -0.13846458 -1.4132129
-0.33560541 -0.13878843 -1.4125172
-0.325297 -0.1386265 -1.412865
-0.31498128 -0.13846458 -1.4132129
-0.30541658 -0.13878843 -1.4125172
-0.29510075 -0.1386265 -1.4128649
-0.28477728 -0.13846458 -1.4132129
-0.27522773 -0.13878843 -1.4125172
-0.26490426 -0.1386265 -1.412865
-0.25457388 -0.13846458 -1.4132129
-0.24503858 -0.13878843 -1.4125172
-0.23470813 -0.1386265 -1.4128649
-0.22509985 -0.1386265 -1.412865
-0.21549225 -0.1386265 -1.4128649
-0.20451163 -0.1386265 -1.412865
-0.19490384 -0.1386265 -1.412865
-0.18529576 -0.1386265 -1.412865
-0.17494544 -0.13846458 -1.4132129
-0.16544972 -0.13878843 -1.4125172
-0.15509951 -0.1386265 -1.412865
-0.1447417 -0.13846458 -1.4132128
-0.13526085 -0.13878843 -1.4125172
-0.12490301 -0.1386265 -1.4128649
-0.11529517 -0.1386265 -1.412865
-0.10568725 -0.1386265 -1.4128649
-0.094706729 -0.1386265 -1.4128649
-0.085098803 -0.1386265 -1.412865
-0.075490877 -0.1386265 -1.412865
-0.064510375 -0.1386265 -1.4128649
-0.054902464 -0.1386265 -1.412865
-0.045294523 -0.1386265 -1.4128649
-0.03431404 -0.1386265 -1.412865
-0.024706116 -0.1386265 -1.412865
-0.015098162 -0.1386265 -1.412865
-0.0054902467 -0.1386265 -1.412865
0.0041176849 -0.1386265 -1.4128649
0.015098162 -0.1386265 -1.412865
0.024706118 -0.1386265 -1.412865
0.034314036 -0.1386265 -1.4128649
0.045294523 -0.1386265 -1.412865
0.054902464 -0.1386265 -1.412865
0.064510375 -0.1386265 -1.412865
0.075490877 -0.1386265 -1.412865
0.085098803 -0.1386265 -1.412865
0.094706729 -0.1386265 -1.4128649
0.10568725 -0.1386265 -1.4128649
0.11529517 -0.1386265 -1.412865
0.12490301 -0.1386265 -1.412865
0.13526085 -0.13878843 -1.4125172
0.1447417 -0.13846458 -1.4132129
0.15509951 -0.1386265 -1.412865
0.16544971 -0.13878843 -1.4125172
0.17494543 -0.13846458 -1.4132129
0.18529575 -0.1386265 -1.4128649
0.19490384 -0.1386265 -1.412865
0.20451161 -0.1386265 -1.412865
0.21549225 -0.1386265 -1.412865
0.22509985 -0.1386265 -1.412865
0.23470813 -0.1386265 -1.412865
0.24503858 -0.13878843 -1.4125172
0.25457385 -0.13846458 -1.4132129
0.26490426 -0.1386265 -1.412865
0.2752277 -0.13878843 -1.4125172
0.28477725 -0.13846458 -1.4132129
0.29510078 -0.1386265 -1.4128649
0.30541655 -0.13878843 -1.4125172
0.31498128 -0.13846458 -1.4132129
0.325297 -0.1386265 -1.412865
0.33560544 -0.13878843 -1.4125172
0.34518501 -0.13846458 -1.4132129
0.3548167 -0.13878843 -1.4125172
0.36509886 -0.1386265 -1.412865
0.37538883 -0.13846458 -1.4132129
0.38500541 -0.13878843 -1.4125172
0.39057598 -0.134776 -1.4156467
-0.393374 -0.12516449 -1.41582
0.39062399 -0.12516449 -1.41582
-0.393374 -0.11416125 -1.41582
0.390623 -0.114161 -1.41582
-0.393374 -0.10453299 -1.41582
0.390623 -0.10453299 -1.41582
-0.393374 -0.094904944 -1.41582
0.390623 -0.09490487 -1.41582
-0.393374 -0.085276902 -1.41582
0.390623 -0.085276835 -1.41582
-0.393374 -0.075648874 -1.41582
0.390623 -0.075648725 -1.41582
-0.393374 -0.06464535 -1.41582
0.3906225 -0.064645253 -1.41582
-0.393374 -0.055017304 -1.41582
0.39062199 -0.055017233 -1.41582
-0.393374 -0.045389276 -1.41582
0.39062199 -0.045389175 -1.41582
-0.39337349 -0.0343858 -1.41582
0.39062199 -0.034385726 -1.41582
-0.39337301 -0.024757767 -1.41582
0.39062199 -0.024757734 -1.41582
-0.39337301 -0.015129751 -1.41582
0.39062199 -0.015129725 -1.41582
-0.39337301 -0.0055017266 -1.41582
0.208628 -0.0027451101 -1.41286
0.39062199 -0.0055017197 -1.41582
-0.39337301 0.0041262899 -1.41582
0.208628 0.0041176602 -1.41286
0.39062199 0.0041262899 -1.41582
-0.39337301 0.015129725 -1.41582
0.208628 0.01509805 -1.41285
0.39062199 0.015129725 -1.41582
-0.39337301 0.024757734 -1.41582
0.20862733 0.0247059 -1.41285
0.39062199 0.024757734 -1.41582
-0.39337301 0.034385726 -1.41582
-0.2116175 0.037100703 -1.41449
0.208628 0.03431375 -1.41285
0.39062199 0.034385726 -1.41582
-0.39337301 0.045389175 -1.41582
-0.21161225 0.045348451 -1.4144549
-0.041280601 0.049536701 -1.41642
0.208628 0.045294248 -1.412855
0.39062199 0.045389175 -1.41582
-0.39337301 0.055017162 -1.41582
-0.21344234 0.054961365 -1.4144567
-0.0383556 0.057533398 -1.4100699
0.035716798 0.0549489 -1.41406
0.208628 0.054902166 -1.41286
0.39062199 0.05501717 -1.41582
-0.39273047 0.065609343 -1.4168167
-0.38455552 0.067537799 -1.4188101
-0.37490699 0.067537792 -1.4188099
-0.36525875 0.067537799 -1.4188101
-0.35484487 0.067345165 -1.4189001
-0.34534913 0.067730427 -1.4187202
-0.33493552 0.067537799 -1.4188101
-0.32528698 0.067537792 -1.4188099
-0.31563872 0.067537799 -1.4188101
-0.30461201 0.067537799 -1.4188101
-0.29496351 0.067537799 -1.41881
-0.28720099 0.067802921 -1.4185899
-0.21605858 0.066333607 -1.4166071
-0.20537199 0.067537799 -1.4188101
-0.19434498 0.067537799 -1.4188101
-0.18469717 0.067537799 -1.4188099
-0.1750485 0.067537799 -1.4188101
-0.1654 0.067537799 -1.41881
-0.15575199 0.067537799 -1.4188101
-0.14472499 0.067537799 -1.4188101
-0.135077 0.067537807 -1.41881
-0.1254285 0.067537799 -1.41881
-0.11440175 0.067537799 -1.4188101
-0.10475367 0.067537799 -1.4188102
-0.095105127 0.067537799 -1.4188101
-0.085456766 0.067537799 -1.41881
-0.075808413 0.067537799 -1.4188101
-0.064781748 0.067537799 -1.41881
-0.055133384 0.067537799 -1.41881
-0.045485038 0.067537799 -1.41881
-0.03658114 0.066078313 -1.4170473
0.034280647 0.067026272 -1.4176803
0.045485038 0.067537799 -1.4188101
0.055133384 0.067537799 -1.41881
0.064781748 0.067537799 -1.4188101
0.075808413 0.067537799 -1.4188101
0.085456766 0.067537807 -1.41881
0.095105127 0.067537799 -1.4188101
0.10475367 0.067537799 -1.41881
0.11440175 0.067537799 -1.4188101
0.1254285 0.067537799 -1.4188101
0.135077 0.067537807 -1.41881
0.14472499 0.067537799 -1.4188101
0.155752 0.067537799 -1.4188101
0.1654 0.067537807 -1.41881
0.1750485 0.067537799 -1.4188101
0.18469717 0.067537799 -1.4188099
0.194345 0.067537799 -1.4188101
0.20584759 0.06632673 -1.4164301
0.30461201 0.067537799 -1.4188101
0.31563875 0.067537799 -1.4188101
0.32528701 0.067537807 -1.41881
0.33493549 0.067537799 -1.4188101
0.34534916 0.067730427 -1.4187201
0.35484487 0.067345172 -1.4189001
0.36525875 0.067537799 -1.4188101
0.37490699 0.067537807 -1.41881
0.38455552 0.067537799 -1.4188101
0.39062199 0.064645171 -1.41582
-0.3920106 0.07502196 -1.4151556
-0.38529432 0.075913794 -1.4149007
-0.37528834 0.075604446 -1.415045
-0.36459741 0.075336352 -1.4151701
-0.35505417 0.075913794 -1.4149009
-0.34504515 0.075604439 -1.4150449
-0.33467844 0.075221233 -1.4152237
-0.32516879 0.075987674 -1.4148663
-0.31480223 0.075604439 -1.415045
-0.30478674 0.075294748 -1.4151891
-0.29525527 0.075872861 -1.4149201
-0.2848092 0.075872861 -1.4149201
-0.27613628 0.076879643 -1.4131486
-0.268621 0.079489797 -1.41076
-0.2319175 0.0795931 -1.41259
-0.22382583 0.075939864 -1.4142818
-0.21520814 0.075987674 -1.4148664
-0.20482768 0.075604454 -1.415045
-0.19520485 0.075604446 -1.4150449
-0.18558218 0.075604446 -1.4150448
-0.17458469 0.075604439 -1.4150449
-0.16496201 0.075604461 -1.4150451
-0.15533914 0.075604446 -1.4150448
-0.14434175 0.075604439 -1.4150449
-0.13471894 0.075604446 -1.4150449
-0.12509613 0.075604439 -1.4150449
-0.11470151 0.075221233 -1.4152235
-0.10524736 0.075987674 -1.4148664
-0.094853058 0.075604454 -1.415045
-0.085230283 0.075604446 -1.4150451
-0.075607508 0.075604446 -1.4150448
-0.064610057 0.075604446 -1.4150448
-0.054987267 0.075604446 -1.4150451
-0.045364514 0.075604446 -1.415045
-0.034361184 0.075590558 -1.4147705
-0.025633318 0.077815101 -1.41353
-0.019200901 0.079546504 -1.41176
0.017847199 0.079625897 -1.41317
0.025343401 0.076637827 -1.414359
0.034367051 0.075604446 -1.4150449
0.04536451 0.075604446 -1.4150449
0.054987267 0.075604446 -1.4150449
0.064610057 0.075604454 -1.415045
0.075607508 0.075604454 -1.4150448
0.085230283 0.075604446 -1.4150451
0.094853058 0.075604454 -1.4150449
0.10524736 0.075987674 -1.4148666
0.11470151 0.075221233 -1.4152237
0.12509613 0.075604439 -1.4150449
0.13471892 0.075604446 -1.4150451
0.14434175 0.075604446 -1.415045
0.15533915 0.075604446 -1.4150449
0.16496199 0.075604461 -1.4150449
0.17458469 0.075604446 -1.4150449
0.18558218 0.075604454 -1.4150449
0.19520484 0.075604446 -1.4150449
0.20474699 0.075575992 -1.4144988
0.29713488 0.076647922 -1.4145589
0.3047868 0.07529474 -1.4151893
0.31480217 0.075604446 -1.415045
0.32516879 0.075987674 -1.4148662
0.33467844 0.075221226 -1.4152237
0.34504512 0.075604446 -1.415045
0.35505417 0.075913802 -1.4149007
0.36459741 0.075336359 -1.4151701
0.37528834 0.075604446 -1.415045
0.38529429 0.075913794 -1.4149007
0.39048031 0.074245304 -1.4153033
-0.3921195 0.083633304 -1.411305
-0.38526428 0.083633304 -1.4113051
-0.37429586 0.083633304 -1.4113051
-0.3646985 0.083633304 -1.411305
-0.35510111 0.083633296 -1.411305
-0.34474185 0.083442695 -1.4113942
-0.33529755 0.083823904 -1.4112157
-0.32493812 0.083633296 -1.411305
-0.31534085 0.083633304 -1.411305
-0.30574337 0.083633304 -1.4113051
-0.29477528 0.083633304 -1.411305
-0.28517765 0.083633304 -1.4113051
-0.2755805 0.083633304 -1.4113051
-0.26518086 0.083823144 -1.4112028
-0.25490233 0.084967501 -1.4106802
-0.2444808 0.084417142 -1.4106441
-0.23444887 0.083633296 -1.411305
-0.22485185 0.083633304 -1.411305
-0.21525437 0.083633304 -1.411305
-0.20428601 0.083633296 -1.411305
-0.19468866 0.083633296 -1.411305
-0.18509126 0.083633296 -1.411305
-0.17472145 0.083442695 -1.4113942
-0.1652983 0.083823904 -1.4112157
-0.15492851 0.083633304 -1.411305
-0.14533098 0.083633304 -1.4113051
-0.13573362 0.083633296 -1.411305
-0.12476537 0.083633304 -1.411305
-0.11516783 0.083633304 -1.4113051
-0.10557063 0.083633304 -1.411305
-0.094602242 0.083633304 -1.411305
-0.085004948 0.083633304 -1.411305
-0.075407602 0.083633296 -1.411305
-0.0644392 0.083633304 -1.411305
-0.05484185 0.083633304 -1.411305
-0.045244537 0.083633296 -1.411305
-0.03427615 0.083633304 -1.411305
-0.024678849 0.083633304 -1.411305
-0.015079799 0.083620563 -1.4110863
-0.0054817735 0.084967501 -1.4106802
0.0049335002 0.084418364 -1.410664
0.015081499 0.083633304 -1.4113051
0.024678851 0.083633304 -1.411305
0.03427615 0.083633304 -1.4113051
0.045244537 0.083633304 -1.411305
0.05484185 0.083633304 -1.411305
0.0644392 0.083633296 -1.411305
0.075407602 0.083633304 -1.411305
0.085004948 0.083633304 -1.411305
0.094602242 0.083633296 -1.411305
0.10557063 0.083633304 -1.4113051
0.11516783 0.083633304 -1.411305
0.12476538 0.083633304 -1.4113051
0.13573363 0.083633304 -1.4113051
0.145331 0.083633304 -1.411305
0.15492849 0.083633304 -1.4113051
0.16529827 0.083823904 -1.4112157
0.17472143 0.083442703 -1.4113942
0.18509126 0.083633304 -1.411305
0.19468868 0.083633304 -1.4113051
0.20428599 0.083633304 -1.4113051
0.21515949 0.084967501 -1.4106801
0.22475301 0.084967501 -1.4106802
0.2343455 0.084967501 -1.4106801
0.2453095 0.084967501 -1.4106801
0.25490233 0.084967501 -1.4106802
0.26449552 0.084967501 -1.4106801
0.27545899 0.084967501 -1.4106801
0.285052 0.084967501 -1.4106802
0.29477528 0.083633296 -1.411305
0.3057434 0.083633304 -1.4113051
0.31534085 0.083633304 -1.411305
0.32493812 0.083633304 -1.411305
0.33529755 0.083823904 -1.4112157
0.34474185 0.083442703 -1.4113942
0.35510111 0.083633304 -1.4113051
0.3646985 0.083633304 -1.4113051
0.37429592 0.083633304 -1.4113051
0.38526428 0.083633304 -1.4113051
-0.38228568 0.17651068 -1.4121233
-0.37588283 0.17763799 -1.4138302
-0.33203799 0.17699499 -1.4123449
-0.32619527 0.17742372 -1.4142044
-0.28135526 0.177048 -1.41277
-0.2753686 0.17753179 -1.4144399
-0.23186949 0.17698973 -1.4123051
-0.22591019 0.17753878 -1.4144939
-0.181234 0.1771145 -1.4133
-0.17589301 0.17726617 -1.4145099
-0.169944 0.178167 -1.41076
-0.13175251 0.17704201 -1.41272
-0.12560457 0.17741358 -1.4141215
-0.082270697 0.178253 -1.41144
-0.076154388 0.17742971 -1.4142501
-0.0311075 0.17750233 -1.4127499
-0.024733899 0.17725301 -1.4144067
0.019224901 0.17714301 -1.41353
0.024734015 0.17726482 -1.4144999
0.030148501 0.17815 -1.41063
0.068615399 0.17839999 -1.4126
0.074965544 0.17740858 -1.4140843
0.117945 0.178289 -1.41172
0.12500849 0.17721114 -1.4140712
0.16720299 0.178167 -1.41076
0.17448039 0.17722839 -1.4142088
0.219653 0.178468 -1.4131401
0.22534533 0.1772535 -1.4144083
0.23029301 0.1768315 -1.4110451
0.26901299 0.178427 -1.41282
0.27606639 0.177178 -1.4138075
0.31827199 0.178342 -1.41215
0.32555586 0.17720175 -1.4139962
0.36734399 0.17818899 -1.4109401
0.37559485 0.17739686 -1.4139885
0.38093299 0.175393 -1.4105
-0.39515001 0.18174151 -1.4172575
-0.38413826 0.181743 -1.4172699
-0.37450066 0.18174298 -1.4172701
-0.36486274 0.181743 -1.4172699
-0.355225 0.18174298 -1.4172701
-0.34558699 0.181743 -1.4172699
-0.33457226 0.181743 -1.4172699
-0.32493433 0.18174298 -1.4172701
-0.31529653 0.181743 -1.4172699
-0.30428174 0.181743 -1.4172699
-0.294644 0.18174298 -1.4172701
-0.28500625 0.181743 -1.4172699
-0.27536801 0.18174298 -1.4172701
-0.26573026 0.181743 -1.4172699
-0.2547155 0.181743 -1.4172699
-0.24507767 0.18174298 -1.4172701
-0.23543976 0.181743 -1.4172699
-0.22442526 0.181743 -1.4172699
-0.21478701 0.18174298 -1.4172701
-0.20514925 0.181743 -1.4172699
-0.1941345 0.181743 -1.4172699
-0.18449666 0.18174298 -1.4172701
-0.17485875 0.181743 -1.4172699
-0.16522099 0.18174298 -1.4172701
-0.15558299 0.181743 -1.4172699
-0.14456825 0.181743 -1.4172699
-0.13493033 0.18174298 -1.4172701
-0.12529251 0.181743 -1.4172699
-0.11427775 0.181743 -1.4172699
-0.10464 0.18174298 -1.4172701
-0.09500201 0.181743 -1.4172699
-0.085364103 0.18174298 -1.4172701
-0.075726256 0.181743 -1.4172699
-0.064711496 0.181743 -1.4172699
-0.0550736 0.18174298 -1.4172701
-0.045435749 0.181743 -1.4172699
-0.034421023 0.181743 -1.4172699
-0.024783134 0.18174298 -1.4172701
-0.015145251 0.181743 -1.4172699
-0.0055073597 0.18174298 -1.4172701
0.0041305199 0.181743 -1.4172699
0.01514525 0.181743 -1.4172699
0.024783134 0.18174298 -1.4172701
0.034421027 0.181743 -1.4172699
0.045435749 0.181743 -1.4172699
0.0550736 0.18174298 -1.4172701
0.064711496 0.181743 -1.4172699
0.075726256 0.181743 -1.4172699
0.085364103 0.18174298 -1.4172701
0.095002003 0.181743 -1.4172699
0.10464 0.18174298 -1.4172701
0.11427775 0.181743 -1.4172699
0.12529251 0.181743 -1.4172699
0.13493033 0.18174298 -1.4172701
0.14456825 0.181743 -1.4172699
0.15558299 0.181743 -1.4172699
0.16522099 0.18174298 -1.4172701
0.17485875 0.181743 -1.4172699
0.18449669 0.18174298 -1.4172701
