# .PCD v0.7 - Point Cloud Data file format
VERSION 0.7
FIELDS x y z normal_x normal_y normal_z curvature
SIZE 4 4 4 4 4 4 4
TYPE F F F F F F F
COUNT 1 1 1 1 1 1 1
WIDTH 1236
HEIGHT 1
VIEWPOINT 0 0 0 1 0 0 0
POINTS 1236
DATA ascii
0.075498797 -0.47815901 -1.43918 0 0 0 0
0.078297198 -0.478172 -1.43922 0 0 0 0
0.081114799 -0.47829801 -1.4396 0 0 0 0
0.083942398 -0.47847199 -1.44012 0 0 0 0
0.107415 -0.48336899 -1.45486 0 0 0 0
0.110534 -0.48464701 -1.45871 0 0 0 0
0.113734 -0.48621401 -1.46342 0 0 0 0
0.117067 -0.48825499 -1.46957 0 0 0 0
0.120613 -0.49106801 -1.47803 0 0 0 0
0.124683 -0.49583399 -1.49238 0 0 0 0
0.127893 -0.49704 -1.4960099 0 0 0 0
0.131126 -0.49827799 -1.49973 0 0 0 0
0.0203782 -0.49489999 -1.49833 0 0 0 0
0.023242 -0.49389201 -1.49528 0 0 0 0
0.026095601 -0.492917 -1.49233 0 0 0 0
0.0288895 -0.49112099 -1.48689 0 0 0 0
0.0316085 -0.48849499 -1.47894 0 0 0 0
0.072884597 -0.47655299 -1.44278 0 0 0 0
0.075683303 -0.476524 -1.4427 0 0 0 0
0.078489102 -0.47654101 -1.44275 0 0 0 0
0.0813144 -0.47667101 -1.44314 0 0 0 0
0.084150501 -0.47685301 -1.4436899 0 0 0 0
0.104636 -0.48075801 -1.45551 0 0 0 0
0.107704 -0.48183501 -1.45877 0 0 0 0
0.110836 -0.48313099 -1.4627 0 0 0 0
0.114057 -0.484743 -1.46758 0 0 0 0
0.117413 -0.48683301 -1.47391 0 0 0 0
0.120991 -0.48972499 -1.4826601 0 0 0 0
0.124648 -0.492796 -1.49196 0 0 0 0
0.127821 -0.493855 -1.49517 0 0 0 0
0.131033 -0.49501401 -1.49867 0 0 0 0
0.0232324 -0.49078399 -1.49466 0 0 0 0
0.026088901 -0.48989099 -1.49194 0 0 0 0
0.031681702 -0.48674601 -1.48236 0 0 0 0
0.073062003 -0.47490299 -1.44629 0 0 0 0
0.075868599 -0.47488099 -1.4462301 0 0 0 0
0.078682698 -0.474906 -1.4463 0 0 0 0
0.081514999 -0.475036 -1.4467 0 0 0 0
0.084359802 -0.475227 -1.44728 0 0 0 0
0.104913 -0.479195 -1.45937 0 0 0 0
0.107995 -0.48029301 -1.46271 0 0 0 0
0.111142 -0.48161501 -1.46674 0 0 0 0
0.114382 -0.48326299 -1.47176 0 0 0 0
0.117761 -0.485403 -1.4782701 0 0 0 0
0.12139 -0.488451 -1.48756 0 0 0 0
0.124607 -0.48973599 -1.49147 0 0 0 0
0.127767 -0.49074301 -1.49453 0 0 0 0
0.13098399 -0.49191901 -1.49812 0 0 0 0
0.0317549 -0.48498401 -1.48579 0 0 0 0
0.073240198 -0.47324401 -1.44982 0 0 0 0
0.076054901 -0.47323099 -1.44978 0 0 0 0
0.078877203 -0.473263 -1.44988 0 0 0 0
0.081716597 -0.47339299 -1.45028 0 0 0 0
0.084570102 -0.47359201 -1.4508899 0 0 0 0
0.105191 -0.477624 -1.46324 0 0 0 0
0.108287 -0.478742 -1.46667 0 0 0 0
0.11145 -0.48009199 -1.4708 0 0 0 0
0.114708 -0.48177499 -1.47596 0 0 0 0
0.11811 -0.48396501 -1.4826699 0 0 0 0
0.121469 -0.48587501 -1.48852 0 0 0 0
0.124585 -0.48675001 -1.4912 0 0 0 0
0.127727 -0.48768699 -1.4940701 0 0 0 0
0.023222201 -0.48476401 -1.49401 0 0 0 0
0.0260805 -0.48393899 -1.49146 0 0 0 0
0.073419303 -0.471578 -1.45337 0 0 0 0
0.076242097 -0.47157201 -1.4533499 0 0 0 0
0.079072699 -0.47161201 -1.45347 0 0 0 0
0.081919201 -0.471742 -1.4538701 0 0 0 0
0.084781401 -0.47194999 -1.45451 0 0 0 0
0.105471 -0.47604501 -1.4671299 0 0 0 0
0.108581 -0.47718301 -1.4706399 0 0 0 0
0.111759 -0.47856 -1.47489 0 0 0 0
0.115037 -0.480279 -1.48018 0 0 0 0
0.118373 -0.48215401 -1.48596 0 0 0 0
0.121468 -0.48297799 -1.4885 0 0 0 0
0.124571 -0.48379901 -1.49103 0 0 0 0
0.1277 -0.48467901 -1.49374 0 0 0 0
0.0232391 -0.48221201 -1.49509 0 0 0 0
0.0260795 -0.481022 -1.4914 0 0 0 0
0.0289333 -0.48029301 -1.48914 0 0 0 0
0.073599301 -0.46990299 -1.45693 0 0 0 0
0.076430202 -0.46990401 -1.45693 0 0 0 0
0.079269201 -0.469953 -1.45709 0 0 0 0
0.082122803 -0.47008201 -1.45749 0 0 0 0
0.084993802 -0.47029901 -1.45816 0 0 0 0
0.105752 -0.474457 -1.47105 0 0 0 0
0.108876 -0.47561601 -1.47464 0 0 0 0
0.112071 -0.47701901 -1.47899 0 0 0 0
0.115325 -0.47859901 -1.4838901 0 0 0 0
0.118402 -0.47938299 -1.48632 0 0 0 0
0.121472 -0.48010501 -1.48856 0 0 0 0
0.124565 -0.48087901 -1.49096 0 0 0 0
0.12777901 -0.48207501 -1.49467 0 0 0 0
0.023283999 -0.480232 -1.49798 0 0 0 0
0.0260843 -0.47821099 -1.49168 0 0 0 0
0.0289359 -0.477442 -1.48928 0 0 0 0
0.034631401 -0.47618201 -1.48535 0 0 0 0
0.073780201 -0.46822 -1.46051 0 0 0 0
0.0766192 -0.468229 -1.4605401 0 0 0 0
0.079466604 -0.46828499 -1.46071 0 0 0 0
0.082327403 -0.46841499 -1.46112 0 0 0 0
0.085207202 -0.46864 -1.46182 0 0 0 0
0.106035 -0.47286099 -1.47499 0 0 0 0
0.109173 -0.47404 -1.47866 0 0 0 0
0.112337 -0.475272 -1.48251 0 0 0 0
0.11538 -0.47594199 -1.4845999 0 0 0 0
0.118421 -0.47657299 -1.48657 0 0 0 0
0.121484 -0.47725999 -1.48871 0 0 0 0
0.12458 -0.47804001 -1.49114 0 0 0 0
0.12806299 -0.48023501 -1.49799 0 0 0 0
0.023303799 -0.47772801 -1.4992599 0 0 0 0
0.026131 -0.47616401 -1.49435 0 0 0 0
0.0289411 -0.474635 -1.48955 0 0 0 0
0.031792 -0.47398901 -1.48752 0 0 0 0
0.037483301 -0.472866 -1.484 0 0 0 0
0.040323202 -0.47235799 -1.4823999 0 0 0 0
0.071132302 -0.46662799 -1.46442 0 0 0 0
0.073962502 -0.46653301 -1.46412 0 0 0 0
0.076809198 -0.46654499 -1.46416 0 0 0 0
0.079665102 -0.46661001 -1.46436 0 0 0 0
0.082533099 -0.466739 -1.46477 0 0 0 0
0.085421801 -0.46697199 -1.4655 0 0 0 0
0.10632 -0.47125599 -1.47894 0 0 0 0
0.109388 -0.47209701 -1.48158 0 0 0 0
0.112393 -0.47262901 -1.48325 0 0 0 0
0.115411 -0.473185 -1.485 0 0 0 0
0.118448 -0.47378999 -1.4869 0 0 0 0
0.121506 -0.47445101 -1.48897 0 0 0 0
0.154441 -0.47789401 -1.4997801 0 0 0 0
0.16025899 -0.47786301 -1.49968 0 0 0 0
0.026154 -0.47367701 -1.4956599 0 0 0 0
0.0289841 -0.47244099 -1.49176 0 0 0 0
0.071308099 -0.46492901 -1.46804 0 0 0 0
0.074146301 -0.46483999 -1.46776 0 0 0 0
0.077000096 -0.46485299 -1.4678 0 0 0 0
0.079864502 -0.46492499 -1.46803 0 0 0 0
0.082739703 -0.46505401 -1.4684401 0 0 0 0
0.124947 -0.47363499 -1.49553 0 0 0 0
0.151375 -0.474502 -1.49827 0 0 0 0
0.16899499 -0.47493401 -1.49963 0 0 0 0
0.0262159 -0.47188601 -1.4992 0 0 0 0
0.034662802 -0.46794799 -1.48669 0 0 0 0
0.040353298 -0.46694499 -1.48351 0 0 0 0
0.0431966 -0.46652299 -1.48217 0 0 0 0
0.046038099 -0.466135 -1.48093 0 0 0 0
0.071484603 -0.46322 -1.47167 0 0 0 0
0.074331 -0.46314001 -1.47142 0 0 0 0
0.077192001 -0.46315199 -1.47146 0 0 0 0
0.0800649 -0.46323299 -1.47171 0 0 0 0
0.0829482 -0.463366 -1.4721299 0 0 0 0
0.103541 -0.46593401 -1.4802901 0 0 0 0
0.106505 -0.46631801 -1.4815201 0 0 0 0
0.109482 -0.46674001 -1.48286 0 0 0 0
0.112476 -0.46720701 -1.48434 0 0 0 0
0.115489 -0.46773201 -1.48601 0 0 0 0
0.118628 -0.46872699 -1.48917 0 0 0 0
0.148397 -0.471378 -1.4975899 0 0 0 0
0.17772999 -0.472004 -1.49958 0 0 0 0
0.031888999 -0.46673799 -1.4920599 0 0 0 0
0.034728501 -0.46594101 -1.4895101 0 0 0 0
0.037532698 -0.46482801 -1.48595 0 0 0 0
0.043215301 -0.46384501 -1.48281 0 0 0 0
0.046059601 -0.46347499 -1.48163 0 0 0 0
0.054588199 -0.46256301 -1.4787101 0 0 0 0
0.057432301 -0.46233001 -1.47797 0 0 0 0
0.0602757 -0.46211401 -1.47728 0 0 0 0
0.071658202 -0.46147901 -1.47525 0 0 0 0
0.074514203 -0.46141499 -1.47504 0 0 0 0
0.077381998 -0.46142599 -1.47508 0 0 0 0
0.080261402 -0.461503 -1.47532 0 0 0 0
0.083149798 -0.46162501 -1.47571 0 0 0 0
0.094780102 -0.462412 -1.47823 0 0 0 0
0.097705901 -0.462666 -1.47904 0 0 0 0
0.100642 -0.462955 -1.47997 0 0 0 0
0.103593 -0.46329099 -1.48104 0 0 0 0
0.106555 -0.46365899 -1.4822201 0 0 0 0
0.10953 -0.46406099 -1.4835 0 0 0 0
0.112533 -0.46455899 -1.48509 0 0 0 0
0.115679 -0.46560901 -1.4884501 0 0 0 0
0.14564 -0.468961 -1.4991699 0 0 0 0
0.186464 -0.46907401 -1.49953 0 0 0 0
0.18943299 -0.46921 -1.4999599 0 0 0 0
0.031965502 -0.46495199 -1.49564 0 0 0 0
0.034772601 -0.463635 -1.4914 0 0 0 0
0.0376186 -0.462998 -1.48935 0 0 0 0
0.040422101 -0.46196699 -1.48604 0 0 0 0
0.046082001 -0.46081999 -1.48235 0 0 0 0
0.048927501 -0.46049401 -1.4813 0 0 0 0
0.057464901 -0.459719 -1.47881 0 0 0 0
0.0603121 -0.45952001 -1.47817 0 0 0 0
0.063162699 -0.45936501 -1.47767 0 0 0 0
0.066015601 -0.45923901 -1.47726 0 0 0 0
0.068870701 -0.45913801 -1.47694 0 0 0 0
0.077466004 -0.45905799 -1.47668 0 0 0 0
0.086114898 -0.459279 -1.4773901 0 0 0 0
0.089012504 -0.45941901 -1.4778399 0 0 0 0
0.091918103 -0.459591 -1.47839 0 0 0 0
0.094835103 -0.459806 -1.47909 0 0 0 0
0.097760104 -0.46004799 -1.4798599 0 0 0 0
0.100697 -0.46033099 -1.48077 0 0 0 0
0.103647 -0.46065301 -1.48181 0 0 0 0
0.106609 -0.46101001 -1.48296 0 0 0 0
0.109633 -0.461611 -1.48489 0 0 0 0
0.112783 -0.46270099 -1.4884 0 0 0 0
0.119137 -0.46492401 -1.49555 0 0 0 0
0.145188 -0.46460301 -1.4945199 0 0 0 0
0.192229 -0.46600899 -1.49904 0 0 0 0
0.195198 -0.466144 -1.49947 0 0 0 0
0.19816899 -0.46628001 -1.49991 0 0 0 0
0.0320426 -0.46316099 -1.4992501 0 0 0 0
0.034856901 -0.46185401 -1.49502 0 0 0 0
0.037669599 -0.460729 -1.49137 0 0 0 0
0.040488198 -0.45982999 -1.48847 0 0 0 0
0.0433283 -0.45928001 -1.48669 0 0 0 0
0.0461374 -0.458491 -1.48413 0 0 0 0
0.051800702 -0.457573 -1.48116 0 0 0 0
0.057498001 -0.457109 -1.47966 0 0 0 0
0.0603479 -0.45691901 -1.47904 0 0 0 0
0.0632011 -0.456772 -1.47857 0 0 0 0
0.066055998 -0.45664799 -1.47816 0 0 0 0
0.068914101 -0.45655599 -1.47787 0 0 0 0
0.071776703 -0.45649999 -1.47769 0 0 0 0
0.0746428 -0.456469 -1.47759 0 0 0 0
0.083276197 -0.45658299 -1.47796 0 0 0 0
0.086168602 -0.45669401 -1.47831 0 0 0 0
0.089066602 -0.45682499 -1.47874 0 0 0 0
0.091973998 -0.45699599 -1.47929 0 0 0 0
0.094890699 -0.457201 -1.47996 0 0 0 0
0.097814597 -0.457427 -1.48069 0 0 0 0
0.100758 -0.45773101 -1.48167 0 0 0 0
0.103742 -0.45819399 -1.48317 0 0 0 0
0.106803 -0.45896199 -1.48566 0 0 0 0
0.112962 -0.460536 -1.49075 0 0 0 0
0.116179 -0.46180999 -1.4948699 0 0 0 0
0.119482 -0.463359 -1.49989 0 0 0 0
0.14243899 -0.46220201 -1.49614 0 0 0 0
0.14776701 -0.46068501 -1.49123 0 0 0 0
0.150704 -0.46080801 -1.49163 0 0 0 0
0.15364701 -0.46094099 -1.4920599 0 0 0 0
0.200959 -0.46307999 -1.4989901 0 0 0 0
0.203931 -0.46321499 -1.49942 0 0 0 0
0.20690399 -0.46334901 -1.49986 0 0 0 0
0.034941901 -0.46006799 -1.49866 0 0 0 0
0.037760399 -0.45893401 -1.49497 0 0 0 0
0.040578101 -0.45795199 -1.49177 0 0 0 0
0.0433929 -0.45707199 -1.4888999 0 0 0 0
0.046223301 -0.45645499 -1.48689 0 0 0 0
0.049067698 -0.45604101 -1.48554 0 0 0 0
0.060385998 -0.45433199 -1.47998 0 0 0 0
0.063239902 -0.45417801 -1.47947 0 0 0 0
0.066096999 -0.45405799 -1.47908 0 0 0 0
0.068957597 -0.453971 -1.4788001 0 0 0 0
0.077565096 -0.453899 -1.47857 0 0 0 0
0.0862225 -0.45410499 -1.4792399 0 0 0 0
0.089121699 -0.45423299 -1.47966 0 0 0 0
0.092036098 -0.45442799 -1.4802901 0 0 0 0
0.094971202 -0.45471099 -1.48121 0 0 0 0
0.097944498 -0.455154 -1.48265 0 0 0 0
0.100964 -0.455782 -1.4847 0 0 0 0
0.110102 -0.457793 -1.49125 0 0 0 0
0.113272 -0.458895 -1.49484 0 0 0 0
0.116506 -0.460201 -1.49909 0 0 0 0
0.142289 -0.45880899 -1.49456 0 0 0 0
0.147631 -0.45736599 -1.4898601 0 0 0 0
0.15056901 -0.457497 -1.49029 0 0 0 0
0.15350901 -0.457629 -1.49072 0 0 0 0
0.15645 -0.45776099 -1.49115 0 0 0 0
0.159393 -0.457894 -1.49158 0 0 0 0
0.162338 -0.45802599 -1.49201 0 0 0 0
0.20969 -0.460152 -1.49894 0 0 0 0
0.21266299 -0.46028501 -1.49937 0 0 0 0
0.215639 -0.460419 -1.4998 0 0 0 0
0.0378526 -0.45714301 -1.49862 0 0 0 0
0.040676199 -0.45615399 -1.49538 0 0 0 0
0.043498401 -0.45528299 -1.49252 0 0 0 0
0.046319898 -0.454514 -1.49 0 0 0 0
0.049143601 -0.45385599 -1.4878401 0 0 0 0
0.051966101 -0.45326 -1.48589 0 0 0 0
0.054832201 -0.453087 -1.48532 0 0 0 0
0.066184103 -0.45177901 -1.48103 0 0 0 0
0.0747637 -0.45145801 -1.47998 0 0 0 0
0.077643998 -0.45148501 -1.48007 0 0 0 0
0.080530897 -0.45154801 -1.48028 0 0 0 0
0.083429597 -0.451671 -1.48068 0 0 0 0
0.089278303 -0.452151 -1.48225 0 0 0 0
0.092233904 -0.45252201 -1.48347 0 0 0 0
0.104183 -0.45435399 -1.48948 0 0 0 0
0.107268 -0.45516601 -1.4921401 0 0 0 0
0.1104 -0.456128 -1.49529 0 0 0 0
0.113594 -0.45728901 -1.4991 0 0 0 0
0.142009 -0.45500901 -1.4916199 0 0 0 0
0.144633 -0.45414701 -1.4888 0 0 0 0
0.147498 -0.454063 -1.48852 0 0 0 0
0.150434 -0.45419401 -1.48895 0 0 0 0
0.15337101 -0.45432499 -1.48938 0 0 0 0
0.15631001 -0.454456 -1.48981 0 0 0 0
0.15925001 -0.454586 -1.49024 0 0 0 0
0.162192 -0.45471799 -1.49067 0 0 0 0
0.16513599 -0.45484799 -1.4911 0 0 0 0
0.168082 -0.45497999 -1.4915299 0 0 0 0
0.171029 -0.45511201 -1.49196 0 0 0 0
0.218419 -0.45722401 -1.49889 0 0 0 0
0.221396 -0.45735699 -1.49932 0 0 0 0
0.224374 -0.45748901 -1.49975 0 0 0 0
0.040775798 -0.45435899 -1.49904 0 0 0 0
0.043604899 -0.453491 -1.4961801 0 0 0 0
0.046433698 -0.452728 -1.49366 0 0 0 0
0.0492636 -0.452066 -1.49148 0 0 0 0
0.052093498 -0.45147699 -1.48953 0 0 0 0
0.054925699 -0.45096901 -1.48786 0 0 0 0
0.060599498 -0.450167 -1.4852099 0 0 0 0
0.063445799 -0.449889 -1.48429 0 0 0 0
0.066305898 -0.449727 -1.48376 0 0 0 0
0.092391901 -0.45041099 -1.48601 0 0 0 0
0.095369004 -0.45083499 -1.4874099 0 0 0 0
0.098369397 -0.45134199 -1.48909 0 0 0 0
0.101401 -0.45195699 -1.49111 0 0 0 0
0.104461 -0.45266399 -1.49345 0 0 0 0
0.107561 -0.4535 -1.49621 0 0 0 0
0.110719 -0.45453301 -1.4996099 0 0 0 0
0.144502 -0.450845 -1.48745 0 0 0 0
0.147366 -0.450766 -1.48719 0 0 0 0
0.150298 -0.45089501 -1.48761 0 0 0 0
0.15323301 -0.45102501 -1.48804 0 0 0 0
0.156169 -0.45115501 -1.48847 0 0 0 0
0.159107 -0.451285 -1.4888999 0 0 0 0
0.162047 -0.45141599 -1.4893301 0 0 0 0
0.164988 -0.45154601 -1.48976 0 0 0 0
0.16793101 -0.45167601 -1.49019 0 0 0 0
0.170875 -0.45180601 -1.49062 0 0 0 0
0.173822 -0.45193601 -1.49105 0 0 0 0
0.17677 -0.452066 -1.49148 0 0 0 0
0.227148 -0.45429599 -1.49883 0 0 0 0
0.23012701 -0.45442799 -1.49927 0 0 0 0
0.233107 -0.454559 -1.4997 0 0 0 0
0.043712702 -0.45169801 -1.4998699 0 0 0 0
0.046548199 -0.45093599 -1.49734 0 0 0 0
0.049384501 -0.45027101 -1.49514 0 0 0 0
0.0522222 -0.449691 -1.49321 0 0 0 0
0.055061601 -0.44918701 -1.49154 0 0 0 0
0.0607506 -0.44839701 -1.48892 0 0 0 0
0.063602999 -0.44811201 -1.48797 0 0 0 0
0.066460103 -0.44788301 -1.48721 0 0 0 0
0.072196402 -0.44761699 -1.48633 0 0 0 0
0.075074904 -0.44756201 -1.48614 0 0 0 0
0.077968501 -0.447597 -1.4862601 0 0 0 0
0.080869801 -0.44767201 -1.48651 0 0 0 0
0.083785303 -0.44781801 -1.48699 0 0 0 0
0.0896625 -0.448313 -1.4886301 0 0 0 0
0.092630297 -0.44867799 -1.48985 0 0 0 0
0.095618002 -0.44911501 -1.4913 0 0 0 0
0.0986287 -0.44963101 -1.49301 0 0 0 0
0.101671 -0.45025599 -1.49509 0 0 0 0
0.104752 -0.45101699 -1.49761 0 0 0 0
0.139194 -0.44948199 -1.49252 0 0 0 0
0.144385 -0.44759199 -1.48624 0 0 0 0
0.14723299 -0.447474 -1.48585 0 0 0 0
0.15016399 -0.44760299 -1.48628 0 0 0 0
0.15309501 -0.447732 -1.48671 0 0 0 0
0.156029 -0.44786099 -1.48713 0 0 0 0
0.15896399 -0.44799 -1.48756 0 0 0 0
0.161901 -0.44811901 -1.48799 0 0 0 0
0.164839 -0.448248 -1.48842 0 0 0 0
0.16778 -0.44837701 -1.48885 0 0 0 0
0.17072199 -0.448506 -1.48928 0 0 0 0
0.173665 -0.44863501 -1.48971 0 0 0 0
0.17661101 -0.44876501 -1.49014 0 0 0 0
0.17955799 -0.44889399 -1.4905699 0 0 0 0
0.182506 -0.44902399 -1.4910001 0 0 0 0
0.18545701 -0.44915301 -1.49143 0 0 0 0
0.23587599 -0.451368 -1.49878 0 0 0 0
0.238857 -0.45149899 -1.49921 0 0 0 0
0.241886 -0.45171499 -1.49993 0 0 0 0
0.049507 -0.448475 -1.49884 0 0 0 0
0.052351799 -0.44789901 -1.49692 0 0 0 0
0.055198699 -0.4474 -1.49525 0 0 0 0
0.060902599 -0.446619 -1.49264 0 0 0 0
0.063761801 -0.44633299 -1.49168 0 0 0 0
0.072377503 -0.44584599 -1.49006 0 0 0 0
0.075265497 -0.44580299 -1.48991 0 0 0 0
0.078165904 -0.44583499 -1.49002 0 0 0 0
0.081076801 -0.44592199 -1.49031 0 0 0 0
0.084001303 -0.44607601 -1.4908299 0 0 0 0
0.089895599 -0.446578 -1.4924999 0 0 0 0
0.092872404 -0.44694799 -1.49374 0 0 0 0
0.095873699 -0.447411 -1.49529 0 0 0 0
0.098901004 -0.447963 -1.49713 0 0 0 0
0.101961 -0.448627 -1.49935 0 0 0 0
0.13907599 -0.446201 -1.49124 0 0 0 0
0.144282 -0.44438899 -1.48519 0 0 0 0
0.14710601 -0.44420201 -1.48456 0 0 0 0
0.150029 -0.44431701 -1.4849499 0 0 0 0
0.15295801 -0.444444 -1.48537 0 0 0 0
0.155889 -0.444572 -1.4858 0 0 0 0
0.158821 -0.4447 -1.48623 0 0 0 0
0.16175599 -0.444828 -1.48665 0 0 0 0
0.164691 -0.444956 -1.48708 0 0 0 0
0.167629 -0.44508401 -1.48751 0 0 0 0
0.170568 -0.44521201 -1.48794 0 0 0 0
0.173509 -0.44534001 -1.4883699 0 0 0 0
0.176452 -0.44546801 -1.4888 0 0 0 0
0.179396 -0.44559699 -1.48923 0 0 0 0
0.18234199 -0.44572601 -1.48965 0 0 0 0
0.18528999 -0.44585401 -1.49008 0 0 0 0
0.18824001 -0.44598299 -1.49051 0 0 0 0
0.191191 -0.44611201 -1.49094 0 0 0 0
0.194144 -0.44624001 -1.49137 0 0 0 0
0.241651 -0.44836399 -1.4984699 0 0 0 0
0.24477699 -0.44875801 -1.49979 0 0 0 0
0.055336799 -0.44560701 -1.4989901 0 0 0 0
0.061056402 -0.44484001 -1.49641 0 0 0 0
0.063922197 -0.44455001 -1.49543 0 0 0 0
0.072561398 -0.444076 -1.49384 0 0 0 0
0.075457998 -0.44404101 -1.4937299 0 0 0 0
0.078366399 -0.444076 -1.49384 0 0 0 0
0.0812869 -0.444175 -1.49417 0 0 0 0
0.084220797 -0.44433701 -1.49472 0 0 0 0
0.090137102 -0.44487 -1.49651 0 0 0 0
0.093125999 -0.445259 -1.49782 0 0 0 0
0.096137799 -0.44573 -1.49941 0 0 0 0
0.139117 -0.44343501 -1.49169 0 0 0 0
0.14419401 -0.44123501 -1.48428 0 0 0 0
0.14698599 -0.44095799 -1.48335 0 0 0 0
0.149894 -0.441035 -1.48361 0 0 0 0
0.152821 -0.44116199 -1.48404 0 0 0 0
0.15574899 -0.44128901 -1.48447 0 0 0 0
0.15867899 -0.441416 -1.48489 0 0 0 0
0.16161101 -0.44154301 -1.48532 0 0 0 0
0.164544 -0.44167101 -1.48575 0 0 0 0
0.16747899 -0.441798 -1.4861799 0 0 0 0
0.170415 -0.44192499 -1.4866 0 0 0 0
0.173354 -0.44205201 -1.48703 0 0 0 0
0.176293 -0.44217899 -1.48746 0 0 0 0
0.179235 -0.44230601 -1.48789 0 0 0 0
0.18217801 -0.442433 -1.48832 0 0 0 0
0.18512399 -0.442561 -1.48875 0 0 0 0
0.18807 -0.442689 -1.48917 0 0 0 0
0.191019 -0.44281599 -1.4895999 0 0 0 0
0.193969 -0.44294399 -1.4900301 0 0 0 0
0.19692101 -0.44307199 -1.49046 0 0 0 0
0.199874 -0.44319901 -1.49089 0 0 0 0
0.202829 -0.44332701 -1.49132 0 0 0 0
0.24452101 -0.44537801 -1.49822 0 0 0 0
0.064085104 -0.44277 -1.4992501 0 0 0 0
0.072747797 -0.44230601 -1.4976799 0 0 0 0
0.075652599 -0.44227701 -1.4975801 0 0 0 0
0.078570001 -0.44231999 -1.49772 0 0 0 0
0.081499502 -0.442426 -1.49808 0 0 0 0
0.084443197 -0.442599 -1.49867 0 0 0 0
0.139192 -0.44077301 -1.4924901 0 0 0 0
0.141565 -0.43914101 -1.4869601 0 0 0 0
0.144135 -0.43816999 -1.48367 0 0 0 0
0.14688601 -0.437778 -1.48234 0 0 0 0
0.14976101 -0.43776199 -1.48229 0 0 0 0
0.152685 -0.437888 -1.48272 0 0 0 0
0.15561 -0.43801299 -1.48314 0 0 0 0
0.158537 -0.43813899 -1.48357 0 0 0 0
0.161466 -0.43826401 -1.48399 0 0 0 0
0.164396 -0.43838999 -1.4844199 0 0 0 0
0.167328 -0.43851599 -1.48484 0 0 0 0
0.17026199 -0.438642 -1.48527 0 0 0 0
0.173198 -0.438768 -1.4857 0 0 0 0
0.176135 -0.438894 -1.48612 0 0 0 0
0.179074 -0.43902099 -1.48655 0 0 0 0
0.182015 -0.439147 -1.48698 0 0 0 0
0.184957 -0.43927401 -1.4874099 0 0 0 0
0.18790101 -0.43939999 -1.4878401 0 0 0 0
0.19084699 -0.439527 -1.48827 0 0 0 0
0.193795 -0.43965301 -1.48869 0 0 0 0
0.19674399 -0.43978 -1.48912 0 0 0 0
0.19969399 -0.43990701 -1.48955 0 0 0 0
0.202647 -0.44003299 -1.48998 0 0 0 0
0.20560101 -0.44016099 -1.49041 0 0 0 0
0.20855699 -0.44028699 -1.49084 0 0 0 0
0.21151499 -0.44041499 -1.4912699 0 0 0 0
0.247536 -0.44265199 -1.49885 0 0 0 0
0.13982099 -0.439854 -1.49924 0 0 0 0
0.141606 -0.43637699 -1.48739 0 0 0 0
0.144096 -0.43517101 -1.4832799 0 0 0 0
0.14681301 -0.43468201 -1.4816099 0 0 0 0
0.149639 -0.43452799 -1.4810801 0 0 0 0
0.152548 -0.43461701 -1.48139 0 0 0 0
0.15547 -0.43474099 -1.48181 0 0 0 0
0.15839501 -0.43486601 -1.48224 0 0 0 0
0.161321 -0.434991 -1.4826601 0 0 0 0
0.164249 -0.43511599 -1.48309 0 0 0 0
0.167179 -0.43524101 -1.48351 0 0 0 0
0.17011 -0.435366 -1.48394 0 0 0 0
0.173043 -0.435491 -1.48437 0 0 0 0
0.17597701 -0.43561599 -1.48479 0 0 0 0
0.178914 -0.43574199 -1.48522 0 0 0 0
0.181852 -0.43586701 -1.4856499 0 0 0 0
0.184791 -0.435992 -1.48607 0 0 0 0
0.18773299 -0.43611699 -1.4865 0 0 0 0
0.190676 -0.436243 -1.48693 0 0 0 0
0.19362 -0.43636799 -1.48736 0 0 0 0
0.196567 -0.43649399 -1.48779 0 0 0 0
0.199515 -0.43662 -1.48821 0 0 0 0
0.202465 -0.436746 -1.48864 0 0 0 0
0.20541599 -0.43687099 -1.4890701 0 0 0 0
0.20837 -0.436997 -1.4895 0 0 0 0
0.211325 -0.437123 -1.48993 0 0 0 0
0.21428099 -0.437249 -1.49036 0 0 0 0
0.21724001 -0.43737599 -1.49079 0 0 0 0
0.2202 -0.437502 -1.49122 0 0 0 0
0.247309 -0.43933699 -1.49748 0 0 0 0
0.139827 -0.43696001 -1.4993 0 0 0 0
0.141718 -0.43382901 -1.48856 0 0 0 0
0.14675801 -0.431642 -1.48105 0 0 0 0
0.149535 -0.43135199 -1.48006 0 0 0 0
0.152411 -0.431353 -1.48006 0 0 0 0
0.155331 -0.431476 -1.48049 0 0 0 0
0.158253 -0.4316 -1.4809099 0 0 0 0
0.16117699 -0.43172401 -1.4813401 0 0 0 0
0.164102 -0.43184799 -1.48176 0 0 0 0
0.16702899 -0.43197101 -1.48219 0 0 0 0
0.169958 -0.432096 -1.48261 0 0 0 0
0.172888 -0.43222001 -1.48304 0 0 0 0
0.17581999 -0.43234399 -1.4834599 0 0 0 0
0.178753 -0.432468 -1.4838901 0 0 0 0
0.18168899 -0.432592 -1.48431 0 0 0 0
0.184626 -0.43271601 -1.48474 0 0 0 0
0.187564 -0.432841 -1.48517 0 0 0 0
0.190505 -0.43296501 -1.48559 0 0 0 0
0.19344699 -0.43309 -1.48602 0 0 0 0
0.19639 -0.43321401 -1.48645 0 0 0 0
0.19933601 -0.433339 -1.4868799 0 0 0 0
0.20228299 -0.43346399 -1.4873101 0 0 0 0
0.20523199 -0.43358901 -1.48773 0 0 0 0
0.20818301 -0.433714 -1.48816 0 0 0 0
0.211134 -0.43383801 -1.48859 0 0 0 0
0.21408901 -0.43396401 -1.48902 0 0 0 0
0.217044 -0.43408799 -1.48945 0 0 0 0
0.220001 -0.43421301 -1.48988 0 0 0 0
0.22296 -0.43433899 -1.49031 0 0 0 0
0.225922 -0.43446499 -1.4907399 0 0 0 0
0.228884 -0.43459001 -1.49117 0 0 0 0
0.24711099 -0.43607801 -1.49628 0 0 0 0
0.25052401 -0.43696001 -1.4993 0 0 0 0
0.139855 -0.43413299 -1.4996001 0 0 0 0
0.141666 -0.43077999 -1.4880199 0 0 0 0
0.146742 -0.42871699 -1.48089 0 0 0 0
0.149478 -0.42831099 -1.47949 0 0 0 0
0.152293 -0.42814401 -1.47891 0 0 0 0
0.155193 -0.42821699 -1.47916 0 0 0 0
0.158112 -0.42833999 -1.4795901 0 0 0 0
0.161033 -0.42846301 -1.48001 0 0 0 0
0.163956 -0.42858601 -1.48044 0 0 0 0
0.16688 -0.42870799 -1.48086 0 0 0 0
0.169806 -0.42883199 -1.48129 0 0 0 0
0.17273299 -0.42895401 -1.48171 0 0 0 0
0.175662 -0.429077 -1.4821301 0 0 0 0
0.17859299 -0.42919999 -1.48256 0 0 0 0
0.18152601 -0.42932299 -1.48299 0 0 0 0
0.18446 -0.429447 -1.48341 0 0 0 0
0.187396 -0.42956999 -1.48384 0 0 0 0
0.19033401 -0.42969301 -1.48426 0 0 0 0
0.19327299 -0.42981699 -1.48469 0 0 0 0
0.19621401 -0.42993999 -1.4851201 0 0 0 0
0.199157 -0.43006399 -1.48555 0 0 0 0
0.20210201 -0.430188 -1.48597 0 0 0 0
0.20504799 -0.43031201 -1.4864 0 0 0 0
0.207996 -0.430435 -1.48683 0 0 0 0
0.210945 -0.43055999 -1.48726 0 0 0 0
0.21389601 -0.43068299 -1.48768 0 0 0 0
0.216849 -0.43080699 -1.4881099 0 0 0 0
0.219804 -0.43093199 -1.4885401 0 0 0 0
0.22276001 -0.43105501 -1.48897 0 0 0 0
0.22571801 -0.43117899 -1.4894 0 0 0 0
0.228678 -0.43130401 -1.48983 0 0 0 0
0.231639 -0.431429 -1.49026 0 0 0 0
0.234603 -0.43155301 -1.49069 0 0 0 0
0.237574 -0.43168899 -1.49116 0 0 0 0
0.24694 -0.43287 -1.49524 0 0 0 0
0.25035399 -0.43375301 -1.4982899 0 0 0 0
0.13988701 -0.431319 -1.4999501 0 0 0 0
0.14169601 -0.42797899 -1.48833 0 0 0 0
0.14676701 -0.42591101 -1.48114 0 0 0 0
0.14944901 -0.425354 -1.4792 0 0 0 0
0.15222199 -0.42507201 -1.47822 0 0 0 0
0.160889 -0.42520699 -1.47869 0 0 0 0
0.163809 -0.425329 -1.47912 0 0 0 0
0.166731 -0.42545101 -1.47954 0 0 0 0
0.169654 -0.42557299 -1.47996 0 0 0 0
0.17257901 -0.42569399 -1.48039 0 0 0 0
0.175505 -0.425816 -1.48081 0 0 0 0
0.178434 -0.42593801 -1.48123 0 0 0 0
0.181364 -0.426061 -1.48166 0 0 0 0
0.184295 -0.42618299 -1.48208 0 0 0 0
0.18722899 -0.426305 -1.48251 0 0 0 0
0.190164 -0.42642701 -1.48294 0 0 0 0
0.19310001 -0.42655 -1.4833601 0 0 0 0
0.19603901 -0.42667201 -1.48379 0 0 0 0
0.19897901 -0.42679501 -1.48421 0 0 0 0
0.201921 -0.426918 -1.48464 0 0 0 0
0.204864 -0.42704099 -1.48507 0 0 0 0
0.207809 -0.427163 -1.48549 0 0 0 0
0.210756 -0.427286 -1.48592 0 0 0 0
0.213704 -0.42740899 -1.4863501 0 0 0 0
0.216655 -0.42753199 -1.48678 0 0 0 0
0.219606 -0.42765501 -1.4872 0 0 0 0
0.22256 -0.42777801 -1.48763 0 0 0 0
0.22551601 -0.427901 -1.48806 0 0 0 0
0.22847199 -0.42802399 -1.48849 0 0 0 0
0.23143101 -0.42814699 -1.48892 0 0 0 0
0.234391 -0.428271 -1.4893399 0 0 0 0
0.23737399 -0.428431 -1.4899 0 0 0 0
0.24679101 -0.42970601 -1.4943399 0 0 0 0
0.250231 -0.43063 -1.49755 0 0 0 0
0.141945 -0.425834 -1.49095 0 0 0 0
0.14946499 -0.422526 -1.47936 0 0 0 0
0.152189 -0.42210799 -1.4779 0 0 0 0
0.154983 -0.42189801 -1.47716 0 0 0 0
0.157837 -0.421855 -1.47702 0 0 0 0
0.16074599 -0.421958 -1.47737 0 0 0 0
0.166582 -0.42219901 -1.47822 0 0 0 0
0.169502 -0.42232001 -1.47864 0 0 0 0
0.172425 -0.42244101 -1.4790601 0 0 0 0
0.175349 -0.42256099 -1.47949 0 0 0 0
0.17827401 -0.422683 -1.47991 0 0 0 0
0.18120199 -0.422804 -1.48034 0 0 0 0
0.184131 -0.422925 -1.48076 0 0 0 0
0.187061 -0.42304599 -1.48118 0 0 0 0
0.18999401 -0.42316699 -1.4816099 0 0 0 0
0.192928 -0.423289 -1.48203 0 0 0 0
0.19586299 -0.42341 -1.48246 0 0 0 0
0.1988 -0.423531 -1.48288 0 0 0 0
0.20174 -0.42365399 -1.48331 0 0 0 0
0.20468099 -0.42377499 -1.48374 0 0 0 0
0.207623 -0.423897 -1.4841599 0 0 0 0
0.210567 -0.42401901 -1.4845901 0 0 0 0
0.213513 -0.42414001 -1.48502 0 0 0 0
0.21646 -0.42426199 -1.48544 0 0 0 0
0.21941 -0.424384 -1.48587 0 0 0 0
0.22236 -0.42450601 -1.48629 0 0 0 0
0.22531299 -0.424629 -1.48672 0 0 0 0
0.228268 -0.42475101 -1.48715 0 0 0 0
0.231223 -0.42487299 -1.4875799 0 0 0 0
0.23418599 -0.42500401 -1.48804 0 0 0 0
0.237184 -0.42519501 -1.48871 0 0 0 0
0.246682 -0.42661601 -1.49368 0 0 0 0
0.25014499 -0.427573 -1.49703 0 0 0 0
0.14263301 -0.424988 -1.49818 0 0 0 0
0.144456 -0.42181101 -1.4869699 0 0 0 0
0.14696901 -0.42073601 -1.48318 0 0 0 0
0.14951999 -0.41980499 -1.4799 0 0 0 0
0.15220501 -0.41928101 -1.47806 0 0 0 0
0.154952 -0.41894299 -1.47686 0 0 0 0
0.157755 -0.41876701 -1.47624 0 0 0 0
0.160611 -0.41873601 -1.47614 0 0 0 0
0.163517 -0.41883299 -1.47648 0 0 0 0
0.16643301 -0.418953 -1.4769 0 0 0 0
0.175192 -0.419312 -1.47817 0 0 0 0
0.178115 -0.41943201 -1.47859 0 0 0 0
0.18104 -0.41955301 -1.47901 0 0 0 0
0.183966 -0.419673 -1.47944 0 0 0 0
0.186894 -0.41979301 -1.4798599 0 0 0 0
0.189824 -0.41991299 -1.48028 0 0 0 0
0.192755 -0.42003301 -1.48071 0 0 0 0
0.19568799 -0.42015401 -1.48113 0 0 0 0
0.198623 -0.42027399 -1.48156 0 0 0 0
0.20155901 -0.42039499 -1.48198 0 0 0 0
0.20449699 -0.42051601 -1.48241 0 0 0 0
0.20743699 -0.420636 -1.48283 0 0 0 0
0.210379 -0.42075801 -1.48326 0 0 0 0
0.213322 -0.42087799 -1.48369 0 0 0 0
0.21626601 -0.42099899 -1.48411 0 0 0 0
0.21921299 -0.42111999 -1.48454 0 0 0 0
0.222161 -0.42124099 -1.48496 0 0 0 0
0.22511099 -0.421361 -1.4853899 0 0 0 0
0.228062 -0.42148301 -1.4858201 0 0 0 0
0.231016 -0.42160499 -1.48625 0 0 0 0
0.233997 -0.42177299 -1.48684 0 0 0 0
0.23702499 -0.422019 -1.48771 0 0 0 0
0.246611 -0.42359 -1.49325 0 0 0 0
0.25012001 -0.424622 -1.4968899 0 0 0 0
0.142749 -0.42242199 -1.4994 0 0 0 0
0.144621 -0.41940001 -1.48867 0 0 0 0
0.147231 -0.41859701 -1.4858201 0 0 0 0
0.15226001 -0.41656101 -1.4786 0 0 0 0
0.15496799 -0.41611701 -1.47702 0 0 0 0
0.157729 -0.41583201 -1.47601 0 0 0 0
0.160538 -0.41567799 -1.4754601 0 0 0 0
0.163386 -0.41563201 -1.4753 0 0 0 0
0.16628499 -0.41571301 -1.47558 0 0 0 0
0.1692 -0.415831 -1.47601 0 0 0 0
0.17211699 -0.41595 -1.4764301 0 0 0 0
0.175036 -0.416069 -1.47685 0 0 0 0
0.180878 -0.416307 -1.47769 0 0 0 0
0.18380199 -0.416426 -1.47812 0 0 0 0
0.186727 -0.416545 -1.4785399 0 0 0 0
0.18965399 -0.41666499 -1.47896 0 0 0 0
0.19258299 -0.41678399 -1.47939 0 0 0 0
0.195513 -0.41690299 -1.47981 0 0 0 0
0.19844501 -0.41702199 -1.48023 0 0 0 0
0.201379 -0.417142 -1.48066 0 0 0 0
0.20431501 -0.41726199 -1.4810801 0 0 0 0
0.207252 -0.417382 -1.48151 0 0 0 0
0.21019 -0.41750199 -1.48193 0 0 0 0
0.213131 -0.41762099 -1.48236 0 0 0 0
0.21607301 -0.417741 -1.48278 0 0 0 0
0.219017 -0.41786101 -1.48321 0 0 0 0
0.221962 -0.417981 -1.4836299 0 0 0 0
0.22490899 -0.41810101 -1.48406 0 0 0 0
0.22785801 -0.418221 -1.48449 0 0 0 0
0.23083 -0.41837901 -1.48505 0 0 0 0
0.233836 -0.41859499 -1.48581 0 0 0 0
0.23690601 -0.41892001 -1.4869699 0 0 0 0
0.246592 -0.42065701 -1.49313 0 0 0 0
0.250135 -0.42174 -1.49698 0 0 0 0
0.14535201 -0.41861299 -1.4962 0 0 0 0
0.147322 -0.41596699 -1.48674 0 0 0 0
0.149846 -0.41495699 -1.48313 0 0 0 0
0.155031 -0.41341501 -1.47762 0 0 0 0
0.157754 -0.413028 -1.47623 0 0 0 0
0.160522 -0.41277099 -1.47532 0 0 0 0
0.163332 -0.41262701 -1.4748 0 0 0 0
0.166173 -0.41256699 -1.4745899 0 0 0 0
0.169056 -0.41261101 -1.47475 0 0 0 0
0.171964 -0.412714 -1.4751101 0 0 0 0
0.17488 -0.41283199 -1.47553 0 0 0 0
0.177798 -0.41295001 -1.47596 0 0 0 0
0.18071701 -0.413068 -1.47638 0 0 0 0
0.189485 -0.41342199 -1.47764 0 0 0 0
0.19241101 -0.41354001 -1.47807 0 0 0 0
0.19533899 -0.41365901 -1.47849 0 0 0 0
0.198268 -0.41377699 -1.47891 0 0 0 0
0.201199 -0.41389501 -1.47934 0 0 0 0
0.20413201 -0.41401401 -1.4797601 0 0 0 0
0.207067 -0.41413301 -1.48019 0 0 0 0
0.21000201 -0.414251 -1.48061 0 0 0 0
0.21294001 -0.41437 -1.48103 0 0 0 0
0.21588001 -0.414489 -1.48146 0 0 0 0
0.218821 -0.414608 -1.4818799 0 0 0 0
0.221764 -0.414727 -1.4823101 0 0 0 0
0.224709 -0.41484699 -1.48274 0 0 0 0
0.227677 -0.415007 -1.48331 0 0 0 0
0.230674 -0.41521299 -1.48405 0 0 0 0
0.233721 -0.41550401 -1.48509 0 0 0 0
0.236816 -0.41587099 -1.4864 0 0 0 0
0.243231 -0.416967 -1.49032 0 0 0 0
0.246619 -0.41780099 -1.4933 0 0 0 0
0.25025201 -0.419027 -1.4976799 0 0 0 0
0.14557201 -0.416336 -1.4984601 0 0 0 0
0.147485 -0.41353801 -1.48839 0 0 0 0
0.15016501 -0.41295299 -1.48629 0 0 0 0
0.15256 -0.41162401 -1.48151 0 0 0 0
0.157827 -0.41034999 -1.47692 0 0 0 0
0.16056199 -0.41000599 -1.47568 0 0 0 0
0.163331 -0.40976101 -1.4748 0 0 0 0
0.16613799 -0.40961701 -1.47428 0 0 0 0
0.168973 -0.40954599 -1.47403 0 0 0 0
0.171837 -0.40954599 -1.47403 0 0 0 0
0.174731 -0.40961599 -1.47428 0 0 0 0
0.17763899 -0.40971699 -1.47464 0 0 0 0
0.180556 -0.409834 -1.47506 0 0 0 0
0.183475 -0.409951 -1.47548 0 0 0 0
0.18639401 -0.41006801 -1.4759001 0 0 0 0
0.189316 -0.41018501 -1.47633 0 0 0 0
0.198091 -0.410537 -1.47759 0 0 0 0
0.201019 -0.41065401 -1.4780101 0 0 0 0
0.20395 -0.410772 -1.47844 0 0 0 0
0.206882 -0.41089001 -1.47886 0 0 0 0
0.209815 -0.411008 -1.47929 0 0 0 0
0.21275 -0.411125 -1.47971 0 0 0 0
0.21568701 -0.41124299 -1.48014 0 0 0 0
0.21862499 -0.41136101 -1.4805599 0 0 0 0
0.221577 -0.41150001 -1.48106 0 0 0 0
0.224538 -0.411654 -1.4816099 0 0 0 0
0.22753701 -0.411872 -1.4823999 0 0 0 0
0.23057801 -0.412157 -1.48343 0 0 0 0
0.233648 -0.41249001 -1.48462 0 0 0 0
0.243273 -0.41414401 -1.4905699 0 0 0 0
0.246713 -0.41505799 -1.49387 0 0 0 0
0.250476 -0.41648999 -1.49902 0 0 0 0
0.14818101 -0.412581 -1.49541 0 0 0 0
0.150199 -0.41015899 -1.48663 0 0 0 0
0.15287299 -0.409583 -1.48454 0 0 0 0
0.155338 -0.408481 -1.4805501 0 0 0 0
0.160649 -0.407361 -1.47649 0 0 0 0
0.16339201 -0.407047 -1.47535 0 0 0 0
0.166161 -0.40680701 -1.47448 0 0 0 0
0.16896901 -0.40667 -1.4739799 0 0 0 0
0.171794 -0.40658 -1.47366 0 0 0 0
0.17465 -0.40656301 -1.47359 0 0 0 0
0.177517 -0.40656999 -1.4736201 0 0 0 0
0.18041 -0.40663701 -1.47386 0 0 0 0
0.18331499 -0.40673101 -1.4742 0 0 0 0
0.18622801 -0.406838 -1.4745899 0 0 0 0
0.18914799 -0.40695399 -1.47501 0 0 0 0
0.192068 -0.40707001 -1.47543 0 0 0 0
0.19499101 -0.407186 -1.47585 0 0 0 0
0.197915 -0.40730301 -1.47628 0 0 0 0
0.203768 -0.407536 -1.47712 0 0 0 0
0.206697 -0.407653 -1.47754 0 0 0 0
0.209628 -0.40776899 -1.47797 0 0 0 0
0.21256299 -0.40789101 -1.47841 0 0 0 0
0.215509 -0.40803099 -1.47892 0 0 0 0
0.218459 -0.40817299 -1.47943 0 0 0 0
0.221435 -0.40836099 -1.48011 0 0 0 0
0.224433 -0.40858299 -1.48092 0 0 0 0
0.227467 -0.40886399 -1.48194 0 0 0 0
0.230526 -0.40918401 -1.48309 0 0 0 0
0.233629 -0.40957201 -1.4845001 0 0 0 0
0.24003699 -0.41066501 -1.4884599 0 0 0 0
0.24338099 -0.41143 -1.49124 0 0 0 0
0.24689899 -0.41246599 -1.49499 0 0 0 0
0.148468 -0.410469 -1.49831 0 0 0 0
0.150483 -0.40803999 -1.48944 0 0 0 0
0.153133 -0.40739 -1.48707 0 0 0 0
0.15564901 -0.406418 -1.48352 0 0 0 0
0.158162 -0.405469 -1.48005 0 0 0 0
0.163499 -0.40444499 -1.47631 0 0 0 0
0.166243 -0.40414199 -1.47521 0 0 0 0
0.16901501 -0.403918 -1.47439 0 0 0 0
0.171819 -0.40377399 -1.47386 0 0 0 0
0.17464501 -0.40368801 -1.47355 0 0 0 0
0.17748401 -0.403633 -1.47335 0 0 0 0
0.180346 -0.403631 -1.47335 0 0 0 0
0.183219 -0.40365499 -1.47343 0 0 0 0
0.18610901 -0.403714 -1.47365 0 0 0 0
0.189009 -0.40379101 -1.47393 0 0 0 0
0.191917 -0.40388501 -1.47427 0 0 0 0
0.19483399 -0.40399301 -1.4746701 0 0 0 0
0.197754 -0.40410501 -1.47508 0 0 0 0
0.20067801 -0.40422201 -1.4755 0 0 0 0
0.203605 -0.404342 -1.47594 0 0 0 0
0.21242601 -0.40475899 -1.47746 0 0 0 0
0.215389 -0.40493101 -1.47809 0 0 0 0
0.21836901 -0.405132 -1.47882 0 0 0 0
0.22137199 -0.40536901 -1.47969 0 0 0 0
0.224388 -0.405624 -1.48062 0 0 0 0
0.22744501 -0.405947 -1.4818 0 0 0 0
0.23053101 -0.40631199 -1.48313 0 0 0 0
0.236872 -0.40730399 -1.48675 0 0 0 0
0.240154 -0.40797299 -1.48919 0 0 0 0
0.243549 -0.40881401 -1.49226 0 0 0 0
0.247207 -0.41007301 -1.49686 0 0 0 0
0.15116499 -0.40698099 -1.4961801 0 0 0 0
0.153244 -0.404796 -1.48815 0 0 0 0
0.156004 -0.40445399 -1.48689 0 0 0 0
0.158484 -0.40341401 -1.48307 0 0 0 0
0.161028 -0.40257001 -1.47997 0 0 0 0
0.169128 -0.40132099 -1.4753799 0 0 0 0
0.1719 -0.40110099 -1.47457 0 0 0 0
0.174697 -0.40094301 -1.47399 0 0 0 0
0.177518 -0.40084699 -1.47363 0 0 0 0
0.18035799 -0.400796 -1.4734499 0 0 0 0
0.18321501 -0.40078199 -1.47339 0 0 0 0
0.18607999 -0.40078899 -1.47342 0 0 0 0
0.18896601 -0.400837 -1.4736 0 0 0 0
0.19185901 -0.40090001 -1.47383 0 0 0 0
0.19475999 -0.400976 -1.47411 0 0 0 0
0.19767 -0.40107 -1.47445 0 0 0 0
0.200592 -0.40118399 -1.47487 0 0 0 0
0.203522 -0.40131101 -1.47534 0 0 0 0
0.206462 -0.401454 -1.47586 0 0 0 0
0.20941301 -0.40161499 -1.47645 0 0 0 0
0.21834899 -0.40222099 -1.47868 0 0 0 0
0.221367 -0.40248501 -1.47966 0 0 0 0
0.22440501 -0.40277901 -1.4807301 0 0 0 0
0.227483 -0.403135 -1.48204 0 0 0 0
0.233771 -0.40404901 -1.48541 0 0 0 0
0.237011 -0.40465301 -1.48763 0 0 0 0
0.24034099 -0.405395 -1.49035 0 0 0 0
0.243857 -0.40642801 -1.49415 0 0 0 0
0.15147801 -0.40491301 -1.49929 0 0 0 0
0.15391199 -0.40365601 -1.49464 0 0 0 0
0.15606 -0.40170899 -1.48743 0 0 0 0
0.158852 -0.40146101 -1.48651 0 0 0 0
0.161373 -0.40055001 -1.48313 0 0 0 0
0.163936 -0.399773 -1.48026 0 0 0 0
0.166582 -0.399221 -1.47821 0 0 0 0
0.172038 -0.39855599 -1.47575 0 0 0 0
0.174816 -0.39835101 -1.47499 0 0 0 0
0.17761301 -0.39819801 -1.47442 0 0 0 0
0.18043301 -0.39809799 -1.4740601 0 0 0 0
0.183272 -0.39804399 -1.47386 0 0 0 0
0.186124 -0.39801899 -1.47376 0 0 0 0
0.188991 -0.398027 -1.47379 0 0 0 0
0.19187699 -0.39807299 -1.47396 0 0 0 0
0.19477101 -0.39813501 -1.47419 0 0 0 0
0.197676 -0.39821601 -1.47449 0 0 0 0
0.20059501 -0.39832401 -1.47489 0 0 0 0
0.20352501 -0.398449 -1.47536 0 0 0 0
0.206466 -0.39859399 -1.47589 0 0 0 0
0.20942201 -0.398763 -1.4765199 0 0 0 0
0.212393 -0.398954 -1.47723 0 0 0 0
0.215379 -0.39916801 -1.47802 0 0 0 0
0.221422 -0.39971 -1.48002 0 0 0 0
0.23074 -0.40090999 -1.48447 0 0 0 0
0.233941 -0.401454 -1.48648 0 0 0 0
0.237234 -0.40213999 -1.48902 0 0 0 0
0.240661 -0.40303501 -1.49233 0 0 0 0
0.244317 -0.40428701 -1.4969701 0 0 0 0
0.154254 -0.40164199 -1.49796 0 0 0 0
0.15672199 -0.40051201 -1.49374 0 0 0 0
0.15897 -0.39886999 -1.48761 0 0 0 0
0.16174901 -0.39859599 -1.4866 0 0 0 0
0.164307 -0.39779601 -1.48361 0 0 0 0
0.16689 -0.397084 -1.48095 0 0 0 0
0.169535 -0.39653999 -1.47893 0 0 0 0
0.172244 -0.396162 -1.47752 0 0 0 0
0.180572 -0.39553899 -1.47519 0 0 0 0
0.183392 -0.39544001 -1.47482 0 0 0 0
0.186233 -0.39538801 -1.47463 0 0 0 0
0.189087 -0.39536399 -1.47454 0 0 0 0
0.19195899 -0.39537799 -1.4745899 0 0 0 0
0.19484399 -0.39541799 -1.47474 0 0 0 0
0.197743 -0.39548501 -1.47499 0 0 0 0
0.20066001 -0.39558601 -1.47537 0 0 0 0
0.20359001 -0.39570901 -1.47583 0 0 0 0
0.206533 -0.395854 -1.47637 0 0 0 0
0.20949399 -0.39603001 -1.47703 0 0 0 0
0.212474 -0.396236 -1.47779 0 0 0 0
0.215478 -0.39647901 -1.4787 0 0 0 0
0.227773 -0.39788201 -1.48393 0 0 0 0
0.23094501 -0.39838001 -1.48579 0 0 0 0
0.234202 -0.39901099 -1.48814 0 0 0 0
0.237574 -0.39982 -1.49116 0 0 0 0
0.24112201 -0.400902 -1.49519 0 0 0 0
0.157078 -0.39851201 -1.49713 0 0 0 0
0.159299 -0.396799 -1.4907 0 0 0 0
0.16190501 -0.39608899 -1.48803 0 0 0 0
0.164693 -0.395841 -1.4871 0 0 0 0
0.16728599 -0.39513999 -1.48446 0 0 0 0
0.169897 -0.39450601 -1.48208 0 0 0 0
0.17253999 -0.393967 -1.48006 0 0 0 0
0.175244 -0.39357999 -1.4786 0 0 0 0
0.17799699 -0.39331499 -1.47761 0 0 0 0
0.189246 -0.39283001 -1.47578 0 0 0 0
0.19211 -0.39282101 -1.47575 0 0 0 0
0.194988 -0.39284301 -1.47583 0 0 0 0
0.19788 -0.392892 -1.47602 0 0 0 0
0.200793 -0.39298001 -1.4763499 0 0 0 0
0.203725 -0.393103 -1.47681 0 0 0 0
0.20667 -0.39324701 -1.47735 0 0 0 0
0.221752 -0.394546 -1.4822299 0 0 0 0
0.22803099 -0.395446 -1.48561 0 0 0 0
0.231261 -0.396034 -1.48782 0 0 0 0
0.23458301 -0.39676401 -1.4905601 0 0 0 0
0.238078 -0.39776501 -1.49432 0 0 0 0
0.241896 -0.399275 -1.5 0 0 0 0
0.15996499 -0.395549 -1.49693 0 0 0 0
0.162228 -0.39398199 -1.4910001 0 0 0 0
0.16486 -0.39335001 -1.4886 0 0 0 0
0.167688 -0.39320001 -1.48804 0 0 0 0
0.170313 -0.39258599 -1.48571 0 0 0 0
0.172951 -0.39202201 -1.48358 0 0 0 0
0.175612 -0.39152801 -1.48171 0 0 0 0
0.178307 -0.39112401 -1.48018 0 0 0 0
0.181058 -0.39085501 -1.47916 0 0 0 0
0.183834 -0.39064801 -1.47838 0 0 0 0
0.186644 -0.39051601 -1.47788 0 0 0 0
0.18946999 -0.39042401 -1.47753 0 0 0 0
0.209851 -0.390955 -1.47954 0 0 0 0
0.212854 -0.39119101 -1.48043 0 0 0 0
0.215881 -0.39146399 -1.48146 0 0 0 0
0.218936 -0.39177999 -1.4826601 0 0 0 0
0.22204199 -0.392178 -1.48417 0 0 0 0
0.228402 -0.39319801 -1.48803 0 0 0 0
0.231702 -0.39389399 -1.49066 0 0 0 0
0.235166 -0.39484599 -1.49426 0 0 0 0
0.23887201 -0.39617801 -1.49931 0 0 0 0
0.162894 -0.39269099 -1.49712 0 0 0 0
0.16521201 -0.39129001 -1.49178 0 0 0 0
0.167836 -0.39065301 -1.48935 0 0 0 0
0.170728 -0.39064801 -1.4893301 0 0 0 0
0.173375 -0.390093 -1.48721 0 0 0 0
0.17604899 -0.389617 -1.4854 0 0 0 0
0.17874201 -0.38919601 -1.48379 0 0 0 0
0.181458 -0.38883901 -1.48243 0 0 0 0
0.1842 -0.388547 -1.48132 0 0 0 0
0.18697 -0.38832301 -1.48046 0 0 0 0
0.189786 -0.38820001 -1.47999 0 0 0 0
0.192617 -0.38811001 -1.47965 0 0 0 0
0.195485 -0.38809499 -1.4795901 0 0 0 0
0.198375 -0.38812599 -1.47971 0 0 0 0
0.20128 -0.38818201 -1.47993 0 0 0 0
0.204218 -0.388302 -1.4803801 0 0 0 0
0.207175 -0.38845301 -1.48096 0 0 0 0
0.210155 -0.388643 -1.48168 0 0 0 0
0.213173 -0.388897 -1.48265 0 0 0 0
0.21621799 -0.38919199 -1.48378 0 0 0 0
0.21929599 -0.389539 -1.4851 0 0 0 0
0.222443 -0.38999701 -1.48685 0 0 0 0
0.228955 -0.39125201 -1.49163 0 0 0 0
0.232383 -0.39214599 -1.4950401 0 0 0 0
0.235957 -0.393262 -1.4993 0 0 0 0
0.165879 -0.389961 -1.49781 0 0 0 0
0.168227 -0.38866299 -1.49282 0 0 0 0
0.170871 -0.38808 -1.49058 0 0 0 0
0.173788 -0.388127 -1.49076 0 0 0 0
0.176487 -0.38769299 -1.48909 0 0 0 0
0.17919099 -0.38728499 -1.48752 0 0 0 0
0.181926 -0.38695401 -1.4862601 0 0 0 0
0.18467399 -0.38666201 -1.48513 0 0 0 0
0.18743099 -0.38639599 -1.48411 0 0 0 0
0.190226 -0.38621601 -1.48342 0 0 0 0
0.19304 -0.38608 -1.4829 0 0 0 0
0.195877 -0.385993 -1.4825701 0 0 0 0
0.198764 -0.38600501 -1.48261 0 0 0 0
0.201666 -0.38604599 -1.48277 0 0 0 0
0.204601 -0.38614899 -1.48316 0 0 0 0
0.20757 -0.38631099 -1.48379 0 0 0 0
0.21056201 -0.38651201 -1.48456 0 0 0 0
0.21360201 -0.386792 -1.48563 0 0 0 0
0.216684 -0.387142 -1.48698 0 0 0 0
0.21981899 -0.387575 -1.48864 0 0 0 0
0.22301801 -0.38810799 -1.49069 0 0 0 0
0.22967499 -0.38957599 -1.49632 0 0 0 0
0.23315001 -0.390526 -1.49998 0 0 0 0
0.16891401 -0.38733801 -1.49891 0 0 0 0
0.171563 -0.38674301 -1.49661 0 0 0 0
0.17396399 -0.38562 -1.49227 0 0 0 0
0.17679299 -0.38546601 -1.49167 0 0 0 0
0.17964301 -0.38536301 -1.4912699 0 0 0 0
0.182392 -0.38504899 -1.49006 0 0 0 0
0.185147 -0.384758 -1.48893 0 0 0 0
0.18791901 -0.38451099 -1.48798 0 0 0 0
0.190727 -0.38434401 -1.48733 0 0 0 0
0.193542 -0.38419601 -1.48676 0 0 0 0
0.196404 -0.38414299 -1.48655 0 0 0 0
0.19928101 -0.38412201 -1.48647 0 0 0 0
0.202196 -0.38417301 -1.48667 0 0 0 0
0.205135 -0.38426799 -1.48703 0 0 0 0
0.208114 -0.38443199 -1.4876699 0 0 0 0
0.211134 -0.38466901 -1.48859 0 0 0 0
0.21418799 -0.38495901 -1.48971 0 0 0 0
0.217317 -0.38537499 -1.49132 0 0 0 0
0.22046199 -0.385809 -1.493 0 0 0 0
0.223703 -0.38639599 -1.49527 0 0 0 0
0.174667 -0.38426799 -1.4983 0 0 0 0
0.1771 -0.38323301 -1.49427 0 0 0 0
0.179828 -0.38286099 -1.49281 0 0 0 0
0.18282101 -0.38305399 -1.49357 0 0 0 0
0.18561301 -0.382826 -1.49268 0 0 0 0
0.18841 -0.382617 -1.49186 0 0 0 0
0.191229 -0.382458 -1.49124 0 0 0 0
0.194059 -0.38232601 -1.49073 0 0 0 0
0.19693901 -0.38229299 -1.4906 0 0 0 0
0.199818 -0.38226101 -1.4904701 0 0 0 0
0.202758 -0.38234299 -1.4908 0 0 0 0
0.205708 -0.38244399 -1.49119 0 0 0 0
0.20870601 -0.38262799 -1.49191 0 0 0 0
0.211741 -0.38287401 -1.49286 0 0 0 0
0.21481501 -0.38318399 -1.4940799 0 0 0 0
0.21795 -0.38359201 -1.4956599 0 0 0 0
0.221129 -0.38406599 -1.49751 0 0 0 0
0.224387 -0.38466299 -1.49984 0 0 0 0
0.180555 -0.38149399 -1.49884 0 0 0 0
0.18303899 -0.380606 -1.49535 0 0 0 0
0.185835 -0.38038099 -1.49447 0 0 0 0
0.188861 -0.38062799 -1.49544 0 0 0 0
0.191727 -0.38054901 -1.4951299 0 0 0 0
0.194573 -0.38043499 -1.49468 0 0 0 0
0.197457 -0.380395 -1.4945199 0 0 0 0
0.200358 -0.38038999 -1.4945 0 0 0 0
0.203315 -0.38049001 -1.4949 0 0 0 0
0.206274 -0.38059101 -1.49529 0 0 0 0
0.209296 -0.38080299 -1.49613 0 0 0 0
0.212339 -0.38104701 -1.49708 0 0 0 0
0.215442 -0.38139001 -1.49843 0 0 0 0
0.189109 -0.378218 -1.4974 0 0 0 0
0.19194201 -0.37806699 -1.4967999 0 0 0 0
0.194952 -0.37826601 -1.4975899 0 0 0 0
0.197984 -0.378499 -1.49851 0 0 0 0
0.200909 -0.37852401 -1.49861 0 0 0 0
0.20386299 -0.378602 -1.49892 0 0 0 0
0.20684201 -0.37872401 -1.4994 0 0 0 0
-0.14787 -0.0316865 -1.35904 0 0 0 0
-0.145009 -0.031638399 -1.35698 0 0 0 0
-0.142267 -0.0316149 -1.35597 0 0 0 0
-0.139588 -0.031604901 -1.35554 0 0 0 0
-0.13697299 -0.031608999 -1.35572 0 0 0 0
-0.134434 -0.0316316 -1.35668 0 0 0 0
-0.132048 -0.031691398 -1.3592499 0 0 0 0
-0.18747699 -0.0298876 -1.39842 0 0 0 0
-0.184398 -0.0298292 -1.39568 0 0 0 0
-0.181915 -0.0298666 -1.39744 0 0 0 0
-0.15301099 -0.0290194 -1.35779 0 0 0 0
-0.150048 -0.0289566 -1.3548599 0 0 0 0
-0.14723399 -0.028921001 -1.3531899 0 0 0 0
-0.144485 -0.028897 -1.35207 0 0 0 0
-0.141793 -0.0288838 -1.35145 0 0 0 0
-0.139137 -0.0288774 -1.35115 0 0 0 0
-0.136519 -0.0288791 -1.35123 0 0 0 0
-0.133944 -0.0288899 -1.35173 0 0 0 0
-0.131464 -0.0289221 -1.35324 0 0 0 0
-0.129024 -0.0289646 -1.35523 0 0 0 0
-0.126682 -0.0290314 -1.3583601 0 0 0 0
-0.19007801 -0.027154 -1.39757 0 0 0 0
-0.18682 -0.0270753 -1.39352 0 0 0 0
-0.184056 -0.027067101 -1.39309 0 0 0 0
-0.18148801 -0.0270877 -1.39415 0 0 0 0
-0.17916501 -0.0271463 -1.3971699 0 0 0 0
-0.176971 -0.027226301 -1.4012901 0 0 0 0
-0.174785 -0.0273102 -1.4056 0 0 0 0
-0.17275 -0.027420601 -1.41129 0 0 0 0
-0.15545 -0.026347499 -1.35606 0 0 0 0
-0.152485 -0.026290501 -1.35312 0 0 0 0
-0.149655 -0.0262553 -1.35131 0 0 0 0
-0.146882 -0.026229 -1.34996 0 0 0 0
-0.14414901 -0.026208799 -1.34892 0 0 0 0
-0.14146701 -0.026197599 -1.34834 0 0 0 0
-0.138808 -0.0261901 -1.34796 0 0 0 0
-0.136197 -0.0261917 -1.34804 0 0 0 0
-0.133626 -0.026201099 -1.34852 0 0 0 0
-0.13112099 -0.0262242 -1.34971 0 0 0 0
-0.12869801 -0.0262648 -1.3518 0 0 0 0
-0.126267 -0.026305599 -1.3539 0 0 0 0
-0.123921 -0.0263661 -1.35702 0 0 0 0
-0.121783 -0.0264745 -1.36259 0 0 0 0
-0.18966299 -0.0243853 -1.39452 0 0 0 0
-0.18667801 -0.024349401 -1.39246 0 0 0 0
-0.183971 -0.024349 -1.39245 0 0 0 0
-0.18147799 -0.0243777 -1.39408 0 0 0 0
-0.179132 -0.024427099 -1.39691 0 0 0 0
-0.176815 -0.024482099 -1.4000601 0 0 0 0
-0.17446101 -0.0245336 -1.403 0 0 0 0
-0.17204 -0.0245772 -1.40549 0 0 0 0
-0.16959301 -0.0246183 -1.40784 0 0 0 0
-0.167171 -0.024664501 -1.41049 0 0 0 0
-0.158208 -0.023731099 -1.35711 0 0 0 0
-0.155099 -0.023659199 -1.353 0 0 0 0
-0.15220501 -0.023618 -1.3506401 0 0 0 0
-0.14939301 -0.0235883 -1.34894 0 0 0 0
-0.146624 -0.023564599 -1.34758 0 0 0 0
-0.143902 -0.023547599 -1.34661 0 0 0 0
-0.14120901 -0.0235349 -1.34589 0 0 0 0
-0.138533 -0.0235245 -1.3452899 0 0 0 0
-0.135886 -0.023518801 -1.34496 0 0 0 0
-0.13328899 -0.023521701 -1.34513 0 0 0 0
-0.130768 -0.023538301 -1.3460799 0 0 0 0
-0.128355 -0.023575399 -1.3482 0 0 0 0
-0.126003 -0.023625599 -1.3510799 0 0 0 0
-0.123591 -0.0236663 -1.3534 0 0 0 0
-0.121281 -0.0237289 -1.35698 0 0 0 0
-0.119253 -0.023850599 -1.36394 0 0 0 0
-0.189758 -0.021686601 -1.39521 0 0 0 0
-0.18674301 -0.0216514 -1.3929501 0 0 0 0
-0.184017 -0.0216491 -1.3928 0 0 0 0
-0.18156099 -0.021679001 -1.39472 0 0 0 0
-0.179197 -0.021720801 -1.39741 0 0 0 0
-0.17677601 -0.021756999 -1.39974 0 0 0 0
-0.174309 -0.021788601 -1.40177 0 0 0 0
-0.171808 -0.0218169 -1.4036 0 0 0 0
-0.169284 -0.0218431 -1.40528 0 0 0 0
-0.166766 -0.021871001 -1.4070801 0 0 0 0
-0.15789001 -0.021051999 -1.35439 0 0 0 0
-0.154879 -0.021000599 -1.3510799 0 0 0 0
-0.15201101 -0.0209671 -1.34892 0 0 0 0
-0.149204 -0.0209409 -1.34723 0 0 0 0
-0.146447 -0.020920999 -1.34596 0 0 0 0
-0.143723 -0.0209052 -1.3449399 0 0 0 0
-0.141009 -0.020890299 -1.34398 0 0 0 0
-0.138304 -0.020876 -1.34306 0 0 0 0
-0.12798201 -0.020895099 -1.34429 0 0 0 0
-0.125751 -0.020958399 -1.34837 0 0 0 0
-0.12336 -0.020997399 -1.35087 0 0 0 0
-0.121 -0.0210435 -1.35384 0 0 0 0
-0.118728 -0.021107201 -1.35794 0 0 0 0
-0.11681 -0.021238299 -1.36637 0 0 0 0
-0.189997 -0.0189997 -1.39697 0 0 0 0
-0.186939 -0.018964799 -1.3944 0 0 0 0
-0.184181 -0.0189598 -1.39404 0 0 0 0
-0.181685 -0.018982099 -1.3956701 0 0 0 0
-0.179242 -0.019010499 -1.39777 0 0 0 0
-0.176752 -0.0190349 -1.39956 0 0 0 0
-0.174217 -0.019055 -1.4010299 0 0 0 0
-0.171652 -0.0190724 -1.40232 0 0 0 0
-0.169084 -0.019090099 -1.40362 0 0 0 0
-0.16115899 -0.0184936 -1.35976 0 0 0 0
-0.15771399 -0.0184 -1.35288 0 0 0 0
-0.15473001 -0.0183578 -1.34978 0 0 0 0
-0.15187 -0.018329199 -1.34767 0 0 0 0
-0.149077 -0.018307701 -1.34609 0 0 0 0
-0.14632399 -0.0182906 -1.34483 0 0 0 0
-0.143599 -0.0182762 -1.34378 0 0 0 0
-0.14087801 -0.018262001 -1.34273 0 0 0 0
-0.125412 -0.018289199 -1.34473 0 0 0 0
-0.123185 -0.018346701 -1.34896 0 0 0 0
-0.120812 -0.018384499 -1.35174 0 0 0 0
-0.118431 -0.0184226 -1.35454 0 0 0 0
-0.116309 -0.018503699 -1.3605 0 0 0 0
-0.190292 -0.016310699 -1.39914 0 0 0 0
-0.187198 -0.016278099 -1.39634 0 0 0 0
-0.184384 -0.0162692 -1.39557 0 0 0 0
-0.181805 -0.0162811 -1.3966 0 0 0 0
-0.17929301 -0.0162994 -1.39816 0 0 0 0
-0.17672201 -0.0163128 -1.39932 0 0 0 0
-0.174135 -0.016325099 -1.40037 0 0 0 0
-0.17154101 -0.0163373 -1.40141 0 0 0 0
-0.168918 -0.0163469 -1.40224 0 0 0 0
-0.16095901 -0.0158321 -1.35808 0 0 0 0
-0.157607 -0.015760699 -1.3519599 0 0 0 0
-0.154632 -0.0157253 -1.34892 0 0 0 0
-0.15178201 -0.015701599 -1.34689 0 0 0 0
-0.14898901 -0.0156831 -1.3453 0 0 0 0
-0.14624 -0.0156685 -1.34405 0 0 0 0
-0.14352 -0.015656799 -1.34304 0 0 0 0
-0.140806 -0.0156451 -1.3420399 0 0 0 0
-0.12534 -0.0156675 -1.34396 0 0 0 0
-0.12308 -0.015712401 -1.34781 0 0 0 0
-0.120706 -0.015744301 -1.3505501 0 0 0 0
-0.118312 -0.0157749 -1.3531801 0 0 0 0
-0.115994 -0.0158174 -1.35682 0 0 0 0
-0.113899 -0.015892901 -1.3633 0 0 0 0
-0.19062001 -0.0136157 -1.4015501 0 0 0 0
-0.18747 -0.0135848 -1.39837 0 0 0 0
-0.1846 -0.0135736 -1.39721 0 0 0 0
-0.181932 -0.013577 -1.39756 0 0 0 0
-0.179309 -0.013584 -1.39829 0 0 0 0
-0.176708 -0.0135929 -1.39921 0 0 0 0
-0.17407601 -0.0135997 -1.39991 0 0 0 0
-0.171443 -0.0136066 -1.40061 0 0 0 0
-0.168798 -0.0136128 -1.40125 0 0 0 0
-0.16089199 -0.0131879 -1.35751 0 0 0 0
-0.15757599 -0.0131313 -1.3516901 0 0 0 0
-0.154581 -0.0131001 -1.34848 0 0 0 0
-0.15172599 -0.0130798 -1.34639 0 0 0 0
-0.148929 -0.013064 -1.3447599 0 0 0 0
-0.14618701 -0.0130524 -1.34356 0 0 0 0
-0.14348 -0.0130436 -1.34266 0 0 0 0
-0.140783 -0.0130354 -1.34182 0 0 0 0
-0.138091 -0.0130274 -1.3409899 0 0 0 0
-0.125421 -0.0130647 -1.34484 0 0 0 0
-0.123033 -0.0130886 -1.34729 0 0 0 0
-0.12065 -0.0131141 -1.34992 0 0 0 0
-0.118305 -0.0131451 -1.3530999 0 0 0 0
-0.115881 -0.0131683 -1.35549 0 0 0 0
-0.113697 -0.0132206 -1.36088 0 0 0 0
-0.111204 -0.0132385 -1.36272 0 0 0 0
-0.19095799 -0.0109119 -1.40404 0 0 0 0
-0.187736 -0.0108833 -1.40035 0 0 0 0
-0.184772 -0.010869 -1.39851 0 0 0 0
