# .PCD v0.7 - Point Cloud Data file format
VERSION 0.7
FIELDS x y z
SIZE 4 4 4
TYPE F F F
COUNT 1 1 1
WIDTH 1498
HEIGHT 1
VIEWPOINT 0 0 0 1 0 0 0
POINTS 1498
DATA ascii
-0.236836 0.17572241 -1.4043319
-0.220507 0.174228 -1.4011199
-0.21498401 0.17636284 -1.4057086
-0.20545228 0.17582914 -1.4045614
-0.19520238 0.17609599 -1.405135
-0.18566149 0.17610967 -1.4052433
-0.16451715 0.17582914 -1.4045614
-0.15489729 0.17636284 -1.4057086
-0.14541443 0.17582914 -1.4045614
-0.13650517 0.17609601 -1.405135
-0.11539543 0.17582914 -1.4045614
-0.10510888 0.17609599 -1.405135
-0.094810441 0.17636284 -1.4057086
-0.085916452 0.17547333 -1.4037967
-0.070780002 0.174228 -1.4011199
-0.064767003 0.17636284 -1.4057086
-0.055357613 0.17582914 -1.4045614
-0.04504675 0.17609599 -1.405135
-0.036018699 0.17572241 -1.4043319
-0.015016563 0.17610537 -1.4052088
-0.0054602101 0.17609601 -1.405135
0.0040951576 0.17609599 -1.405135
0.013651666 0.17610848 -1.4052334
0.0299454 0.174228 -1.4011199
0.035491399 0.17609601 -1.405135
0.04504675 0.17609599 -1.405135
0.055357613 0.17582913 -1.4045614
0.064153567 0.17609601 -1.405135
0.078946903 0.174228 -1.4011199
0.085376553 0.17582914 -1.4045614
0.094810441 0.17636286 -1.4057086
0.10510889 0.17609599 -1.405135
0.1140514 0.17572241 -1.4043319
0.13514012 0.17609599 -1.405135
0.14541443 0.17582914 -1.4045614
0.15489729 0.17636284 -1.4057086
0.163165 0.17572241 -1.4043319
0.179672 0.174228 -1.4011199
0.18495272 0.17637455 -1.4058014
0.19520238 0.17609599 -1.405135
0.20545229 0.17582914 -1.4045614
0.21430933 0.17609601 -1.405135
0.23547114 0.17582913 -1.4045614
0.24502756 0.17636286 -1.4057086
0.25457385 0.17582914 -1.4045614
0.26345134 0.17609601 -1.405135
0.28459287 0.17582914 -1.4045614
0.29484761 0.17609599 -1.405135
0.3051143 0.17636284 -1.4057086
0.31323522 0.17572241 -1.4043319
0.32939899 0.174228 -1.4011199
0.33515757 0.17636286 -1.4057086
0.34463072 0.17582914 -1.4045614
0.35490987 0.17609599 -1.405135
0.3639822 0.17572241 -1.4043319
0.38496262 0.17610575 -1.4052138
0.39449167 0.1760935 -1.4051183
0.37704501 -0.46113399 -1.3961
0.38018101 -0.46707901 -1.39766
0.36810052 -0.4506495 -1.3930449
0.37255225 -0.45518801 -1.39451
0.35580662 -0.44136676 -1.393652
0.36302498 -0.44565153 -1.3943483
0.3462126 -0.43682787 -1.3952187
0.35285324 -0.43835175 -1.39698
-0.39593774 -0.156754 -1.391
-0.38512725 -0.156754 -1.391
-0.37431675 -0.156754 -1.391
-0.36485732 -0.156754 -1.3910002
-0.355398 -0.156754 -1.391
-0.3445875 -0.156754 -1.391
-0.33512834 -0.156754 -1.3910002
-0.32566899 -0.156754 -1.391
-0.31485826 -0.156754 -1.391
-0.305399 -0.156754 -1.3910002
-0.29594001 -0.156754 -1.391
-0.28512925 -0.156754 -1.391
-0.27431875 -0.156754 -1.391
-0.26485932 -0.156754 -1.3910002
-0.2554 -0.156754 -1.391
-0.24458975 -0.156754 -1.391
-0.23513032 -0.156754 -1.3910002
-0.22567099 -0.156754 -1.391
-0.21486026 -0.156754 -1.391
-0.20540135 -0.156754 -1.3910002
-0.195942 -0.156754 -1.391
-0.18513125 -0.156754 -1.391
-0.17432074 -0.156754 -1.391
-0.16486134 -0.156754 -1.3910002
-0.15540224 -0.156754 -1.391
-0.14459175 -0.156754 -1.391
-0.13513233 -0.156754 -1.3910002
-0.125673 -0.156754 -1.391
-0.1148625 -0.156754 -1.391
-0.10540333 -0.156754 -1.3910002
-0.09594395 -0.156754 -1.391
-0.085133404 -0.156754 -1.391
-0.074322805 -0.156754 -1.391
-0.064863533 -0.156754 -1.3910002
-0.05540425 -0.156754 -1.391
-0.044593673 -0.156754 -1.391
-0.035134435 -0.156754 -1.3910002
-0.02567515 -0.156754 -1.391
-0.014864549 -0.156754 -1.391
-0.0054052933 -0.156754 -1.3910002
0.0040539699 -0.156754 -1.391
0.01486455 -0.156754 -1.391
0.02567515 -0.156754 -1.391
0.035134435 -0.156754 -1.3910002
0.044593673 -0.156754 -1.391
0.05540425 -0.156754 -1.391
0.06486354 -0.156754 -1.3910002
0.074322805 -0.156754 -1.391
0.085133404 -0.156754 -1.391
0.09594395 -0.156754 -1.391
0.10540333 -0.156754 -1.3910002
0.1148625 -0.156754 -1.391
0.125673 -0.156754 -1.391
0.13513233 -0.156754 -1.3910002
0.14459175 -0.156754 -1.391
0.15540226 -0.156754 -1.391
0.16486134 -0.156754 -1.3910002
0.17432076 -0.156754 -1.391
0.18513125 -0.156754 -1.391
0.195942 -0.156754 -1.391
0.20540135 -0.156754 -1.3910002
0.21486026 -0.156754 -1.391
0.22567099 -0.156754 -1.391
0.23513032 -0.156754 -1.3910002
0.24458975 -0.156754 -1.391
0.2554 -0.156754 -1.391
0.26485932 -0.156754 -1.3910002
0.27431875 -0.156754 -1.391
0.28512925 -0.156754 -1.391
-0.39250961 -0.14529079 -1.3951499
-0.38518244 -0.14772858 -1.3933016
-0.37502638 -0.147571 -1.3936399
-0.36486289 -0.14741342 -1.3939785
-0.35540432 -0.14772856 -1.3933016
-0.34524077 -0.147571 -1.3936399
-0.33507031 -0.14741342 -1.3939785
-0.32493025 -0.147571 -1.3936399
-0.31479743 -0.14772858 -1.3933014
-0.30462426 -0.147571 -1.39364
-0.29444376 -0.14741342 -1.3939785
-0.28501913 -0.14772856 -1.3933016
-0.27483886 -0.14757101 -1.3936402
-0.26465088 -0.14741342 -1.3939787
-0.25524101 -0.14772856 -1.3933014
-0.24505325 -0.147571 -1.39364
-0.23485827 -0.14741342 -1.3939787
-0.22546284 -0.14772856 -1.3933016
-0.21526763 -0.14757101 -1.3936402
-0.20443675 -0.147571 -1.3936399
-0.19495951 -0.14757098 -1.39364
-0.18548225 -0.147571 -1.3936399
-0.17465124 -0.14757101 -1.3936402
-0.16443913 -0.14741342 -1.3939787
-0.15507771 -0.14772858 -1.3933016
-0.14486589 -0.147571 -1.39364
-0.13464628 -0.14741342 -1.3939787
-0.12529957 -0.14772856 -1.3933016
-0.11508025 -0.147571 -1.39364
-0.10424913 -0.147571 -1.3936402
-0.094772004 -0.147571 -1.39364
-0.085294798 -0.147571 -1.3936399
-0.074463718 -0.147571 -1.3936399
-0.06498652 -0.14757098 -1.39364
-0.05550931 -0.147571 -1.3936399
-0.044678222 -0.14757101 -1.3936402
-0.035201032 -0.14757098 -1.39364
-0.025723826 -0.147571 -1.3936399
-0.014892749 -0.147571 -1.3936399
-0.0054155434 -0.147571 -1.39364
0.0040616575 -0.147571 -1.3936402
0.014892749 -0.147571 -1.3936399
0.025723824 -0.147571 -1.3936402
0.035201032 -0.14757098 -1.39364
0.044678226 -0.147571 -1.3936399
0.05550931 -0.147571 -1.3936399
0.06498652 -0.147571 -1.39364
0.074463718 -0.147571 -1.3936399
0.085294798 -0.147571 -1.3936399
0.094772004 -0.14757101 -1.39364
0.10424913 -0.147571 -1.3936399
0.11508024 -0.147571 -1.3936402
0.12529956 -0.14772856 -1.3933014
0.13464628 -0.14741342 -1.3939785
0.14486587 -0.147571 -1.3936399
0.15507771 -0.14772858 -1.3933016
0.16443916 -0.14741342 -1.3939787
0.17465124 -0.14757101 -1.39364
0.18548225 -0.147571 -1.3936399
0.19495951 -0.147571 -1.39364
0.20443675 -0.147571 -1.3936399
0.21526763 -0.14757101 -1.3936402
0.22546284 -0.14772856 -1.3933016
0.2348583 -0.14741342 -1.3939785
0.24505326 -0.14757101 -1.3936402
0.25524101 -0.14772858 -1.3933014
0.26465085 -0.14741342 -1.3939785
0.27483886 -0.147571 -1.3936399
0.28431582 -0.14757101 -1.39364
-0.393356 -0.1342835 -1.39623
-0.393356 -0.124789 -1.3962301
-0.393356 -0.115294 -1.39623
-0.393356 -0.10444275 -1.39623
-0.39335534 -0.094947934 -1.3962301
-0.39335501 -0.085453101 -1.39623
0.39064199 -0.085452951 -1.3962226
-0.39335501 -0.074601896 -1.39623
-0.2529456 -0.072581939 -1.393862
-0.24874876 -0.072524503 -1.3953925
-0.39335501 -0.06510707 -1.3962301
-0.25118601 -0.067523003 -1.39011
-0.2431795 -0.063851044 -1.398435
-0.39335501 -0.0556123 -1.39623
-0.24104166 -0.056878567 -1.3939266
0.39064151 -0.052899398 -1.39622
-0.39335501 -0.044761099 -1.39623
-0.243139 -0.045926299 -1.39044
0.390641 -0.044760998 -1.39622
-0.39335501 -0.035266299 -1.3962234
-0.243432 -0.035160765 -1.39211
0.390641 -0.035266198 -1.3962198
-0.39335501 -0.025771501 -1.39622
-0.262371 -0.024343699 -1.39214
-0.259884 -0.0270712 -1.39331
-0.24204551 -0.025694527 -1.3919126
-0.23926049 -0.023110799 -1.39935
0.390641 -0.025771476 -1.39622
-0.39335501 -0.014920375 -1.39622
-0.24087149 -0.017592449 -1.3929501
0.390641 -0.0149203 -1.39622
-0.39335501 -0.0054255836 -1.3962198
-0.240712 -0.0054092701 -1.39203
0.390641 -0.0054255668 -1.3962198
-0.39335501 0.0040691849 -1.39622
-0.27041 0.0027041 -1.39175
-0.241165 0 -1.39465
-0.2315764 0.0059524067 -1.3923941
-0.0108496 0.00406662 -1.3960199
-0.0067946948 0.002717905 -1.398855
0.0081559103 0.00271864 -1.39923
0.0162409 0.0054136398 -1.39315
0.2259998 0.0070619932 -1.3980639
0.23046601 0.0054198499 -1.3954901
0.390641 0.0040691751 -1.39622
-0.39335501 0.014920325 -1.39622
-0.23174472 0.014316599 -1.3938757
-0.035147604 0.016221168 -1.3915766
-0.024393165 0.010841199 -1.39494
0.026143899 0.012619932 -1.3920966
0.0324606 0.0135252 -1.39224
0.21900268 0.018099668 -1.3973233
0.22512215 0.014440699 -1.3937662
0.27637699 0.018967001 -1.39457
0.28003699 0.0190317 -1.39932
0.390641 0.0149203 -1.39622
-0.39335448 0.025771501 -1.39622
-0.235818 0.021684499 -1.39507
0.040607501 0.0216574 -1.39333
0.21754022 0.026311129 -1.3960769
0.22302401 0.025680475 -1.3913524
0.27633125 0.025343336 -1.3930836
0.28264999 0.0298956 -1.39879
0.390641 0.025771424 -1.39622
-0.39335403 0.035266202 -1.3962198
-0.038079299 0.038079299 -1.39991
0.21685654 0.035239432 -1.3951722
0.22161567 0.035134066 -1.3909966
0.27725217 0.03516328 -1.3921566
0.28235635 0.035293903 -1.3973466
0.390641 0.035266202 -1.3962198
-0.393354 0.044760998 -1.39622
-0.034559749 0.046751149 -1.3950126
0.035339199 0.0462128 -1.39911
0.21679558 0.044714708 -1.394781
0.22154333 0.043227669 -1.3905433
0.27736112 0.044037785 -1.3917329
0.28223351 0.044777602 -1.3967324
0.390641 0.044760898 -1.39622
-0.393354 0.055612125 -1.39622
-0.033811551 0.055449512 -1.3921238
0.029725749 0.058100749 -1.3908451
0.032464974 0.055464201 -1.3924276
0.2172924 0.055000436 -1.394492
0.27866524 0.055463225 -1.3924651
0.28236201 0.051585302 -1.39737
0.390641 0.05561205 -1.39622
-0.39335403 0.065106831 -1.3962198
-0.03318755 0.06434238 -1.3943374
-0.028379867 0.064867914 -1.3910767
0.0286809 0.065476701 -1.3925319
0.21898526 0.064408876 -1.3957676
0.221645 0.066223845 -1.391175
0.27766699 0.065012053 -1.39424
0.390641 0.065106802 -1.3962198
-0.393354 0.074601598 -1.39622
-0.02467891 0.0725284 -1.3939855
-0.015422089 0.076293997 -1.392422
-0.0060816049 0.077712625 -1.3911976
0.0040536448 0.078373924 -1.3909525
0.015791401 0.077595465 -1.3931266
0.02380204 0.072486222 -1.392054
0.22486001 0.072471648 -1.3943574
0.27305999 0.070292696 -1.39148
0.390641 0.074601524 -1.39622
-0.393354 0.085452721 -1.39622
-0.01219855 0.081322595 -1.39518
-0.0054201372 0.081308968 -1.39494
0.0040726848 0.0814372 -1.39714
0.0108789 0.081591502 -1.39979
0.235598 0.081240803 -1.39377
0.390641 0.085452676 -1.39622
-0.39335403 0.094947398 -1.3962198
0.390641 0.094947398 -1.3962198
-0.3929998 0.1053084 -1.3968941
-0.38478476 0.108773 -1.39959
-0.375267 0.108773 -1.39959
-0.36574948 0.108773 -1.39959
-0.35487226 0.108773 -1.39959
-0.34535468 0.108773 -1.39959
-0.33583701 0.108773 -1.39959
-0.32495975 0.108773 -1.39959
-0.31408226 0.108773 -1.39959
-0.30456468 0.108773 -1.39959
-0.29504699 0.108773 -1.39959
-0.28416976 0.108773 -1.39959
-0.274652 0.108773 -1.39959
-0.26241499 0.108773 -1.39959
-0.25425702 0.108773 -1.39959
-0.24473934 0.108773 -1.39959
-0.23522174 0.108773 -1.39959
-0.22434451 0.108773 -1.39959
-0.214827 0.108773 -1.39959
-0.20530924 0.108773 -1.39959
-0.19443202 0.108773 -1.39959
-0.18491434 0.108773 -1.39959
-0.17539674 0.108773 -1.39959
-0.16451925 0.108773 -1.39959
-0.15500166 0.108773 -1.39959
-0.145484 0.108773 -1.39959
-0.13460675 0.108773 -1.39959
-0.125089 0.108773 -1.39959
-0.11557125 0.108773 -1.39959
-0.104694 0.108773 -1.39959
-0.095176466 0.108773 -1.39959
-0.085658804 0.108773 -1.39959
-0.0747815 0.108773 -1.39959
-0.065263867 0.108773 -1.39959
-0.055746198 0.108773 -1.39959
-0.044868901 0.108773 -1.39959
-0.035351265 0.108773 -1.39959
-0.025833599 0.108773 -1.39959
-0.0149563 0.108773 -1.39959
-0.0054386533 0.108773 -1.39959
0.0040789898 0.108773 -1.39959
0.0149563 0.108773 -1.39959
0.025833599 0.108773 -1.39959
0.035351265 0.108773 -1.39959
0.044868901 0.108773 -1.39959
0.055746198 0.108773 -1.39959
0.065263867 0.108773 -1.39959
0.0747815 0.108773 -1.39959
0.085658804 0.108773 -1.39959
0.095176466 0.108773 -1.39959
0.104694 0.108773 -1.39959
0.11557125 0.108773 -1.39959
0.125089 0.108773 -1.39959
0.13460675 0.108773 -1.39959
0.145484 0.108773 -1.39959
0.15500166 0.108773 -1.39959
0.16451925 0.108773 -1.39959
0.17539674 0.108773 -1.39959
0.18491434 0.108773 -1.39959
0.19443201 0.108773 -1.39959
0.20530926 0.108773 -1.39959
0.214827 0.108773 -1.39959
0.22434451 0.108773 -1.39959
0.23522174 0.108773 -1.39959
0.24473934 0.108773 -1.39959
0.25425702 0.108773 -1.39959
0.26513425 0.108773 -1.39959
0.27465197 0.108773 -1.39959
0.28416976 0.108773 -1.39959
0.29504701 0.108773 -1.39959
0.30456468 0.108773 -1.39959
0.31408226 0.108773 -1.39959
0.32495975 0.108773 -1.39959
0.33583701 0.108773 -1.39959
0.34535468 0.108773 -1.39959
0.35487226 0.108773 -1.39959
0.36574948 0.108773 -1.39959
0.37526703 0.108773 -1.39959
0.38478479 0.108773 -1.39959
0.390641 0.10444225 -1.39622
-0.39229751 0.1113095 -1.397295
-0.3844485 0.111395 -1.39837
-0.37493968 0.111395 -1.3983701
-0.3654305 0.111395 -1.39837
-0.35456252 0.111395 -1.39837
-0.34505299 0.111395 -1.3983701
-0.33554348 0.111395 -1.39837
-0.3246755 0.111395 -1.39837
-0.31516698 0.111395 -1.3983701
-0.30565751 0.111395 -1.39837
-0.29478949 0.111395 -1.39837
-0.28527999 0.111395 -1.3983701
-0.27577049 0.111395 -1.39837
-0.26490301 0.111395 -1.39837
-0.25539398 0.111395 -1.3983701
-0.24588449 0.111395 -1.39837
-0.23501649 0.111395 -1.39837
-0.2241485 0.111395 -1.39837
-0.21463899 0.111395 -1.3983701
-0.20512974 0.111395 -1.39837
-0.1942625 0.111395 -1.39837
-0.184753 0.111395 -1.3983701
-0.1752435 0.111395 -1.39837
-0.1643755 0.111395 -1.39837
-0.154866 0.111395 -1.3983701
-0.145357 0.111395 -1.39837
-0.13448949 0.111395 -1.39837
-0.12498001 0.111395 -1.3983701
-0.1154705 0.111395 -1.39837
-0.1046025 0.111395 -1.39837
-0.095093369 0.111395 -1.3983701
-0.085584044 0.111395 -1.39837
-0.074716203 0.111395 -1.39837
-0.065206863 0.111395 -1.3983701
-0.055697553 0.111395 -1.39837
-0.044829749 0.111395 -1.39837
-0.035320368 0.111395 -1.3983701
-0.025811052 0.111395 -1.39837
-0.01494325 0.111395 -1.39837
-0.0054339063 0.111395 -1.3983701
0.0040754299 0.111395 -1.39837
0.01494325 0.111395 -1.39837
0.02581105 0.111395 -1.39837
0.035320368 0.111395 -1.3983701
0.044829749 0.111395 -1.39837
0.055697549 0.111395 -1.39837
0.065206863 0.111395 -1.3983701
0.074716195 0.111395 -1.39837
0.085584044 0.111395 -1.39837
0.095093369 0.111395 -1.3983701
0.1046025 0.111395 -1.39837
0.1154705 0.111395 -1.39837
0.12498 0.111395 -1.3983701
0.13448949 0.111395 -1.39837
0.145357 0.111395 -1.39837
0.154866 0.111395 -1.3983701
0.1643755 0.111395 -1.39837
0.1752435 0.111395 -1.39837
0.184753 0.111395 -1.3983701
0.1942625 0.111395 -1.39837
0.20512976 0.111395 -1.39837
0.21463899 0.111395 -1.3983701
0.2241485 0.111395 -1.39837
0.23501649 0.111395 -1.39837
0.24588451 0.111395 -1.39837
0.25539398 0.111395 -1.3983701
0.26490274 0.111395 -1.39837
0.27577049 0.111395 -1.39837
0.28527999 0.111395 -1.3983701
0.29478952 0.111395 -1.39837
0.30565751 0.111395 -1.39837
0.31516698 0.111395 -1.3983701
0.3246755 0.111395 -1.39837
0.33554348 0.111395 -1.39837
0.34505299 0.111395 -1.3983701
0.35456249 0.111395 -1.39837
0.3654305 0.111395 -1.39837
0.37493968 0.111395 -1.3983701
0.38444853 0.111395 -1.39837
0.390641 0.111224 -1.39622
-0.40061301 0.170531 -1.39316
-0.39520064 0.17053168 -1.39317
-0.38572827 0.17053275 -1.39317
-0.374901 0.170533 -1.39317
-0.36407351 0.170533 -1.39317
-0.35459933 0.170533 -1.39317
-0.3451255 0.170533 -1.39317
-0.33429798 0.170533 -1.39317
-0.32482401 0.170533 -1.39317
-0.31534976 0.170533 -1.39317
-0.30452251 0.170533 -1.39317
-0.29504833 0.170533 -1.39317
-0.2855745 0.170533 -1.39317
-0.27474678 0.170533 -1.39317
-0.265273 0.170533 -1.39317
-0.25579873 0.170533 -1.39317
-0.2449715 0.170533 -1.39317
-0.23414375 0.170533 -1.39317
-0.22466999 0.170533 -1.39317
-0.21519575 0.170533 -1.39317
-0.2043685 0.170533 -1.39317
-0.19489433 0.170533 -1.39317
-0.18542051 0.170533 -1.39317
-0.17459275 0.170533 -1.39317
-0.16511899 0.170533 -1.39317
-0.15564474 0.170533 -1.39317
-0.1448175 0.170533 -1.39317
-0.135343 0.170533 -1.39317
-0.1258695 0.170533 -1.39317
-0.11504175 0.170533 -1.39317
-0.10421449 0.170533 -1.39317
-0.094740331 0.170533 -1.39317
-0.0852663 0.170533 -1.39317
-0.074438825 0.170533 -1.39317
-0.064964801 0.170533 -1.39317
-0.055490777 0.170533 -1.39317
-0.044663299 0.170533 -1.39317
-0.035189267 0.170533 -1.39317
-0.025715224 0.170533 -1.39317
-0.014887775 0.170533 -1.39317
-0.0054137334 0.170533 -1.39317
0.0040603001 0.170533 -1.39317
0.014887775 0.170533 -1.39317
0.025715224 0.170533 -1.39317
0.035189267 0.170533 -1.39317
0.044663303 0.170533 -1.39317
0.055490777 0.170533 -1.39317
0.064964801 0.170533 -1.39317
0.074438825 0.170533 -1.39317
0.0852663 0.170533 -1.39317
0.094740331 0.170533 -1.39317
0.1042145 0.170533 -1.39317
0.11504175 0.170533 -1.39317
0.1258695 0.170533 -1.39317
0.135343 0.170533 -1.39317
0.1448175 0.170533 -1.39317
0.15564474 0.170533 -1.39317
0.16511899 0.170533 -1.39317
0.17459275 0.170533 -1.39317
0.18542051 0.170533 -1.39317
0.19489433 0.170533 -1.39317
0.2043685 0.170533 -1.39317
0.21519575 0.170533 -1.39317
0.22466999 0.170533 -1.39317
0.23414375 0.170533 -1.39317
0.24497151 0.170533 -1.39317
0.25579876 0.170533 -1.39317
0.265273 0.170533 -1.39317
0.27474678 0.170533 -1.39317
0.2855745 0.170533 -1.39317
0.29504833 0.170533 -1.39317
0.30452251 0.170533 -1.39317
0.31534973 0.170533 -1.39317
0.32482401 0.170533 -1.39317
0.33429801 0.170533 -1.39317
0.3451255 0.170533 -1.39317
0.35459933 0.170533 -1.39317
0.36407351 0.170533 -1.39317
0.374901 0.170533 -1.39317
0.385728 0.17053251 -1.39317
0.39520001 0.17053135 -1.3931667
0.37966201 -0.47121099 -1.38585
0.37501466 -0.46293536 -1.3852634
0.365897 -0.45347363 -1.382676
0.37089401 -0.4582395 -1.38328
0.34514964 -0.44193363 -1.3837675
0.35456634 -0.4448486 -1.3848256
0.36162964 -0.44867036 -1.38554
0.34384298 -0.43957949 -1.387995
-0.39537048 -0.15248114 -1.3890111
-0.38457611 -0.15248151 -1.389015
-0.37513018 -0.15248151 -1.3890151
-0.36568448 -0.1524815 -1.389015
-0.35488948 -0.15248151 -1.389015
-0.34469587 -0.15268472 -1.38911
-0.33539629 -0.1522783 -1.3889198
-0.32520273 -0.15248151 -1.389015
-0.31440777 -0.15248151 -1.3890151
-0.30496216 -0.15248151 -1.3890151
-0.29551598 -0.1524815 -1.389015
-0.28472099 -0.15248151 -1.389015
-0.27452299 -0.15268472 -1.38911
-0.26523331 -0.15227829 -1.3889199
-0.25503451 -0.1524815 -1.389015
-0.24423951 -0.15248151 -1.389015
-0.23479383 -0.1524815 -1.3890148
-0.22534825 -0.1524815 -1.389015
-0.21455275 -0.15248151 -1.389015
-0.20510715 -0.15248151 -1.3890151
-0.19566151 -0.1524815 -1.3890151
-0.1848665 -0.15248151 -1.389015
-0.17466083 -0.15268472 -1.38911
-0.16538486 -0.1522783 -1.3889201
-0.15517975 -0.1524815 -1.389015
-0.14438476 -0.15248151 -1.389015
-0.13493884 -0.15248151 -1.3890151
-0.12549324 -0.1524815 -1.389015
-0.11469825 -0.15248151 -1.389015
-0.10525266 -0.15248151 -1.3890151
-0.095806658 -0.15248151 -1.389015
-0.085011534 -0.15248151 -1.389015
-0.074216411 -0.1524815 -1.389015
-0.064770699 -0.15248151 -1.3890151
-0.055324964 -0.1524815 -1.389015
-0.04452984 -0.15248151 -1.389015
-0.035084136 -0.15248151 -1.3890151
-0.025638387 -0.15248151 -1.389015
-0.014843288 -0.15248151 -1.389015
-0.0053975568 -0.15248151 -1.3890151
0.0040481677 -0.15248151 -1.389015
0.014843288 -0.15248151 -1.389015
0.025638388 -0.15248151 -1.389015
0.035084136 -0.15248151 -1.3890151
0.044529837 -0.1524815 -1.389015
0.055324964 -0.15248151 -1.389015
0.064770699 -0.15248151 -1.3890151
0.074216411 -0.15248151 -1.389015
0.085011542 -0.15248151 -1.389015
0.095806658 -0.1524815 -1.3890151
0.10525268 -0.15248151 -1.3890151
0.11469825 -0.15248151 -1.3890151
0.12549326 -0.15248151 -1.389015
0.13493882 -0.15248151 -1.3890151
0.14438474 -0.15248151 -1.389015
0.15517977 -0.1524815 -1.389015
0.16538487 -0.15227829 -1.3889199
0.17466085 -0.15268472 -1.38911
0.18486649 -0.15248151 -1.389015
0.1956615 -0.15248151 -1.389015
0.20510717 -0.15248151 -1.3890151
0.21455275 -0.1524815 -1.389015
0.22534825 -0.1524815 -1.389015
0.23479384 -0.15248151 -1.3890148
0.24423951 -0.15248151 -1.389015
0.25503451 -0.1524815 -1.389015
0.26523328 -0.1522783 -1.3889198
0.27452299 -0.15268472 -1.38911
0.28337166 -0.15248151 -1.3890151
-0.400969 -0.14397299 -1.38504
-0.39562252 -0.14489231 -1.386111
-0.40020698 -0.13832751 -1.38241
-0.39556202 -0.13597551 -1.383085
-0.393347 -0.12527801 -1.3866301
-0.393347 -0.11450174 -1.3866301
-0.39334631 -0.105072 -1.3866301
-0.39334601 -0.095642447 -1.3866301
-0.39334601 -0.084865808 -1.3866301
0.390652 -0.087559849 -1.3866301
-0.39334601 -0.07408917 -1.3866301
-0.39334598 -0.064659633 -1.3866301
-0.25454292 -0.064108752 -1.3863399
-0.24586456 -0.064256929 -1.3862171
-0.39334601 -0.055230103 -1.3866301
-0.25517228 -0.055786144 -1.3836533
-0.24555536 -0.05514599 -1.3844959
0.39065099 -0.053882901 -1.3866301
-0.39334601 -0.044453502 -1.3866301
-0.25591338 -0.042986613 -1.3828163
-0.24569847 -0.043844674 -1.3838077
0.39065099 -0.044453401 -1.3866301
-0.39334598 -0.035023931 -1.3866301
-0.25360841 -0.035268042 -1.385628
-0.24657883 -0.035032365 -1.386995
0.39065099 -0.035023835 -1.3866301
-0.39334601 -0.025594402 -1.3866301
-0.261718 -0.021585001 -1.38868
-0.25523615 -0.026102828 -1.3827971
-0.24602534 -0.025546869 -1.3838874
0.39065099 -0.02559435 -1.3866301
-0.39334601 -0.0148178 -1.3866301
-0.2604335 -0.012083201 -1.381855
-0.24258362 -0.015119437 -1.3834349
-0.239879 -0.0107811 -1.3872
0.39065 -0.014817776 -1.38662
-0.393345 -0.0053882934 -1.3866301
-0.24087974 -0.0060532503 -1.3852324
0.39065 -0.0053882799 -1.38662
-0.393345 0.0040412201 -1.3866301
-0.26697302 0.0048472919 -1.3851221
-0.23591557 0.0049947868 -1.3842973
0.39065 0.0040412098 -1.38662
-0.393345 0.0148178 -1.3866301
-0.26790333 0.014807217 -1.3857633
-0.23623769 0.01533719 -1.3848429
-0.033190232 0.017939499 -1.3850399
-0.027704101 0.015772786 -1.3863443
0.028295776 0.01616705 -1.3870499
0.034476679 0.017774701 -1.3862399
0.22940001 0.017541949 -1.389035
0.23237033 0.017942933 -1.3853
0.39065 0.014817776 -1.38662
-0.393345 0.025594376 -1.3866301
-0.267297 0.021599799 -1.38963
-0.242838 0.025491051 -1.38104
-0.23839475 0.022897825 -1.386425
-0.036095116 0.024188971 -1.3833343
0.036680896 0.022365401 -1.3813633
0.040425301 0.026947701 -1.3870801
0.22791949 0.025623137 -1.3882412
0.2338271 0.025533065 -1.3833109
0.26615262 0.027925076 -1.3853976
0.27276501 0.029707 -1.3899699
0.39065 0.025594324 -1.38662
-0.393345 0.035023868 -1.3866301
-0.037615851 0.033586551 -1.38287
0.22654812 0.035061158 -1.3881123
0.23373921 0.034926545 -1.3827868
0.26483008 0.034951087 -1.3837618
0.27269468 0.0350991 -1.3896133
0.39065 0.035023835 -1.38662
-0.393345 0.044453397 -1.3866301
0.22600485 0.044786494 -1.3873291
0.23259762 0.043297224 -1.3819838
0.26665801 0.04381448 -1.383496
0.2730858 0.04533384 -1.3888539
0.39065 0.044453301 -1.38662
-0.393345 0.055229925 -1.3866301
-0.028802799 0.058506131 -1.3897834
0.028347 0.056693502 -1.3894899
0.22484688 0.055202264 -1.3859563
0.230708 0.050970301 -1.38071
0.26841626 0.055022873 -1.3814876
0.27355212 0.055247873 -1.3871087
0.39065 0.055229872 -1.38662
-0.393345 0.064659439 -1.3866301
-0.023203099 0.065292038 -1.388612
-0.01684995 0.066724427 -1.3875475
0.0188799 0.067428403 -1.38817
0.023829667 0.06474217 -1.388405
0.22584809 0.064843528 -1.3853374
0.26848701 0.067123801 -1.3818499
0.273366 0.064163439 -1.387532
0.39065 0.064659365 -1.38662
-0.393345 0.074088901 -1.3866301
-0.0139425 0.071059056 -1.3888334
-0.0050560073 0.072468728 -1.3878137
0.0044909744 0.073666669 -1.3871101
0.01429086 0.072258137 -1.387664
0.021589501 0.070165902 -1.38897
0.22782075 0.072795421 -1.3876399
0.23194025 0.075972028 -1.3840625
0.26632568 0.075320363 -1.38456
0.39065 0.074088857 -1.38662
-0.39334476 0.084865451 -1.3866276
0.238021 0.080685794 -1.3842499
0.25763199 0.080509998 -1.38123
0.39065 0.084865399 -1.38662
-0.39334401 0.095641978 -1.38662
0.39065 0.095641978 -1.38662
-0.39334401 0.10507134 -1.38662
0.39065 0.10507134 -1.38662
-0.39334401 0.11046 -1.38662
0.39065 0.11046 -1.38662
-0.40104699 0.166879 -1.3853101
-0.39431876 0.166879 -1.3853199
-0.38489833 0.166879 -1.3853201
-0.37547749 0.166879 -1.3853199
-0.36471125 0.166879 -1.3853199
-0.35529068 0.166879 -1.3853201
-0.34587002 0.166879 -1.3853199
-0.33510375 0.166879 -1.3853199
-0.32433751 0.166879 -1.3853199
-0.31491664 0.166879 -1.3853201
-0.30549628 0.166879 -1.3853199
-0.29472974 0.166879 -1.3853199
-0.28530934 0.166879 -1.3853201
-0.2758885 0.166879 -1.3853199
-0.26512223 0.166879 -1.3853199
-0.25435573 0.166879 -1.3853199
-0.24493535 0.166879 -1.3853201
-0.23551451 0.166879 -1.3853199
-0.22474825 0.166879 -1.3853199
-0.21532767 0.166879 -1.3853201
-0.20590726 0.166879 -1.3853199
-0.19514075 0.166879 -1.3853199
-0.1843745 0.166879 -1.3853199
-0.17495365 0.166879 -1.3853201
-0.16553324 0.166879 -1.3853199
-0.15476674 0.166879 -1.3853199
-0.14534633 0.166879 -1.3853201
-0.1359255 0.166879 -1.3853199
-0.12515925 0.166879 -1.3853199
-0.11439275 0.166879 -1.3853199
-0.10497233 0.166879 -1.3853201
-0.095551699 0.166879 -1.3853199
-0.084785298 0.166879 -1.3853199
-0.075364701 0.166879 -1.3853201
-0.065944098 0.166879 -1.3853199
-0.0551777 0.166879 -1.3853199
-0.044411302 0.166879 -1.3853199
-0.034990765 0.166879 -1.3853201
-0.025570199 0.166879 -1.3853199
-0.014803799 0.166879 -1.3853199
-0.0053831935 0.166879 -1.3853201
0.0040373951 0.166879 -1.3853199
0.014803799 0.166879 -1.3853199
0.025570201 0.166879 -1.3853199
0.034990765 0.166879 -1.3853201
0.044411298 0.166879 -1.3853199
0.0551777 0.166879 -1.3853199
0.065944105 0.166879 -1.3853199
0.075364701 0.166879 -1.3853201
0.084785298 0.166879 -1.3853199
0.095551699 0.166879 -1.3853199
0.10497233 0.166879 -1.3853201
0.11439275 0.166879 -1.3853199
0.12515925 0.166879 -1.3853199
0.1359255 0.166879 -1.3853199
0.14534633 0.166879 -1.3853201
0.15476675 0.166879 -1.3853199
0.16553324 0.166879 -1.3853199
0.17495365 0.166879 -1.3853201
0.18437448 0.166879 -1.3853199
0.19514075 0.166879 -1.3853199
0.20590726 0.166879 -1.3853199
0.21532767 0.166879 -1.3853201
0.22474824 0.166879 -1.3853199
0.23551452 0.166879 -1.3853199
0.24493533 0.166879 -1.3853201
0.25435573 0.166879 -1.3853199
0.26512223 0.166879 -1.3853199
0.2758885 0.166879 -1.3853199
0.28530934 0.166879 -1.3853201
0.29472974 0.166879 -1.3853199
0.30549628 0.166879 -1.3853199
0.31491667 0.166879 -1.3853201
0.32433751 0.166879 -1.3853199
0.33510375 0.166879 -1.3853199
0.34587002 0.166879 -1.3853199
0.35529068 0.166879 -1.3853201
0.36471125 0.166879 -1.3853199
0.37547749 0.166879 -1.3853199
0.38489833 0.166879 -1.3853201
0.39431876 0.166879 -1.3853176
0.378068 -0.47291952 -1.37516
0.36739001 -0.46056801 -1.3702101
0.37240922 -0.46450725 -1.3739899
0.35593241 -0.45091239 -1.3732421
0.36385828 -0.45577472 -1.3741101
0.33793852 -0.44479427 -1.3749475
0.34502223 -0.44622689 -1.374431
0.353019 -0.44795874 -1.3764575
-0.39657936 -0.1313 -1.37914
-0.40079936 -0.12291367 -1.37523
-0.39578092 -0.12435284 -1.3763648
-0.40004301 -0.117346 -1.37263
-0.39572591 -0.11445291 -1.3728126
-0.39333701 -0.10569275 -1.37717
-0.39333701 -0.094989605 -1.37717
-0.39333701 -0.084286518 -1.37717
-0.39333701 -0.074921332 -1.37717
-0.39333701 -0.065556176 -1.37717
-0.39333701 -0.054853074 -1.37716
-0.25191599 -0.050919302 -1.37933
-0.249272 -0.0509266 -1.37953
0.39065996 -0.053515136 -1.37716
-0.39333701 -0.044150051 -1.37716
-0.25327924 -0.0469032 -1.3794475
-0.2492355 -0.046898849 -1.3793249
0.39065999 -0.04414995 -1.37716
-0.39333701 -0.034784865 -1.37716
0.39065996 -0.034784768 -1.37716
-0.39333624 -0.025419723 -1.37716
-0.25280631 -0.022333065 -1.3793067
-0.249257 -0.022782099 -1.3794401
0.23690601 -0.0266187 -1.37001
0.39065999 -0.025419651 -1.37716
-0.393336 -0.01471665 -1.37716
-0.25411817 -0.014714409 -1.3767266
-0.24710387 -0.01427461 -1.3774066
0.39065999 -0.014716649 -1.37716
-0.39333597 -0.0053515169 -1.37716
-0.25512859 -0.0053437655 -1.3749491
-0.24543948 -0.005079756 -1.3760909
0.39065966 -0.0053515001 -1.37716
-0.393336 0.0040136375 -1.37716
-0.26332632 0.00714092 -1.37826
-0.25633991 0.003199406 -1.372865
-0.24433932 0.0040034461 -1.3744206
-0.23855799 0.0067006648 -1.379565
0.390659 0.004013625 -1.37716
-0.393336 0.01471665 -1.37716
-0.26228899 0.01388534 -1.3746901
-0.25834826 0.0146483 -1.370795
-0.24385914 0.014763806 -1.3732206
-0.23847049 0.0120577 -1.37906
0.390659 0.014716601 -1.37716
-0.393336 0.025419677 -1.37716
-0.2618655 0.022713851 -1.3752799
-0.25836369 0.023971433 -1.3708733
-0.24547134 0.024497617 -1.3732818
-0.033140901 0.027258122 -1.37551
-0.0294648 0.021429 -1.3786401
0.035464752 0.025426775 -1.37761
0.23852833 0.026801534 -1.3793966
0.24399221 0.02889378 -1.3769701
0.25422832 0.029436732 -1.3773199
0.390659 0.0254196 -1.37716
-0.39333597 0.034784835 -1.37716
-0.26123601 0.037319399 -1.3719701
-0.24734001 0.035142716 -1.3737717
-0.034710467 0.034710068 -1.3742167
0.037397031 0.034726098 -1.3748266
0.23858233 0.034848865 -1.3797034
0.24485542 0.034788489 -1.3773075
0.25431135 0.034800265 -1.3777755
0.390659 0.034784731 -1.37716
-0.393336 0.04414995 -1.37716
-0.24831501 0.044057153 -1.374225
-0.033378299 0.042718951 -1.37427
0.033281252 0.045261748 -1.370335
0.23666638 0.045189884 -1.37831
0.24451336 0.044090074 -1.3753808
0.25504991 0.044376917 -1.3759793
0.26171169 0.044659402 -1.3791634
0.390659 0.04414985 -1.37716
-0.393336 0.054852951 -1.37716
-0.25023901 0.0532424 -1.37015
-0.02734915 0.054697327 -1.3732475
0.02531125 0.057284448 -1.37131
0.23423432 0.054684971 -1.3751972
0.24385525 0.050636951 -1.37168
0.2553826 0.051182676 -1.3720241
0.26344413 0.054212872 -1.3755428
0.390659 0.054852851 -1.37716
-0.393336 0.065555945 -1.37716
-0.0214215 0.0615867 -1.37815
-0.01469245 0.064123325 -1.3750875
-0.0053385631 0.066722669 -1.3736401
0.0034311858 0.067903362 -1.3743315
0.01494634 0.065650739 -1.373528
0.021329699 0.061322998 -1.37225
0.23243409 0.065458022 -1.3750809
0.2650618 0.064660802 -1.375216
0.390659 0.065555848 -1.37716
-0.39333567 0.074921064 -1.37716
0.23526385 0.074858584 -1.3759943
0.241143 0.077272698 -1.37141
0.2574515 0.0773682 -1.373105
0.26262602 0.073000394 -1.3745867
0.390659 0.074920967 -1.37716
-0.39333501 0.084286153 -1.37716
0.24480626 0.080265343 -1.3770374
0.25279748 0.080252945 -1.376825
0.390659 0.084286101 -1.37716
-0.39333501 0.094989151 -1.37716
0.390659 0.094989099 -1.37716
-0.39333501 0.10569225 -1.37716
0.390659 0.10569199 -1.37716
-0.39478651 0.163268 -1.37756
-0.3840805 0.163268 -1.37756
-0.37471271 0.163268 -1.37756
-0.365345 0.163268 -1.37756
-0.35463896 0.163268 -1.37756
-0.34527066 0.163268 -1.37756
-0.33590299 0.163268 -1.37756
-0.32519701 0.163268 -1.37756
-0.314491 0.163268 -1.37756
-0.30512333 0.163268 -1.37756
-0.29575551 0.163268 -1.37756
-0.28504923 0.163268 -1.37756
-0.27434301 0.163268 -1.37756
-0.26497534 0.163268 -1.37756
-0.25560749 0.163268 -1.37756
-0.24490151 0.163268 -1.37756
-0.2341955 0.163268 -1.37756
-0.22482766 0.163268 -1.37756
-0.21546 0.163268 -1.37756
-0.20475349 0.163268 -1.37756
-0.1940475 0.163268 -1.37756
-0.18467967 0.163268 -1.37756
-0.175312 0.163268 -1.37756
-0.164606 0.163268 -1.37756
-0.15523833 0.163268 -1.37756
-0.14587051 0.163268 -1.37756
-0.13516401 0.163268 -1.37756
-0.124458 0.163268 -1.37756
-0.11509033 0.163268 -1.37756
-0.1057225 0.163268 -1.37756
-0.09501645 0.163268 -1.37756
-0.084310353 0.163268 -1.37756
-0.074942529 0.163268 -1.37756
-0.065574728 0.163268 -1.37756
-0.05486865 0.163268 -1.37756
-0.044162549 0.163268 -1.37756
-0.034794733 0.163268 -1.37756
-0.025426948 0.163268 -1.37756
-0.01472085 0.163268 -1.37756
-0.0053530396 0.163268 -1.37756
0.0040147798 0.163268 -1.37756
0.01472085 0.163268 -1.37756
0.02542695 0.163268 -1.37756
0.034794733 0.163268 -1.37756
0.044162549 0.163268 -1.37756
0.05486865 0.163268 -1.37756
0.065574721 0.163268 -1.37756
0.074942529 0.163268 -1.37756
0.084310353 0.163268 -1.37756
0.09501645 0.163268 -1.37756
0.1057225 0.163268 -1.37756
0.11509033 0.163268 -1.37756
0.124458 0.163268 -1.37756
0.13516401 0.163268 -1.37756
0.14587051 0.163268 -1.37756
0.15523833 0.163268 -1.37756
0.164606 0.163268 -1.37756
0.175312 0.163268 -1.37756
0.18467967 0.163268 -1.37756
0.19404751 0.163268 -1.37756
0.20475352 0.163268 -1.37756
0.21546 0.163268 -1.37756
0.22482766 0.163268 -1.37756
0.2341955 0.163268 -1.37756
0.24490151 0.163268 -1.37756
0.25560749 0.163268 -1.37756
0.26497534 0.163268 -1.37756
0.27434298 0.163268 -1.37756
0.28504923 0.163268 -1.37756
0.29575551 0.163268 -1.37756
0.30512333 0.163268 -1.37756
0.314491 0.163268 -1.37756
0.32519698 0.163268 -1.37756
0.33590302 0.163268 -1.37756
0.34527066 0.163268 -1.37756
0.35463899 0.163268 -1.37756
0.365345 0.163268 -1.37756
0.37471271 0.163268 -1.37756
0.3840805 0.163268 -1.37756
0.39344832 0.163268 -1.37756
0.37589875 -0.4740155 -1.3648574
0.3658796 -0.4627746 -1.3626
0.3707945 -0.46746349 -1.36315
0.3363533 -0.45023665 -1.3631067
0.3449724 -0.45163873 -1.3627785
0.35470778 -0.45428169 -1.3646655
0.36167502 -0.45806098 -1.3653835
0.33698359 -0.44807038 -1.36782
0.34557834 -0.44925034 -1.3681701
-0.40082002 -0.10352466 -1.36619
-0.39581493 -0.10493342 -1.3672425
-0.40006801 -0.098030001 -1.3636301
-0.39555576 -0.094749123 -1.3640727
-0.39332804 -0.0850439 -1.3678299
-0.39332801 -0.0757422 -1.36783
-0.39332801 -0.065111704 -1.36783
-0.39332801 -0.054481227 -1.36783
0.39066997 -0.053152304 -1.3678299
-0.39332804 -0.045179501 -1.3678299
0.39066967 -0.045179468 -1.3678299
-0.39332801 -0.03587785 -1.36783
0.24631952 -0.032725066 -1.365635
0.25336799 -0.031836748 -1.3654799
0.39066899 -0.035877801 -1.36783
-0.39332801 -0.025247376 -1.36783
0.23752414 -0.023905188 -1.3670129
0.24478193 -0.025434803 -1.3634788
0.25515333 -0.025186123 -1.3643833
0.26038501 -0.023912899 -1.36751
0.39066899 -0.025247326 -1.367825
-0.39332724 -0.0146169 -1.36783
0.23360968 -0.015899517 -1.3637234
0.240576 -0.018505801 -1.36066
0.25792998 -0.018517949 -1.3615451
0.26380998 -0.01723415 -1.3646049
0.39066899 -0.014616876 -1.36782
-0.393327 -0.0053152335 -1.3678299
0.39066899 -0.00531522 -1.3678201
-0.393327 0.0039864252 -1.36783
-0.25166759 0.0047876998 -1.3692261
-0.249981 0.0079781301 -1.3687299
0.39066899 0.003986415 -1.36782
-0.393327 0.014616901 -1.36783
-0.25352755 0.015069801 -1.3687289
-0.24935874 0.013299175 -1.368965
-0.0238728 0.0159152 -1.3652101
0.22731701 0.0132161 -1.36041
0.390668 0.014616825 -1.36782
-0.393327 0.025247326 -1.36783
-0.25308946 0.0255749 -1.3689461
0.390668 0.0252473 -1.36782
-0.393327 0.035877801 -1.36783
-0.26053599 0.039878 -1.3683
-0.25427943 0.035483066 -1.3673342
-0.24993151 0.0385531 -1.3684599
-0.031911924 0.035900373 -1.3687075
-0.029135499 0.039730199 -1.36323
0.033164948 0.03979465 -1.36544
0.390668 0.035877701 -1.36782
-0.393327 0.045179438 -1.3678299
-0.2601535 0.043800697 -1.3662851
-0.25456282 0.045561276 -1.3647946
-0.249891 0.043864101 -1.368235
-0.031936899 0.042582501 -1.3697799
-0.028077861 0.045558419 -1.3632439
0.0291044 0.046303399 -1.36177
0.031814247 0.043745749 -1.3645151
0.390668 0.045179296 -1.3678201
-0.393327 0.054481074 -1.3678224
-0.26202199 0.0542561 -1.3622
-0.2542375 0.052746013 -1.3630592
-0.023527239 0.05368245 -1.3643299
-0.015886534 0.058242697 -1.3625666
0.0172172 0.058268201 -1.3631599
0.024621958 0.053791799 -1.36473
0.23834765 0.057593033 -1.3681067
0.24506721 0.055222966 -1.3665369
0.25491711 0.055759788 -1.3666815
0.260692 0.058522701 -1.36912
0.390668 0.054480977 -1.36782
-0.393327 0.065111503 -1.36782
-0.2519685 0.062329799 -1.36509
-0.01260225 0.061683152 -1.3654449
-0.0052987416 0.062251806 -1.363355
0.00441708 0.063608371 -1.3640833
0.013719582 0.061943065 -1.3663033
0.23750374 0.065015838 -1.3658075
0.240518 0.064755149 -1.360335
0.26020399 0.06505163 -1.366555
0.390668 0.065111399 -1.36782
-0.393327 0.075741947 -1.36782
0.23832633 0.072650202 -1.3679833
0.24530888 0.074921653 -1.3649262
0.25463539 0.074270979 -1.365168
0.390668 0.075741798 -1.36782
-0.39332667 0.085043572 -1.3678201
0.390668 0.08504343 -1.3678201
-0.39332601 0.094345152 -1.36782
0.390668 0.0943451 -1.36782
-0.39332601 0.1049755 -1.36782
0.390668 0.10497549 -1.36782
-0.39502788 0.15775101 -1.3645298
-0.38442323 0.15775101 -1.3645301
-0.3744289 0.157499 -1.3639885
-0.3652539 0.158003 -1.3650714
-0.35525978 0.15775101 -1.3645298
-0.34465486 0.15775101 -1.3645298
-0.33467656 0.157499 -1.3639886
-0.3254697 0.158003 -1.3650713
-0.3154915 0.15775101 -1.3645298
-0.30488649 0.15775101 -1.36453
-0.29492399 0.157499 -1.3639886
-0.28500611 0.15775101 -1.36453
-0.27507669 0.158003 -1.3650714
-0.26511812 0.15775101 -1.3645301
-0.25517157 0.157499 -1.3639885
-0.24523775 0.15775101 -1.3645298
-0.23463288 0.15775101 -1.3645298
-0.22468343 0.158003 -1.3650713
-0.21474501 0.15775101 -1.3645298
-0.20481841 0.157499 -1.3639885
-0.19486463 0.15775101 -1.3645301
-0.18489943 0.158003 -1.3650713
-0.17497674 0.15775101 -1.3645298
-0.16506585 0.157499 -1.3639885
-0.15509625 0.15775101 -1.3645298
-0.14449149 0.15775101 -1.3645298
-0.13450627 0.158003 -1.3650713
-0.12531313 0.157499 -1.3639885
-0.11532813 0.15775101 -1.3645301
-0.104723 0.15775101 -1.3645301
-0.094722174 0.158003 -1.3650714
-0.085560746 0.157499 -1.3639886
-0.075559758 0.15775101 -1.3645301
-0.064954869 0.15775101 -1.3645301
-0.054349989 0.15775101 -1.3645301
-0.045070719 0.15775101 -1.36453
-0.035791475 0.15775101 -1.3645301
-0.025186576 0.15775101 -1.3645298
-0.0145817 0.15775101 -1.3645301
-0.0053024366 0.15775101 -1.36453
0.0039768275 0.15775101 -1.3645298
0.0145817 0.15775101 -1.3645301
0.025186574 0.15775101 -1.36453
0.035791475 0.15775101 -1.3645298
0.045070719 0.15775101 -1.36453
0.054349989 0.15775101 -1.3645298
0.064954877 0.15775101 -1.3645298
0.07555975 0.15775101 -1.3645298
0.085560746 0.157499 -1.3639886
0.094722167 0.158003 -1.3650714
0.10472301 0.15775101 -1.3645301
0.11532813 0.15775101 -1.36453
0.12531313 0.157499 -1.3639885
0.1345063 0.158003 -1.3650713
0.14449151 0.15775101 -1.3645298
0.15509625 0.15775101 -1.3645298
0.16506587 0.157499 -1.3639885
0.17497677 0.15775101 -1.3645301
0.18489942 0.158003 -1.3650714
0.19486462 0.15775101 -1.3645298
0.20481844 0.157499 -1.3639885
0.21474501 0.15775101 -1.3645298
0.22468342 0.158003 -1.3650714
0.23463286 0.15775101 -1.36453
0.24523775 0.15775101 -1.3645298
0.25517157 0.157499 -1.3639886
0.26511812 0.15775101 -1.3645298
0.27507672 0.158003 -1.3650713
0.28500614 0.15775101 -1.3645301
0.29492399 0.157499 -1.3639886
0.30488652 0.15775101 -1.36453
0.3154915 0.15775101 -1.3645301
0.32546973 0.158003 -1.3650714
0.33467656 0.157499 -1.3639886
0.34465489 0.15775101 -1.36453
0.35525975 0.15775101 -1.36453
0.36525387 0.158003 -1.3650713
0.37442884 0.157499 -1.3639886
0.38442326 0.15775101 -1.3645298
0.39370218 0.15775101 -1.36453
0.37894601 -0.48420799 -1.3544199
0.3731316 -0.47470078 -1.354326
0.3574065 -0.46121049 -1.3525801
0.36430573 -0.46557313 -1.3538101
0.32834101 -0.45573598 -1.35193
0.33503735 -0.4539521 -1.3551158
0.34481058 -0.45535663 -1.3547173
0.35402542 -0.45823458 -1.35544
-0.40084037 -0.084389128 -1.3572735
-0.3958483 -0.085769676 -1.3582441
-0.400094 -0.078965902 -1.35474
-0.39573848 -0.074730411 -1.3542668
-0.39331901 -0.064673223 -1.35862
-0.39331901 -0.054114327 -1.35862
0.390679 -0.054114275 -1.35862
-0.39331901 -0.044875298 -1.35862
0.39067832 -0.044875234 -1.35862
-0.393318 -0.03563625 -1.35862
0.39067799 -0.035636202 -1.35862
-0.393318 -0.02507735 -1.35862
0.248337 -0.021135099 -1.35973
0.25102001 -0.021138599 -1.3599499
0.39067799 -0.025077324 -1.3586125
-0.393318 -0.014518451 -1.35862
0.23475033 -0.01404125 -1.3550349
0.24628176 -0.018438525 -1.3557075
0.25314599 -0.018458599 -1.35718
0.26283434 -0.013142633 -1.3527666
0.39067799 -0.014518451 -1.35861
-0.39331803 -0.00527944 -1.35862
0.22802719 -0.004740634 -1.355226
0.230863 -0.0078703295 -1.35024
0.39067802 -0.0052794297 -1.35861
-0.393318 0.0039595799 -1.35862
-0.01576145 0.0065672649 -1.35202
0.0052514598 0.0026257299 -1.35141
0.22651726 0.0039502825 -1.3556299
0.39067799 0.0039595724 -1.35861
-0.393318 0.014518451 -1.35862
-0.0210014 0.0131259 -1.35113
0.22806674 0.012487926 -1.3531125
0.23109999 0.018382899 -1.35162
0.26778299 0.0157519 -1.3512
0.39067799 0.014518451 -1.35861
-0.393318 0.02507735 -1.3586175
0.23646732 0.0236497 -1.3522667
0.39067799 0.02507725 -1.35861
-0.393318 0.035636175 -1.35861
-0.026413901 0.039620802 -1.35947
0.029058 0.039624501 -1.3595999
0.39067799 0.035636149 -1.35861
-0.39331803 0.044875201 -1.35861
-0.024602434 0.044807166 -1.3565766
0.027287433 0.044891197 -1.3591033
0.39067802 0.0448751 -1.35861
-0.393318 0.0541142 -1.35861
-0.26146799 0.0581039 -1.35932
-0.25662601 0.057027899 -1.35886
0.24681601 0.058074549 -1.3586349
0.25072899 0.0580636 -1.35838
0.39067799 0.054114126 -1.35861
-0.393318 0.064673029 -1.35861
-0.26156303 0.065387733 -1.3552467
-0.25554293 0.06454248 -1.3559241
0.24528596 0.064466767 -1.3542588
0.25417924 0.064533025 -1.3556488
0.39067799 0.064672954 -1.35861
-0.393318 0.07523185 -1.35861
-0.26264301 0.070913598 -1.35177
-0.25584799 0.071448743 -1.3519781
0.24539633 0.071244568 -1.3580834
0.25196648 0.071236402 -1.3579249
0.39067799 0.075231828 -1.35861
-0.393318 0.085790746 -1.35861
0.39067799 0.085790649 -1.35861
-0.39331734 0.095029689 -1.35861
0.39067802 0.095029674 -1.35861
-0.39331701 0.10426875 -1.35861
0.39067799 0.10426875 -1.35861
-0.39570776 0.15249901 -1.35325
-0.38519049 0.15249901 -1.35325
-0.37467349 0.15249901 -1.35325
-0.36415625 0.15249901 -1.35325
-0.35495368 0.15249901 -1.35325
-0.34575123 0.15249901 -1.35325
-0.33523399 0.15249901 -1.35325
-0.32471699 0.15249901 -1.35325
-0.31419975 0.15249901 -1.35325
-0.30499732 0.15249901 -1.35325
-0.29579476 0.15249901 -1.35325
-0.28527775 0.15249901 -1.35325
-0.27476048 0.15249901 -1.35325
-0.26424325 0.15249901 -1.35325
-0.255041 0.15249901 -1.35325
-0.24583825 0.15249901 -1.35325
-0.23532125 0.15249901 -1.35325
-0.224804 0.15249901 -1.35325
-0.214287 0.15249901 -1.35325
-0.20508432 0.15249901 -1.35325
-0.19588199 0.15249901 -1.35325
-0.18536475 0.15249901 -1.35325
-0.17484774 0.15249901 -1.35325
-0.1643305 0.15249901 -1.35325
-0.155128 0.15249901 -1.35325
-0.14592551 0.15249901 -1.35325
-0.13540825 0.15249901 -1.35325
-0.124891 0.15249901 -1.35325
-0.114374 0.15249901 -1.35325
-0.10517133 0.15249901 -1.35325
-0.095968977 0.15249901 -1.35325
-0.085451849 0.15249901 -1.35325
-0.074934676 0.15249901 -1.35325
-0.064417548 0.15249901 -1.35325
-0.055215001 0.15249901 -1.35325
-0.046012551 0.15249901 -1.35325
-0.035495348 0.15249901 -1.35325
-0.02497825 0.15249901 -1.35325
-0.01446105 0.15249901 -1.35325
-0.0052585732 0.15249901 -1.35325
0.0039439299 0.15249901 -1.35325
0.01446105 0.15249901 -1.35325
0.02497825 0.15249901 -1.35325
0.035495348 0.15249901 -1.35325
0.046012551 0.15249901 -1.35325
0.055215001 0.15249901 -1.35325
0.064417548 0.15249901 -1.35325
0.074934676 0.15249901 -1.35325
0.085451849 0.15249901 -1.35325
0.095968977 0.15249901 -1.35325
0.10517133 0.15249901 -1.35325
0.114374 0.15249901 -1.35325
0.124891 0.15249901 -1.35325
0.13540825 0.15249901 -1.35325
0.14592549 0.15249901 -1.35325
0.155128 0.15249901 -1.35325
0.1643305 0.15249901 -1.35325
0.17484775 0.15249901 -1.35325
0.18536475 0.15249901 -1.35325
0.19588199 0.15249901 -1.35325
0.20508432 0.15249901 -1.35325
0.214287 0.15249901 -1.35325
0.22480398 0.15249901 -1.35325
0.23532125 0.15249901 -1.35325
0.24583825 0.15249901 -1.35325
0.255041 0.15249901 -1.35325
0.26424325 0.15249901 -1.35325
0.27476051 0.15249901 -1.35325
0.28527775 0.15249901 -1.35325
0.29579476 0.15249901 -1.35325
0.30499732 0.15249901 -1.35325
0.31419975 0.15249901 -1.35325
0.32471699 0.15249901 -1.35325
0.33523402 0.15249901 -1.35325
0.34575123 0.15249901 -1.35325
0.35495368 0.15249901 -1.35325
0.36415625 0.15249901 -1.35325
0.37467349 0.15249901 -1.35325
0.38519049 0.15249901 -1.35325
0.39439297 0.15249901 -1.35325
0.3775855 -0.48602599 -1.344885
0.36736539 -0.47329441 -1.342878
0.37296066 -0.47839868 -1.34549
0.3269535 -0.46112198 -1.34085
0.33460575 -0.46089625 -1.3401976
0.34592339 -0.46122679 -1.3426781
0.35484499 -0.46344402 -1.3450844
0.36190528 -0.46773174 -1.344885
0.3280845 -0.45879477 -1.3454925
0.33501256 -0.45820746 -1.3459077
0.34412435 -0.45882916 -1.3468733
-0.400675 -0.064163476 -1.3478451
-0.39560592 -0.064189993 -1.3484225
0.39383852 -0.060188323 -1.3468601
-0.39590511 -0.054879744 -1.3449999
0.3932918 -0.054879744 -1.3450001
-0.40125 -0.049504802 -1.34101
-0.39412594 -0.04648957 -1.3442831
0.39216176 -0.04676367 -1.3439854
-0.39330554 -0.035280287 -1.3450451
0.39069152 -0.035280265 -1.3450451
-0.39330551 -0.024826851 -1.345045
0.39069152 -0.024826838 -1.345045
-0.39330554 -0.014373438 -1.3450451
0.23678249 -0.011339051 -1.3466283
0.24330832 -0.014799667 -1.3441366
0.25551784 -0.013929732 -1.34421
0.26159599 -0.0104638 -1.34639
0.39069152 -0.014373424 -1.345045
-0.39330551 -0.0052267034 -1.345045
0.23425502 -0.0054587959 -1.3437318
0.25775599 -0.0078107901 -1.3400199
0.263805 -0.0052245618 -1.3442972
0.39069152 -0.0052267001 -1.345045
-0.39330527 0.0039200252 -1.345045
-0.0157285 0.0078642601 -1.3492
-0.0026215301 0.0026215301 -1.34925
0.00087408331 0.00087227329 -1.3482933
0.22874068 0.0039286469 -1.3480483
0.23183315 0.0033554602 -1.3428458
0.26560259 0.0031321838 -1.3428321
0.39069101 0.0039200201 -1.3450412
-0.39330465 0.014373425 -1.345045
-0.0183504 0.010486 -1.3492301
0.2333917 0.014462625 -1.3439077
0.26362073 0.014356474 -1.3433626
0.39069098 0.014373386 -1.3450398
-0.39330453 0.024826825 -1.3450451
0.23778225 0.021558499 -1.3448749
0.24402642 0.024377121 -1.3440856
0.25448975 0.023493737 -1.3433951
0.261583 0.0209266 -1.34632
0.39069062 0.024826787 -1.3450398
-0.39330453 0.035280209 -1.3450451
0.39069054 0.035280149 -1.34504
-0.39330453 0.045733612 -1.3450451
-0.020893499 0.0496221 -1.34419
0.0235803 0.0497807 -1.34849
0.39069051 0.045733504 -1.3450398
-0.39330387 0.055598345 -1.3444043
-0.015700901 0.05494855 -1.3467226
0.013944301 0.056641597 -1.3454967
0.020930899 0.052327301 -1.3466001
0.39069119 0.055598259 -1.3444
-0.39330515 0.064615645 -1.3456857
0.0036616861 0.060655303 -1.345588
0.39068988 0.064615548 -1.34568
-0.39330453 0.074480399 -1.3450398
-0.26187867 0.075942434 -1.34784
-0.25685474 0.076237217 -1.34725
0.39069054 0.074480295 -1.34504
-0.39330453 0.08493375 -1.34504
-0.26077825 0.084749699 -1.3421775
-0.25549537 0.084451705 -1.3430791
0.39069054 0.084933676 -1.3450398
-0.39330453 0.095387124 -1.34504
0.39069054 0.095387042 -1.34504
-0.39330414 0.10453367 -1.3450398
0.39069048 0.10453367 -1.3450398
-0.40007699 0.149048 -1.34583
-0.39484701 0.149048 -1.34583
-0.3856945 0.149048 -1.34583
-0.3752355 0.149048 -1.34583
-0.36477548 0.149048 -1.34583
-0.35431647 0.149048 -1.34583
-0.34516397 0.149048 -1.34583
-0.33601201 0.149048 -1.34583
-0.32555252 0.149048 -1.34583
-0.31509298 0.149048 -1.34583
-0.3046335 0.149048 -1.34583
-0.29417402 0.149048 -1.34583
-0.28502199 0.149048 -1.34583
-0.27586952 0.149048 -1.34583
-0.26541051 0.149048 -1.34583
-0.25495049 0.149048 -1.34583
-0.2444915 0.149048 -1.34583
-0.2340315 0.149048 -1.34583
-0.22487999 0.149048 -1.34583
-0.21572749 0.149048 -1.34583
-0.205268 0.149048 -1.34583
-0.19480851 0.149048 -1.34583
-0.184349 0.149048 -1.34583
-0.17519701 0.149048 -1.34583
-0.16604474 0.149048 -1.34583
-0.1555855 0.149048 -1.34583
-0.14512551 0.149048 -1.34583
-0.1346665 0.149048 -1.34583
-0.1242065 0.149048 -1.34583
-0.115055 0.149048 -1.34583
-0.10590251 0.149048 -1.34583
-0.0954431 0.149048 -1.34583
-0.084983572 0.149048 -1.34583
-0.074524052 0.149048 -1.34583
-0.064064547 0.149048 -1.34583
-0.054912496 0.149048 -1.34583
-0.045760397 0.149048 -1.34583
-0.035300877 0.149048 -1.34583
-0.02484135 0.149048 -1.34583
-0.01438185 0.149048 -1.34583
-0.00522976 0.149048 -1.34583
0.00392232 0.149048 -1.34583
0.01438185 0.149048 -1.34583
0.02484135 0.149048 -1.34583
0.035300877 0.149048 -1.34583
0.045760401 0.149048 -1.34583
0.054912496 0.149048 -1.34583
0.064064547 0.149048 -1.34583
0.074524052 0.149048 -1.34583
0.08498358 0.149048 -1.34583
0.0954431 0.149048 -1.34583
0.1059025 0.149048 -1.34583
0.11505499 0.149048 -1.34583
