# .PCD v0.7 - Point Cloud Data file format
VERSION 0.7
FIELDS x y z normal_x normal_y normal_z curvature
SIZE 4 4 4 4 4 4 4
TYPE F F F F F F F
COUNT 1 1 1 1 1 1 1
WIDTH 848
HEIGHT 1
VIEWPOINT 0 0 0 1 0 0 0
POINTS 848
DATA ascii
-0.248919 -0.058884099 -1.37757 0 0 0 0
-0.24618 -0.058869202 -1.37722 0 0 0 0
-0.243523 -0.058873799 -1.3773299 0 0 0 0
-0.24095599 -0.058900502 -1.37795 0 0 0 0
-0.23877101 -0.059021998 -1.3808 0 0 0 0
-0.25166401 -0.0562228 -1.3779401 0 0 0 0
-0.248842 -0.0561902 -1.3771501 0 0 0 0
-0.24613 -0.0561818 -1.37694 0 0 0 0
-0.24347299 -0.056186099 -1.37705 0 0 0 0
-0.24087401 -0.056203801 -1.37748 0 0 0 0
-0.23837499 -0.0562458 -1.37851 0 0 0 0
-0.236158 -0.056355901 -1.38121 0 0 0 0
-0.25460899 -0.053601898 -1.3794 0 0 0 0
-0.25158301 -0.053528301 -1.3775001 0 0 0 0
-0.248759 -0.053496599 -1.37669 0 0 0 0
-0.246032 -0.053485099 -1.37639 0 0 0 0
-0.243374 -0.053488702 -1.37648 0 0 0 0
-0.24078099 -0.0535069 -1.37695 0 0 0 0
-0.238278 -0.053545699 -1.37795 0 0 0 0
-0.235879 -0.053608999 -1.37958 0 0 0 0
-0.23389301 -0.0537684 -1.38368 0 0 0 0
-0.254421 -0.050884102 -1.3783799 0 0 0 0
-0.251403 -0.0508155 -1.37652 0 0 0 0
-0.24852701 -0.050774202 -1.3753999 0 0 0 0
-0.24577799 -0.0507585 -1.37497 0 0 0 0
-0.24312299 -0.050762001 -1.37507 0 0 0 0
-0.24056201 -0.0507854 -1.3757 0 0 0 0
-0.238105 -0.050831299 -1.37694 0 0 0 0
-0.23571201 -0.050892498 -1.3786 0 0 0 0
-0.233391 -0.050970498 -1.38072 0 0 0 0
-0.25728899 -0.0482416 -1.37939 0 0 0 0
-0.25417 -0.0481585 -1.37702 0 0 0 0
-0.25108799 -0.048080798 -1.37479 0 0 0 0
-0.24816699 -0.048032399 -1.37341 0 0 0 0
-0.245414 -0.048015699 -1.37293 0 0 0 0
-0.242772 -0.048020799 -1.37308 0 0 0 0
-0.240247 -0.048049498 -1.3739001 0 0 0 0
-0.237835 -0.0481015 -1.3753901 0 0 0 0
-0.23547301 -0.048165001 -1.3772 0 0 0 0
-0.233089 -0.048225299 -1.37893 0 0 0 0
-0.230914 -0.048330899 -1.38195 0 0 0 0
-0.25685501 -0.045484699 -1.37707 0 0 0 0
-0.25375801 -0.045409299 -1.3747801 0 0 0 0
-0.25068 -0.045335799 -1.37256 0 0 0 0
-0.247733 -0.045284498 -1.3710099 0 0 0 0
-0.244957 -0.045263901 -1.37038 0 0 0 0
-0.242339 -0.045272201 -1.37063 0 0 0 0
-0.239868 -0.0453084 -1.37173 0 0 0 0
-0.237488 -0.0453628 -1.3733799 0 0 0 0
-0.235121 -0.045421101 -1.37514 0 0 0 0
-0.232737 -0.045477301 -1.37684 0 0 0 0
-0.230372 -0.045538701 -1.3787 0 0 0 0
-0.25942001 -0.042790901 -1.37648 0 0 0 0
-0.25523701 -0.0425395 -1.36839 0 0 0 0
-0.25178099 -0.042405099 -1.3640701 0 0 0 0
-0.248468 -0.042292401 -1.36045 0 0 0 0
-0.244739 -0.042105701 -1.35444 0 0 0 0
-0.242118 -0.0421074 -1.35449 0 0 0 0
-0.240384 -0.0422653 -1.35957 0 0 0 0
-0.23806199 -0.042322099 -1.3614 0 0 0 0
-0.235856 -0.042401101 -1.36394 0 0 0 0
-0.23356999 -0.042467199 -1.36607 0 0 0 0
-0.231631 -0.042598799 -1.3703001 0 0 0 0
-0.22992601 -0.042777002 -1.37603 0 0 0 0
-0.22772001 -0.042865001 -1.37886 0 0 0 0
-0.26212999 -0.040121902 -1.37667 0 0 0 0
-0.256926 -0.039730798 -1.36325 0 0 0 0
-0.253611 -0.0396268 -1.3596801 0 0 0 0
-0.249787 -0.039440099 -1.3532701 0 0 0 0
-0.24687199 -0.039394502 -1.35171 0 0 0 0
-0.244215 -0.039389599 -1.35154 0 0 0 0
-0.241604 -0.039391901 -1.35162 0 0 0 0
-0.23913901 -0.0394186 -1.35253 0 0 0 0
-0.23706099 -0.039510101 -1.35568 0 0 0 0
-0.234981 -0.039603598 -1.35888 0 0 0 0
-0.232742 -0.039671998 -1.36123 0 0 0 0
-0.23071299 -0.039778098 -1.36487 0 0 0 0
-0.22897901 -0.0399382 -1.37036 0 0 0 0
-0.227221 -0.0400979 -1.3758399 0 0 0 0
-0.259835 -0.037119299 -1.36462 0 0 0 0
-0.25606799 -0.0369583 -1.3587 0 0 0 0
-0.25273401 -0.036857098 -1.35497 0 0 0 0
-0.249378 -0.036750399 -1.35105 0 0 0 0
-0.246566 -0.036722701 -1.3500299 0 0 0 0
-0.24391399 -0.036718201 -1.34987 0 0 0 0
-0.24132299 -0.0367231 -1.35005 0 0 0 0
-0.238855 -0.036746901 -1.35093 0 0 0 0
-0.236569 -0.036799699 -1.35287 0 0 0 0
-0.234476 -0.036883801 -1.35596 0 0 0 0
-0.232218 -0.0369437 -1.35816 0 0 0 0
-0.230003 -0.037011899 -1.36067 0 0 0 0
-0.227962 -0.037110101 -1.36428 0 0 0 0
-0.226399 -0.037289198 -1.37086 0 0 0 0
-0.258737 -0.034322299 -1.35885 0 0 0 0
-0.25547001 -0.034238301 -1.35552 0 0 0 0
-0.252175 -0.034148701 -1.35198 0 0 0 0
-0.249167 -0.034096599 -1.34992 0 0 0 0
-0.24636801 -0.034072202 -1.34895 0 0 0 0
-0.243708 -0.034066699 -1.34873 0 0 0 0
-0.24113899 -0.034074001 -1.34902 0 0 0 0
-0.23868001 -0.034097102 -1.34993 0 0 0 0
-0.236321 -0.0341352 -1.35144 0 0 0 0
-0.234045 -0.0341864 -1.35347 0 0 0 0
-0.23181599 -0.034245498 -1.35581 0 0 0 0
-0.229542 -0.0342994 -1.35795 0 0 0 0
-0.227402 -0.0343748 -1.36093 0 0 0 0
-0.225418 -0.034475598 -1.36492 0 0 0 0
-0.224078 -0.034678701 -1.37296 0 0 0 0
-0.261668 -0.031717401 -1.36036 0 0 0 0
-0.25815499 -0.031610802 -1.35579 0 0 0 0
-0.25497201 -0.031542901 -1.35288 0 0 0 0
-0.25192201 -0.0314903 -1.35062 0 0 0 0
-0.249027 -0.031456102 -1.34916 0 0 0 0
-0.246245 -0.031435501 -1.3482701 0 0 0 0
-0.24357601 -0.031429201 -1.348 0 0 0 0
-0.241027 -0.031438299 -1.34839 0 0 0 0
-0.238556 -0.031457901 -1.3492399 0 0 0 0
-0.23614401 -0.0314858 -1.35043 0 0 0 0
-0.233778 -0.031520601 -1.35192 0 0 0 0
-0.23146699 -0.031563699 -1.35377 0 0 0 0
-0.229193 -0.031612799 -1.35588 0 0 0 0
-0.227001 -0.031674601 -1.35853 0 0 0 0
-0.224962 -0.0317594 -1.36216 0 0 0 0
-0.223314 -0.031902101 -1.3682801 0 0 0 0
-0.26109299 -0.0290104 -1.35737 0 0 0 0
-0.25774401 -0.0289304 -1.3536299 0 0 0 0
-0.25466499 -0.028879501 -1.3512501 0 0 0 0
-0.25174299 -0.028845601 -1.34966 0 0 0 0
-0.248913 -0.0288215 -1.3485399 0 0 0 0
-0.246162 -0.0288061 -1.34782 0 0 0 0
-0.24350201 -0.0288013 -1.34759 0 0 0 0
-0.240943 -0.0288084 -1.3479199 0 0 0 0
-0.238444 -0.028822901 -1.3486 0 0 0 0
-0.23599701 -0.028844099 -1.3495899 0 0 0 0
-0.233588 -0.0288704 -1.3508199 0 0 0 0
-0.231223 -0.028902801 -1.35234 0 0 0 0
-0.228938 -0.0289462 -1.35437 0 0 0 0
-0.22671799 -0.0289988 -1.35683 0 0 0 0
-0.224668 -0.0290746 -1.3603801 0 0 0 0
-0.222955 -0.029196501 -1.36608 0 0 0 0
-0.221615 -0.0293706 -1.37423 0 0 0 0
-0.227396 -0.0305044 -1.4272799 0 0 0 0
-0.26622099 -0.0266221 -1.37019 0 0 0 0
-0.26075599 -0.026339 -1.35562 0 0 0 0
-0.25745201 -0.0262706 -1.3521 0 0 0 0
-0.25448501 -0.026235599 -1.3503 0 0 0 0
-0.25161499 -0.0262098 -1.3489701 0 0 0 0
-0.248816 -0.0261911 -1.3480099 0 0 0 0
-0.246088 -0.026179601 -1.34742 0 0 0 0
-0.243433 -0.026175501 -1.34721 0 0 0 0
-0.24086601 -0.0261811 -1.34749 0 0 0 0
-0.23835599 -0.026193 -1.3480999 0 0 0 0
-0.235889 -0.0262098 -1.3489701 0 0 0 0
-0.233454 -0.026230801 -1.35005 0 0 0 0
-0.231062 -0.026257001 -1.3514 0 0 0 0
-0.228751 -0.0262933 -1.3532701 0 0 0 0
-0.226541 -0.026342001 -1.35577 0 0 0 0
-0.224491 -0.026410701 -1.35931 0 0 0 0
-0.22272401 -0.0265147 -1.36466 0 0 0 0
-0.221286 -0.026660999 -1.37219 0 0 0 0
-0.22585399 -0.0275432 -1.4176 0 0 0 0
-0.22372299 -0.027620099 -1.42156 0 0 0 0
-0.26495501 -0.0238459 -1.36367 0 0 0 0
-0.26058701 -0.023689801 -1.35474 0 0 0 0
-0.25735301 -0.023634501 -1.35158 0 0 0 0
-0.254381 -0.023602299 -1.34974 0 0 0 0
-0.25152701 -0.0235806 -1.3485 0 0 0 0
-0.248743 -0.023565199 -1.34762 0 0 0 0
-0.24602599 -0.0235557 -1.34707 0 0 0 0
-0.24337099 -0.023552001 -1.3468699 0 0 0 0
-0.240804 -0.023556899 -1.34715 0 0 0 0
-0.238287 -0.0235669 -1.34772 0 0 0 0
-0.235811 -0.023581101 -1.3485301 0 0 0 0
-0.233371 -0.023599301 -1.34957 0 0 0 0
-0.230986 -0.0236235 -1.35096 0 0 0 0
-0.22866499 -0.023654999 -1.3527499 0 0 0 0
-0.226456 -0.0236989 -1.35527 0 0 0 0
-0.224398 -0.023759799 -1.35875 0 0 0 0
-0.222573 -0.0238472 -1.36374 0 0 0 0
-0.2211 -0.0239747 -1.37104 0 0 0 0
-0.225187 -0.024715699 -1.4134099 0 0 0 0
-0.222866 -0.024762901 -1.41611 0 0 0 0
-0.22065 -0.024823099 -1.41956 0 0 0 0
-0.21878 -0.024924301 -1.4253401 0 0 0 0
-0.26482001 -0.021185599 -1.36298 0 0 0 0
-0.260553 -0.021054801 -1.35457 0 0 0 0
-0.25731501 -0.021005301 -1.35138 0 0 0 0
-0.25433701 -0.020976299 -1.34951 0 0 0 0
-0.25148299 -0.0209569 -1.3482701 0 0 0 0
-0.248703 -0.0209434 -1.3474 0 0 0 0
-0.245986 -0.020935001 -1.3468601 0 0 0 0
-0.243333 -0.0209319 -1.34666 0 0 0 0
-0.24076501 -0.0209361 -1.34693 0 0 0 0
-0.23824599 -0.0209447 -1.3474801 0 0 0 0
-0.23576701 -0.020957099 -1.34828 0 0 0 0
-0.23333099 -0.0209736 -1.34934 0 0 0 0
-0.230949 -0.0209953 -1.35074 0 0 0 0
-0.228632 -0.021023599 -1.35256 0 0 0 0
-0.226437 -0.021064 -1.35515 0 0 0 0
-0.224381 -0.021118199 -1.35865 0 0 0 0
-0.222527 -0.0211931 -1.3634599 0 0 0 0
-0.221001 -0.021301299 -1.37042 0 0 0 0
-0.22472 -0.0219239 -1.41048 0 0 0 0
-0.22233 -0.0219585 -1.4127001 0 0 0 0
-0.219956 -0.0219956 -1.41509 0 0 0 0
-0.217656 -0.022041099 -1.41802 0 0 0 0
-0.21565799 -0.022118701 -1.42301 0 0 0 0
-0.264954 -0.018546799 -1.36367 0 0 0 0
-0.260618 -0.018427599 -1.3549 0 0 0 0
-0.25733501 -0.0183811 -1.35149 0 0 0 0
-0.25434101 -0.0183545 -1.34953 0 0 0 0
-0.251477 -0.0183369 -1.34824 0 0 0 0
-0.248695 -0.0183249 -1.34736 0 0 0 0
-0.245976 -0.0183174 -1.3468 0 0 0 0
-0.243323 -0.0183146 -1.3466001 0 0 0 0
-0.24075501 -0.018318299 -1.3468699 0 0 0 0
-0.238233 -0.018325699 -1.34741 0 0 0 0
-0.23575599 -0.0183366 -1.34821 0 0 0 0
-0.233325 -0.0183514 -1.3493 0 0 0 0
-0.23095401 -0.018371301 -1.35077 0 0 0 0
-0.22865801 -0.018397801 -1.35271 0 0 0 0
-0.22646999 -0.018433601 -1.35535 0 0 0 0
-0.224415 -0.018481201 -1.35885 0 0 0 0
-0.22254799 -0.0185457 -1.36359 0 0 0 0
-0.221094 -0.018646499 -1.3710001 0 0 0 0
-0.224354 -0.0191522 -1.40818 0 0 0 0
-0.221944 -0.0191803 -1.4102499 0 0 0 0
-0.219503 -0.0192065 -1.4121799 0 0 0 0
-0.21714 -0.019240299 -1.41466 0 0 0 0
-0.214995 -0.0192944 -1.41864 0 0 0 0
-0.213149 -0.0193772 -1.4247299 0 0 0 0
-0.260838 -0.0158084 -1.35605 0 0 0 0
-0.257442 -0.0157618 -1.3520499 0 0 0 0
-0.25440401 -0.0157363 -1.34986 0 0 0 0
-0.251517 -0.015719799 -1.3484499 0 0 0 0
-0.248725 -0.015709 -1.34752 0 0 0 0
-0.24599899 -0.0157021 -1.34693 0 0 0 0
-0.24334399 -0.015699601 -1.34672 0 0 0 0
-0.240775 -0.0157027 -1.34698 0 0 0 0
-0.23825499 -0.0157091 -1.34753 0 0 0 0
-0.235782 -0.015718799 -1.3483599 0 0 0 0
-0.233364 -0.0157324 -1.34953 0 0 0 0
-0.23100901 -0.0157506 -1.35109 0 0 0 0
-0.228728 -0.0157743 -1.35313 0 0 0 0
-0.226549 -0.015805701 -1.3558199 0 0 0 0
-0.224502 -0.015847201 -1.35938 0 0 0 0
-0.222634 -0.015902501 -1.36412 0 0 0 0
-0.22137301 -0.016002901 -1.37273 0 0 0 0
-0.22405501 -0.0163943 -1.40631 0 0 0 0
-0.221633 -0.0164173 -1.40828 0 0 0 0
-0.21916901 -0.0164377 -1.41003 0 0 0 0
-0.216783 -0.0164645 -1.41233 0 0 0 0
-0.214587 -0.0165067 -1.4159499 0 0 0 0
-0.21257401 -0.0165642 -1.42088 0 0 0 0
-0.27519301 -0.0137596 -1.41637 0 0 0 0
-0.26116499 -0.0131902 -1.3577501 0 0 0 0
-0.257673 -0.0131466 -1.35326 0 0 0 0
-0.254545 -0.0131209 -1.35062 0 0 0 0
-0.25161701 -0.013105 -1.34899 0 0 0 0
-0.248804 -0.013095 -1.34795 0 0 0 0
-0.24606299 -0.0130885 -1.34728 0 0 0 0
-0.243404 -0.0130863 -1.34705 0 0 0 0
-0.240834 -0.0130888 -1.3473099 0 0 0 0
-0.23831899 -0.0130944 -1.34789 0 0 0 0
-0.235853 -0.0131029 -1.34877 0 0 0 0
-0.23345099 -0.0131152 -1.3500299 0 0 0 0
-0.231125 -0.0131321 -1.35177 0 0 0 0
-0.228861 -0.0131529 -1.35391 0 0 0 0
-0.226714 -0.0131811 -1.35681 0 0 0 0
-0.22468901 -0.013217 -1.36051 0 0 0 0
-0.222884 -0.0132669 -1.3656501 0 0 0 0
-0.22609 -0.0136199 -1.40198 0 0 0 0
-0.22380599 -0.0136467 -1.40474 0 0 0 0
-0.221376 -0.0136652 -1.4066401 0 0 0 0
-0.218904 -0.0136815 -1.40832 0 0 0 0
-0.2165 -0.0137025 -1.41049 0 0 0 0
-0.214269 -0.0137352 -1.4138499 0 0 0 0
-0.21217801 -0.0137778 -1.4182301 0 0 0 0
-0.210444 -0.013845 -1.42515 0 0 0 0
-0.27451599 -0.0109806 -1.4128799 0 0 0 0
-0.261758 -0.0105761 -1.3608299 0 0 0 0
-0.257994 -0.0105304 -1.35495 0 0 0 0
-0.254805 -0.0105074 -1.352 0 0 0 0
-0.25180599 -0.0104919 -1.35 0 0 0 0
-0.248951 -0.0104822 -1.34874 0 0 0 0
-0.24618299 -0.0104759 -1.34793 0 0 0 0
-0.243516 -0.0104738 -1.34767 0 0 0 0
-0.240943 -0.0104758 -1.3479199 0 0 0 0
-0.238434 -0.0104806 -1.34855 0 0 0 0
-0.235976 -0.0104878 -1.34947 0 0 0 0
-0.233611 -0.0104994 -1.35096 0 0 0 0
-0.2313 -0.0105137 -1.3528 0 0 0 0
-0.22907799 -0.0105323 -1.3552001 0 0 0 0
-0.226927 -0.0105547 -1.35808 0 0 0 0
-0.224929 -0.0105849 -1.3619601 0 0 0 0
-0.223307 -0.0106337 -1.36824 0 0 0 0
-0.22592799 -0.0108881 -1.40097 0 0 0 0
-0.223601 -0.0109073 -1.40345 0 0 0 0
-0.221163 -0.0109216 -1.40529 0 0 0 0
-0.218688 -0.0109344 -1.40693 0 0 0 0
-0.21626399 -0.0109501 -1.40895 0 0 0 0
-0.213999 -0.0109743 -1.41207 0 0 0 0
-0.21185499 -0.0110055 -1.41608 0 0 0 0
-0.209938 -0.0110494 -1.42173 0 0 0 0
-0.27892601 -0.0082849199 -1.42137 0 0 0 0
-0.27404201 -0.00822125 -1.41044 0 0 0 0
-0.27052701 -0.0081977798 -1.40642 0 0 0 0
-0.25858 -0.0079157101 -1.3580199 0 0 0 0
-0.255178 -0.0078921001 -1.3539701 0 0 0 0
-0.25210899 -0.0078784199 -1.35163 0 0 0 0
-0.24919 -0.00786917 -1.35004 0 0 0 0
-0.246383 -0.0078632897 -1.34903 0 0 0 0
-0.24370299 -0.0078614 -1.3487099 0 0 0 0
-0.24112301 -0.0078627197 -1.34893 0 0 0 0
-0.238616 -0.0078664497 -1.34957 0 0 0 0
-0.236186 -0.0078728702 -1.35067 0 0 0 0
-0.23383901 -0.0078822197 -1.35228 0 0 0 0
-0.231556 -0.0078939497 -1.35429 0 0 0 0
-0.229362 -0.00790904 -1.3568799 0 0 0 0
-0.22729801 -0.0079290103 -1.36031 0 0 0 0
-0.225458 -0.00795733 -1.36516 0 0 0 0
-0.22803 -0.00814394 -1.39718 0 0 0 0
-0.225795 -0.0081612496 -1.4001499 0 0 0 0
-0.22343799 -0.0081745703 -1.4024301 0 0 0 0
-0.220999 -0.0081851501 -1.40425 0 0 0 0
-0.218514 -0.0081942696 -1.40581 0 0 0 0
-0.216067 -0.0082050599 -1.40767 0 0 0 0
-0.213771 -0.0082219504 -1.41056 0 0 0 0
-0.21158101 -0.0082434304 -1.41425 0 0 0 0
-0.209571 -0.0082725398 -1.41924 0 0 0 0
-0.27777201 -0.00550044 -1.41549 0 0 0 0
-0.273682 -0.00547363 -1.40859 0 0 0 0
-0.270289 -0.0054603801 -1.40518 0 0 0 0
-0.25992101 -0.00530452 -1.36507 0 0 0 0
-0.25577399 -0.00527369 -1.3571399 0 0 0 0
-0.252563 -0.0052617299 -1.3540601 0 0 0 0
-0.24955299 -0.0052537401 -1.352 0 0 0 0
-0.24669801 -0.00524888 -1.35075 0 0 0 0
-0.24399801 -0.00524728 -1.35034 0 0 0 0
-0.24139901 -0.0052478001 -1.3504699 0 0 0 0
-0.238887 -0.0052502598 -1.35111 0 0 0 0
-0.23649099 -0.0052553602 -1.35242 0 0 0 0
-0.234145 -0.0052616801 -1.35404 0 0 0 0
-0.23194 -0.0052713701 -1.35654 0 0 0 0
-0.229807 -0.0052829199 -1.3595099 0 0 0 0
-0.227814 -0.0052979901 -1.36339 0 0 0 0
-0.23022 -0.0054169302 -1.3940001 0 0 0 0
-0.228002 -0.0054286099 -1.397 0 0 0 0
-0.225705 -0.0054386901 -1.3996 0 0 0 0
-0.22331201 -0.0054466301 -1.4016401 0 0 0 0
-0.22086699 -0.0054535 -1.40341 0 0 0 0
-0.218374 -0.0054593598 -1.40492 0 0 0 0
-0.21591 -0.00546607 -1.4066401 0 0 0 0
-0.21358299 -0.0054764901 -1.40932 0 0 0 0
-0.211355 -0.0054897298 -1.41273 0 0 0 0
-0.20928 -0.0055073798 -1.4172699 0 0 0 0
-0.27726099 -0.0027451599 -1.4128799 0 0 0 0
-0.27341899 -0.0027341901 -1.40724 0 0 0 0
-0.27011201 -0.0027284101 -1.40426 0 0 0 0
-0.26707301 -0.0027252301 -1.40263 0 0 0 0
-0.263946 -0.0027210901 -1.40049 0 0 0 0
-0.25333899 -0.00263894 -1.35822 0 0 0 0
-0.25016999 -0.00263337 -1.35535 0 0 0 0
-0.24718 -0.00262957 -1.35339 0 0 0 0
-0.244454 -0.0026285399 -1.35286 0 0 0 0
-0.241814 -0.00262841 -1.3528 0 0 0 0
-0.23932201 -0.0026299099 -1.35357 0 0 0 0
-0.236944 -0.0026327199 -1.35501 0 0 0 0
-0.23466399 -0.0026366699 -1.3570499 0 0 0 0
-0.232463 -0.0026416299 -1.3595999 0 0 0 0
-0.230556 -0.00265007 -1.36394 0 0 0 0
-0.23257799 -0.0027043901 -1.3918999 0 0 0 0
-0.23028199 -0.0027091999 -1.39438 0 0 0 0
-0.22797801 -0.00271403 -1.39686 0 0 0 0
-0.22561599 -0.0027182701 -1.39904 0 0 0 0
-0.223206 -0.00272203 -1.40098 0 0 0 0
-0.220761 -0.0027254501 -1.40274 0 0 0 0
-0.218265 -0.00272832 -1.40421 0 0 0 0
-0.215783 -0.0027314301 -1.40581 0 0 0 0
-0.213432 -0.00273631 -1.40833 0 0 0 0
-0.211172 -0.00274249 -1.41151 0 0 0 0
-0.20905 -0.0027506601 -1.41571 0 0 0 0
-0.207524 -0.0027669901 -1.4241199 0 0 0 0
-0.27691901 0 -1.41114 0 0 0 0
-0.27322501 0 -1.40624 0 0 0 0
-0.269981 0 -1.40358 0 0 0 0
-0.26696301 0 -1.40205 0 0 0 0
-0.263843 0 -1.39995 0 0 0 0
-0.260685 0 -1.3976001 0 0 0 0
-0.251369 0 -1.36184 0 0 0 0
-0.248053 0 -1.35817 0 0 0 0
-0.24523 0 -1.35715 0 0 0 0
-0.24246401 0 -1.3564301 0 0 0 0
-0.240054 0 -1.35771 0 0 0 0
-0.237634 0 -1.35896 0 0 0 0
-0.235516 0 -1.36198 0 0 0 0
-0.233759 0 -1.36718 0 0 0 0
-0.23503301 0 -1.39043 0 0 0 0
-0.232656 0 -1.39237 0 0 0 0
-0.23030201 0 -1.3945 0 0 0 0
-0.227926 0 -1.39654 0 0 0 0
-0.22554 0 -1.3985699 0 0 0 0
-0.22311901 0 -1.40043 0 0 0 0
-0.220677 0 -1.4022 0 0 0 0
-0.21818399 0 -1.40369 0 0 0 0
-0.215691 0 -1.40522 0 0 0 0
-0.21331599 0 -1.40756 0 0 0 0
-0.211027 0 -1.41054 0 0 0 0
-0.20886099 0 -1.41443 0 0 0 0
-0.207114 0 -1.4213099 0 0 0 0
-0.27667001 0.00273931 -1.40987 0 0 0 0
-0.27309501 0.00273095 -1.40557 0 0 0 0
-0.269887 0.00272613 -1.40309 0 0 0 0
-0.26688501 0.0027233099 -1.4016401 0 0 0 0
-0.26376301 0.00271921 -1.3995301 0 0 0 0
-0.26062 0.0027147899 -1.3972501 0 0 0 0
-0.25746399 0.0027101501 -1.39486 0 0 0 0
-0.25431901 0.00270553 -1.39248 0 0 0 0
-0.25125301 0.0027016399 -1.3904901 0 0 0 0
-0.244334 0.0026558 -1.36689 0 0 0 0
-0.241693 0.0026559599 -1.36698 0 0 0 0
-0.242668 0.0026963099 -1.38774 0 0 0 0
-0.24008401 0.00269757 -1.3883899 0 0 0 0
-0.23756699 0.0026996201 -1.38945 0 0 0 0
-0.235122 0.00270255 -1.39095 0 0 0 0
-0.232693 0.00270573 -1.39259 0 0 0 0
-0.230286 0.00270925 -1.3944 0 0 0 0
-0.227881 0.00271286 -1.39626 0 0 0 0
-0.225476 0.0027165799 -1.39817 0 0 0 0
-0.223056 0.00272019 -1.40003 0 0 0 0
-0.220621 0.0027237199 -1.40185 0 0 0 0
-0.21813101 0.0027266401 -1.40335 0 0 0 0
-0.21562301 0.0027294001 -1.40477 0 0 0 0
-0.213222 0.0027336199 -1.40694 0 0 0 0
-0.210908 0.00273906 -1.40975 0 0 0 0
-0.20687599 0.00275835 -1.41967 0 0 0 0
-0.27648699 0.005475 -1.40894 0 0 0 0
-0.27300599 0.00546011 -1.40511 0 0 0 0
-0.26983199 0.0054511498 -1.4028 0 0 0 0
-0.266837 0.0054456601 -1.40139 0 0 0 0
-0.263704 0.0054372 -1.39921 0 0 0 0
-0.26056999 0.0054285401 -1.39698 0 0 0 0
-0.25744399 0.0054198699 -1.39475 0 0 0 0
-0.25437099 0.0054121502 -1.3927701 0 0 0 0
-0.25133699 0.0054050898 -1.39095 0 0 0 0
-0.24839801 0.0053999699 -1.38963 0 0 0 0
-0.24554799 0.00539666 -1.38878 0 0 0 0
-0.242808 0.0053957198 -1.38854 0 0 0 0
-0.240187 0.0053974702 -1.38899 0 0 0 0
-0.237645 0.0054010199 -1.3899 0 0 0 0
-0.235155 0.00540586 -1.39115 0 0 0 0
-0.232702 0.0054116701 -1.39264 0 0 0 0
-0.230252 0.0054176999 -1.39419 0 0 0 0
-0.227836 0.0054246602 -1.39599 0 0 0 0
-0.22542 0.0054318099 -1.39783 0 0 0 0
-0.223001 0.00543905 -1.39969 0 0 0 0
-0.220578 0.00544636 -1.40157 0 0 0 0
-0.218096 0.0054524099 -1.4031301 0 0 0 0
-0.215572 0.00545752 -1.40444 0 0 0 0
-0.21315099 0.00546542 -1.4064699 0 0 0 0
-0.210813 0.0054756599 -1.40911 0 0 0 0
-0.20670199 0.0055120601 -1.41848 0 0 0 0
-0.27637601 0.0082091996 -1.40837 0 0 0 0
-0.27294901 0.00818846 -1.40482 0 0 0 0
-0.26980501 0.0081759198 -1.40266 0 0 0 0
-0.266819 0.0081679197 -1.4012901 0 0 0 0
-0.26366901 0.0081547201 -1.39903 0 0 0 0
-0.260528 0.0081415102 -1.39676 0 0 0 0
-0.25740999 0.0081287399 -1.39457 0 0 0 0
-0.254356 0.0081177503 -1.3926899 0 0 0 0
-0.25136599 0.0081085898 -1.3911099 0 0 0 0
-0.24845099 0.0081016701 -1.38993 0 0 0 0
-0.245609 0.0080970097 -1.38913 0 0 0 0
-0.24286699 0.0080955597 -1.38888 0 0 0 0
-0.240234 0.0080977799 -1.3892601 0 0 0 0
-0.237672 0.0081024403 -1.3900599 0 0 0 0
-0.235153 0.0081087397 -1.39114 0 0 0 0
-0.23267201 0.0081164604 -1.39246 0 0 0 0
-0.23021799 0.0081253499 -1.39399 0 0 0 0
-0.22778501 0.00813518 -1.39568 0 0 0 0
-0.22536699 0.0081457999 -1.3975 0 0 0 0
-0.22295199 0.0081567997 -1.39938 0 0 0 0
-0.22054 0.0081681404 -1.40133 0 0 0 0
-0.218073 0.0081777396 -1.40298 0 0 0 0
-0.215537 0.0081849396 -1.40421 0 0 0 0
-0.213102 0.0081962198 -1.40615 0 0 0 0
-0.20850299 0.0082303695 -1.41201 0 0 0 0
-0.206588 0.0082635004 -1.41769 0 0 0 0
-0.27291799 0.0109167 -1.40466 0 0 0 0
-0.26979101 0.0109006 -1.40259 0 0 0 0
-0.26680699 0.0108901 -1.40123 0 0 0 0
-0.26363701 0.0108716 -1.39886 0 0 0 0
-0.260483 0.0108535 -1.39652 0 0 0 0
-0.25737301 0.0108368 -1.39437 0 0 0 0
-0.25432599 0.0108224 -1.39252 0 0 0 0
-0.25135401 0.0108109 -1.39105 0 0 0 0
-0.248448 0.0108021 -1.38991 0 0 0 0
-0.245617 0.0107964 -1.3891701 0 0 0 0
-0.24287599 0.0107945 -1.38893 0 0 0 0
-0.240233 0.010797 -1.38925 0 0 0 0
-0.237657 0.0108026 -1.38998 0 0 0 0
-0.235119 0.0108101 -1.39094 0 0 0 0
-0.232621 0.0108196 -1.3921601 0 0 0 0
-0.230156 0.0108309 -1.39361 0 0 0 0
-0.22772101 0.0108439 -1.39529 0 0 0 0
-0.225308 0.0108582 -1.39713 0 0 0 0
-0.222903 0.0108733 -1.39907 0 0 0 0
-0.220502 0.010889 -1.40109 0 0 0 0
-0.218053 0.0109026 -1.40285 0 0 0 0
-0.21551 0.0109119 -1.40404 0 0 0 0
-0.21307001 0.0109266 -1.4059401 0 0 0 0
-0.208437 0.0109704 -1.4115601 0 0 0 0
-0.206516 0.0110142 -1.4172 0 0 0 0
-0.27630001 0.0136782 -1.40798 0 0 0 0
-0.26978201 0.0136253 -1.40254 0 0 0 0
-0.26679599 0.013612 -1.40117 0 0 0 0
-0.26360101 0.0135877 -1.39867 0 0 0 0
-0.26042801 0.013564 -1.39623 0 0 0 0
-0.257312 0.0135427 -1.39404 0 0 0 0
-0.25426301 0.0135246 -1.39218 0 0 0 0
-0.25128701 0.0135101 -1.39068 0 0 0 0
-0.24838699 0.0134993 -1.38957 0 0 0 0
-0.245565 0.0134926 -1.38888 0 0 0 0
-0.242825 0.0134903 -1.38864 0 0 0 0
-0.240174 0.0134929 -1.3889101 0 0 0 0
-0.23758601 0.0134992 -1.38956 0 0 0 0
-0.235046 0.0135084 -1.3904999 0 0 0 0
-0.23254099 0.0135198 -1.39168 0 0 0 0
-0.230073 0.0135337 -1.39311 0 0 0 0
-0.22763801 0.0135499 -1.39477 0 0 0 0
-0.22523201 0.0135682 -1.39666 0 0 0 0
-0.222839 0.0135877 -1.39867 0 0 0 0
-0.22045501 0.0136083 -1.40079 0 0 0 0
-0.218023 0.0136264 -1.40265 0 0 0 0
-0.215481 0.013638 -1.40385 0 0 0 0
-0.210676 0.0136802 -1.40819 0 0 0 0
-0.20840301 0.0137108 -1.41133 0 0 0 0
-0.206478 0.0137652 -1.41694 0 0 0 0
-0.27630699 0.0164143 -1.40802 0 0 0 0
-0.26677501 0.0163332 -1.40106 0 0 0 0
-0.26354501 0.0163018 -1.39837 0 0 0 0
-0.26034099 0.016271301 -1.3957601 0 0 0 0
-0.257204 0.016244501 -1.39345 0 0 0 0
-0.25413999 0.0162217 -1.3915 0 0 0 0
-0.25116199 0.016204 -1.38998 0 0 0 0
-0.248265 0.016191199 -1.38888 0 0 0 0
-0.245446 0.0161833 -1.3882101 0 0 0 0
-0.242708 0.0161805 -1.38797 0 0 0 0
-0.240052 0.0161833 -1.3882101 0 0 0 0
-0.237459 0.0161904 -1.38881 0 0 0 0
-0.234916 0.016201099 -1.38973 0 0 0 0
-0.232418 0.0162152 -1.39094 0 0 0 0
-0.229958 0.016232399 -1.3924201 0 0 0 0
-0.227531 0.016252199 -1.39412 0 0 0 0
-0.225135 0.016274801 -1.39606 0 0 0 0
-0.222758 0.0162994 -1.39817 0 0 0 0
-0.220396 0.0163256 -1.40042 0 0 0 0
-0.213008 0.0163852 -1.40553 0 0 0 0
-0.21065199 0.0164144 -1.40803 0 0 0 0
-0.208382 0.0164512 -1.41119 0 0 0 0
-0.206595 0.016527601 -1.41774 0 0 0 0
-0.27633899 0.0191522 -1.40818 0 0 0 0
-0.27289701 0.019102801 -1.40455 0 0 0 0
-0.263464 0.0190129 -1.39794 0 0 0 0
-0.26020801 0.0189735 -1.39504 0 0 0 0
-0.25704101 0.018939899 -1.39257 0 0 0 0
-0.253959 0.018911799 -1.39051 0 0 0 0
-0.25097299 0.018890399 -1.38894 0 0 0 0
-0.248074 0.0188752 -1.38782 0 0 0 0
-0.24525701 0.0188659 -1.38714 0 0 0 0
-0.24251799 0.018862501 -1.3868901 0 0 0 0
-0.23986199 0.0188656 -1.38711 0 0 0 0
-0.237268 0.0188736 -1.3877 0 0 0 0
-0.23472799 0.018886101 -1.38862 0 0 0 0
-0.232235 0.018902799 -1.38985 0 0 0 0
-0.22978599 0.018923501 -1.3913701 0 0 0 0
-0.227378 0.018948199 -1.39318 0 0 0 0
-0.225008 0.018976601 -1.39527 0 0 0 0
-0.222657 0.019007299 -1.39753 0 0 0 0
-0.21539 0.019085201 -1.40326 0 0 0 0
-0.212973 0.0191129 -1.4053 0 0 0 0
-0.21063 0.019148201 -1.40789 0 0 0 0
-0.208373 0.019192301 -1.41113 0 0 0 0
-0.276384 0.021891801 -1.40841 0 0 0 0
-0.272892 0.021831401 -1.40453 0 0 0 0
-0.26966399 0.021791 -1.40193 0 0 0 0
-0.26665699 0.021767899 -1.40044 0 0 0 0
-0.26334301 0.021718999 -1.39729 0 0 0 0
-0.260028 0.021669 -1.39408 0 0 0 0
-0.25681901 0.0216268 -1.3913701 0 0 0 0
-0.25371 0.021592399 -1.38915 0 0 0 0
-0.25071299 0.0215667 -1.3875 0 0 0 0
-0.247811 0.0215488 -1.38635 0 0 0 0
-0.244996 0.021538099 -1.3856601 0 0 0 0
-0.242258 0.0215341 -1.3854001 0 0 0 0
-0.239603 0.021537401 -1.38561 0 0 0 0
-0.237012 0.0215466 -1.3862 0 0 0 0
-0.234478 0.0215612 -1.38714 0 0 0 0
-0.231996 0.021581 -1.38842 0 0 0 0
-0.229564 0.021606 -1.39003 0 0 0 0
-0.22717699 0.021635899 -1.39195 0 0 0 0
-0.224829 0.021670301 -1.39416 0 0 0 0
-0.22251301 0.0217086 -1.39663 0 0 0 0
-0.217811 0.0217811 -1.4012901 0 0 0 0
-0.215315 0.021803999 -1.40277 0 0 0 0
-0.21293101 0.021839 -1.40502 0 0 0 0
-0.210612 0.0218818 -1.40777 0 0 0 0
-0.20838299 0.0219351 -1.4112 0 0 0 0
-0.27648601 0.024637399 -1.40894 0 0 0 0
-0.27287999 0.0245592 -1.40447 0 0 0 0
-0.269575 0.0245068 -1.4014699 0 0 0 0
-0.26653701 0.024477899 -1.39981 0 0 0 0
-0.25978801 0.0243551 -1.39279 0 0 0 0
-0.25652501 0.0243023 -1.38977 0 0 0 0
-0.253389 0.024260599 -1.38739 0 0 0 0
-0.25038001 0.0242303 -1.3856601 0 0 0 0
-0.24747699 0.024209701 -1.38448 0 0 0 0
-0.244666 0.0241977 -1.38379 0 0 0 0
-0.241933 0.0241933 -1.38354 0 0 0 0
-0.239279 0.024196699 -1.3837301 0 0 0 0
-0.23669501 0.0242074 -1.3843499 0 0 0 0
-0.234172 0.0242247 -1.38533 0 0 0 0
-0.231709 0.0242486 -1.3867 0 0 0 0
-0.22930799 0.024279701 -1.3884799 0 0 0 0
-0.226955 0.0243166 -1.39059 0 0 0 0
-0.22464401 0.024359001 -1.39302 0 0 0 0
-0.220101 0.0244557 -1.39854 0 0 0 0
-0.21769799 0.024491001 -1.40056 0 0 0 0
-0.215242 0.0245212 -1.40229 0 0 0 0
-0.212892 0.024564501 -1.40476 0 0 0 0
-0.210605 0.0246161 -1.40772 0 0 0 0
-0.208433 0.024682799 -1.41153 0 0 0 0
-0.27667701 0.027393799 -1.40991 0 0 0 0
-0.27289 0.027288999 -1.40452 0 0 0 0
-0.26949501 0.0272217 -1.40105 0 0 0 0
-0.26639199 0.027182899 -1.39905 0 0 0 0
-0.25951499 0.027032901 -1.39133 0 0 0 0
-0.25618699 0.026967 -1.38794 0 0 0 0
-0.252996 0.026914399 -1.38524 0 0 0 0
-0.249966 0.0268781 -1.38336 0 0 0 0
-0.247062 0.026854601 -1.3821599 0 0 0 0
-0.244258 0.026841599 -1.38149 0 0 0 0
-0.24153399 0.026837099 -1.38126 0 0 0 0
-0.23888101 0.026840501 -1.38143 0 0 0 0
-0.23631001 0.026853399 -1.3821 0 0 0 0
-0.233812 0.026875 -1.3832099 0 0 0 0
-0.23138 0.0269046 -1.38473 0 0 0 0
-0.22901399 0.026942899 -1.3867 0 0 0 0
-0.226711 0.0269894 -1.3891 0 0 0 0
-0.224454 0.027042599 -1.39183 0 0 0 0
-0.219998 0.027160199 -1.39788 0 0 0 0
-0.21759 0.027198801 -1.39987 0 0 0 0
-0.215167 0.0272363 -1.4018 0 0 0 0
-0.21286 0.0272897 -1.40455 0 0 0 0
-0.210613 0.0273524 -1.4077801 0 0 0 0
-0.208561 0.0274422 -1.4124 0 0 0 0
-0.27293599 0.030022999 -1.40475 0 0 0 0
-0.26942 0.0299356 -1.40066 0 0 0 0
-0.266256 0.029885899 -1.39834 0 0 0 0
-0.26285699 0.029808501 -1.39472 0 0 0 0
-0.25926 0.0297068 -1.3899601 0 0 0 0
-0.25582001 0.029621299 -1.38596 0 0 0 0
-0.252563 0.0295553 -1.38287 0 0 0 0
-0.249476 0.0295079 -1.38065 0 0 0 0
-0.24654099 0.029477701 -1.37924 0 0 0 0
-0.243728 0.0294616 -1.37849 0 0 0 0
-0.241009 0.029456699 -1.37826 0 0 0 0
-0.23837601 0.0294622 -1.37852 0 0 0 0
-0.23582999 0.0294788 -1.37929 0 0 0 0
-0.23339701 0.029510001 -1.3807499 0 0 0 0
-0.23102599 0.0295498 -1.38261 0 0 0 0
-0.228726 0.029599801 -1.38495 0 0 0 0
-0.226485 0.029658699 -1.38771 0 0 0 0
-0.22428399 0.0297244 -1.39078 0 0 0 0
-0.222101 0.029794 -1.39404 0 0 0 0
-0.21991 0.0298643 -1.39733 0 0 0 0
-0.21749599 0.0299056 -1.39926 0 0 0 0
-0.215121 0.029953601 -1.40151 0 0 0 0
-0.212854 0.030017899 -1.40451 0 0 0 0
-0.21066099 0.0300944 -1.40809 0 0 0 0
-0.27306199 0.0327674 -1.4054 0 0 0 0
-0.26940501 0.032655202 -1.40058 0 0 0 0
-0.26615101 0.032589901 -1.3977799 0 0 0 0
-0.26275799 0.032506101 -1.39419 0 0 0 0
-0.25904199 0.032380302 -1.3888 0 0 0 0
-0.25546801 0.032269601 -1.38405 0 0 0 0
-0.252083 0.032180801 -1.38024 0 0 0 0
-0.24881101 0.0321046 -1.3769701 0 0 0 0
-0.24561401 0.032036599 -1.37405 0 0 0 0
-0.242625 0.031994499 -1.37225 0 0 0 0
-0.239831 0.0319774 -1.37152 0 0 0 0
-0.237441 0.0320145 -1.3731101 0 0 0 0
-0.235147 0.0320656 -1.3753 0 0 0 0
-0.23290101 0.032124199 -1.37781 0 0 0 0
-0.230672 0.032186799 -1.3805 0 0 0 0
-0.228506 0.032259598 -1.38362 0 0 0 0
-0.226319 0.032331198 -1.38669 0 0 0 0
-0.222021 0.032490801 -1.39354 0 0 0 0
-0.21984901 0.032570299 -1.39694 0 0 0 0
-0.21744099 0.032616202 -1.39891 0 0 0 0
-0.21511 0.032675002 -1.40143 0 0 0 0
-0.212889 0.0327521 -1.40474 0 0 0 0
-0.21077 0.0328472 -1.40882 0 0 0 0
-0.273386 0.035540201 -1.40707 0 0 0 0
-0.26947901 0.035386201 -1.40097 0 0 0 0
-0.266119 0.035301499 -1.39762 0 0 0 0
-0.26273 0.035211202 -1.39404 0 0 0 0
-0.25513101 0.034912601 -1.38222 0 0 0 0
-0.251378 0.034765001 -1.37638 0 0 0 0
-0.24726801 0.034564301 -1.36843 0 0 0 0
-0.243977 0.034474999 -1.36489 0 0 0 0
-0.241235 0.034462199 -1.36439 0 0 0 0
-0.23865201 0.034472 -1.3647799 0 0 0 0
-0.23636299 0.034524899 -1.36687 0 0 0 0
-0.234308 0.034613598 -1.37038 0 0 0 0
-0.232361 0.0347206 -1.37462 0 0 0 0
-0.23036499 0.034822699 -1.37866 0 0 0 0
-0.22829001 0.0349149 -1.38231 0 0 0 0
-0.226197 0.035006698 -1.38595 0 0 0 0
-0.22409999 0.035100002 -1.38964 0 0 0 0
-0.22198801 0.035193201 -1.39333 0 0 0 0
-0.21984801 0.035284299 -1.39694 0 0 0 0
-0.21746901 0.0353388 -1.3990901 0 0 0 0
-0.21516199 0.0354064 -1.40177 0 0 0 0
-0.212982 0.035496999 -1.40536 0 0 0 0
-0.21107399 0.0356359 -1.4108599 0 0 0 0
-0.26970401 0.038139999 -1.40214 0 0 0 0
-0.266231 0.038033001 -1.39821 0 0 0 0
-0.26282799 0.037933901 -1.39456 0 0 0 0
-0.25894001 0.037762102 -1.38825 0 0 0 0
-0.25505501 0.037586998 -1.3818099 0 0 0 0
-0.25102299 0.037386399 -1.37444 0 0 0 0
-0.246978 0.0371795 -1.36683 0 0 0 0
-0.243811 0.037101701 -1.36397 0 0 0 0
-0.24111401 0.037094399 -1.3637 0 0 0 0
-0.238535 0.0371054 -1.3641 0 0 0 0
-0.23621599 0.037157498 -1.36602 0 0 0 0
-0.234154 0.0372517 -1.36948 0 0 0 0
-0.23219299 0.037364401 -1.37363 0 0 0 0
-0.23022801 0.037478998 -1.37784 0 0 0 0
-0.22822 0.0375892 -1.3818901 0 0 0 0
-0.224097 0.0377995 -1.3896199 0 0 0 0
-0.222011 0.0379043 -1.39347 0 0 0 0
-0.219898 0.038007099 -1.39726 0 0 0 0
-0.217599 0.038079798 -1.39993 0 0 0 0
-0.215298 0.038154099 -1.40266 0 0 0 0
-0.213167 0.038260799 -1.40658 0 0 0 0
-0.27018401 0.040936999 -1.4046299 0 0 0 0
-0.266527 0.040794998 -1.39976 0 0 0 0
-0.263051 0.040677998 -1.39575 0 0 0 0
-0.25910601 0.0404853 -1.38914 0 0 0 0
-0.25516501 0.040289201 -1.38241 0 0 0 0
-0.25106299 0.040063199 -1.37465 0 0 0 0
-0.247105 0.0398557 -1.36753 0 0 0 0
-0.24391501 0.0397687 -1.36455 0 0 0 0
-0.241217 0.039760999 -1.36428 0 0 0 0
-0.23863401 0.039772298 -1.36467 0 0 0 0
-0.23628899 0.039824001 -1.3664401 0 0 0 0
-0.23418701 0.039918199 -1.36968 0 0 0 0
-0.232199 0.040034302 -1.37366 0 0 0 0
-0.230244 0.040158901 -1.3779401 0 0 0 0
-0.228257 0.040280599 -1.38211 0 0 0 0
-0.226218 0.040396102 -1.38608 0 0 0 0
-0.224158 0.040510401 -1.39 0 0 0 0
-0.222092 0.040626701 -1.39399 0 0 0 0
-0.220008 0.0407422 -1.3979501 0 0 0 0
-0.21783701 0.040844399 -1.4014601 0 0 0 0
-0.215542 0.0409256 -1.40424 0 0 0 0
-0.213608 0.0410784 -1.40949 0 0 0 0
-0.26704201 0.0435987 -1.40247 0 0 0 0
-0.26341799 0.0434504 -1.3977 0 0 0 0
-0.25941399 0.043235701 -1.39079 0 0 0 0
-0.25543001 0.043019801 -1.38384 0 0 0 0
-0.251367 0.042785902 -1.37632 0 0 0 0
-0.247462 0.042574201 -1.3695101 0 0 0 0
-0.244261 0.0424801 -1.36648 0 0 0 0
-0.241541 0.042468701 -1.36612 0 0 0 0
-0.238947 0.0424794 -1.36646 0 0 0 0
-0.236531 0.042522501 -1.3678499 0 0 0 0
-0.23435999 0.042610802 -1.37069 0 0 0 0
-0.232324 0.042726301 -1.3744 0 0 0 0
-0.230361 0.0428578 -1.37863 0 0 0 0
-0.226346 0.043113399 -1.38686 0 0 0 0
-0.22428299 0.043235201 -1.39077 0 0 0 0
-0.222239 0.043363702 -1.39491 0 0 0 0
-0.22018 0.043492399 -1.39905 0 0 0 0
-0.218109 0.043621801 -1.40321 0 0 0 0
-0.215992 0.0437451 -1.40718 0 0 0 0
-0.26400799 0.046269499 -1.40083 0 0 0 0
-0.25987801 0.046020102 -1.39328 0 0 0 0
-0.255862 0.0457859 -1.3861901 0 0 0 0
-0.248061 0.045344502 -1.37282 0 0 0 0
-0.244882 0.045249902 -1.36996 0 0 0 0
-0.24212 0.045231201 -1.36939 0 0 0 0
-0.23950399 0.045239601 -1.36965 0 0 0 0
-0.23701499 0.0452726 -1.3706501 0 0 0 0
-0.234731 0.045345802 -1.37286 0 0 0 0
-0.232601 0.045450699 -1.37604 0 0 0 0
-0.228578 0.045715701 -1.38406 0 0 0 0
-0.226547 0.045848802 -1.38809 0 0 0 0
-0.22449601 0.045981001 -1.39209 0 0 0 0
-0.22247501 0.046122901 -1.39639 0 0 0 0
-0.220461 0.046269599 -1.40083 0 0 0 0
-0.21858899 0.046450298 -1.4062999 0 0 0 0
-0.26066801 0.048875298 -1.3975101 0 0 0 0
-0.25648999 0.048597999 -1.38958 0 0 0 0
-0.25256699 0.048363902 -1.38289 0 0 0 0
-0.245749 0.048081402 -1.37481 0 0 0 0
-0.242924 0.048050899 -1.37394 0 0 0 0
-0.24028499 0.048056901 -1.37411 0 0 0 0
-0.237745 0.048083302 -1.3748699 0 0 0 0
-0.23310301 0.048228301 -1.37901 0 0 0 0
-0.230983 0.048345301 -1.38236 0 0 0 0
-0.228874 0.048467498 -1.38585 0 0 0 0
-0.226895 0.048620299 -1.39022 0 0 0 0
-0.22485401 0.048763402 -1.39431 0 0 0 0
-0.222885 0.048925899 -1.39896 0 0 0 0
-0.22115199 0.049144901 -1.40522 0 0 0 0
-0.25762099 0.0515242 -1.39571 0 0 0 0
-0.25358099 0.051255699 -1.38844 0 0 0 0
-0.25002199 0.051079798 -1.38368 0 0 0 0
-0.246857 0.050981399 -1.3810101 0 0 0 0
-0.243963 0.050937299 -1.37982 0 0 0 0
-0.24126901 0.050934501 -1.37974 0 0 0 0
-0.23868001 0.0509541 -1.38027 0 0 0 0
-0.23621599 0.051001199 -1.38155 0 0 0 0
-0.233878 0.0510768 -1.38359 0 0 0 0
-0.231647 0.0511779 -1.38633 0 0 0 0
-0.229504 0.051300801 -1.38966 0 0 0 0
-0.227469 0.051451299 -1.3937401 0 0 0 0
-0.225521 0.0516253 -1.39845 0 0 0 0
-0.223974 0.0518963 -1.40579 0 0 0 0
-0.25574699 0.054414202 -1.4003 0 0 0 0
-0.25156501 0.0541001 -1.39222 0 0 0 0
-0.248293 0.0539767 -1.38904 0 0 0 0
-0.24529199 0.0539102 -1.3873301 0 0 0 0
-0.242515 0.053892199 -1.38687 0 0 0 0
-0.239884 0.0539065 -1.3872401 0 0 0 0
-0.23735601 0.053944498 -1.3882101 0 0 0 0
-0.234964 0.054014601 -1.39002 0 0 0 0
-0.23270801 0.054118201 -1.39268 0 0 0 0
-0.23055699 0.054248702 -1.39604 0 0 0 0
-0.228735 0.054460801 -1.4015 0 0 0 0
-0.247871 0.057201002 -1.40192 0 0 0 0
-0.24468599 0.0570933 -1.39928 0 0 0 0
-0.241969 0.057093799 -1.39929 0 0 0 0
-0.239453 0.057142202 -1.40048 0 0 0 0
-0.237167 0.057247099 -1.4030499 0 0 0 0
