# .PCD v0.7 - Point Cloud Data file format
VERSION 0.7
FIELDS x y z normal_x normal_y normal_z curvature
SIZE 4 4 4 4 4 4 4
TYPE F F F F F F F
COUNT 1 1 1 1 1 1 1
WIDTH 1015
HEIGHT 1
VIEWPOINT 0 0 0 1 0 0 0
POINTS 1015
DATA ascii
0.154829 -0.47263497 -1.497882 0 0 0 0
0.16366801 -0.47236401 -1.49887 0 0 0 0
0.171946 -0.47212201 -1.4999501 0 0 0 0
0.0057902401 -0.46321899 -1.49006 0 0 0 0
0.14610666 -0.46348369 -1.4940249 0 0 0 0
0.16565689 -0.46500194 -1.4957922 0 0 0 0
0.17455012 -0.46546745 -1.49729 0 0 0 0
0.18438745 -0.46485022 -1.49843 0 0 0 0
0.19516401 -0.46314904 -1.49921 0 0 0 0
0.20389165 -0.46021101 -1.4991299 0 0 0 0
-0.0029128799 -0.45149699 -1.49921 0 0 0 0
0.00116508 -0.45360416 -1.4984701 0 0 0 0
0.12519367 -0.45127833 -1.49848 0 0 0 0
0.13392633 -0.45127437 -1.4984699 0 0 0 0
0.14298266 -0.45696867 -1.4917134 0 0 0 0
0.15582919 -0.45705861 -1.490746 0 0 0 0
0.16522133 -0.45653138 -1.4918599 0 0 0 0
0.17505817 -0.4550457 -1.4926019 0 0 0 0
0.1852726 -0.45621267 -1.494611 0 0 0 0
0.19475244 -0.45636076 -1.4960501 0 0 0 0
0.20537454 -0.45383328 -1.4964291 0 0 0 0
0.21497363 -0.45359203 -1.4977025 0 0 0 0
0.224213 -0.45279315 -1.4986733 0 0 0 0
0.23305933 -0.45155099 -1.49939 0 0 0 0
-0.0029086398 -0.44502267 -1.4970201 0 0 0 0
0.0025418014 -0.44411498 -1.4951913 0 0 0 0
0.12493932 -0.44455302 -1.4954423 0 0 0 0
0.13537115 -0.44476509 -1.4946561 0 0 0 0
0.17953999 -0.44885001 -1.49042 0 0 0 0
0.18614575 -0.44834352 -1.4911401 0 0 0 0
0.19527362 -0.44670451 -1.4917101 0 0 0 0
0.20498081 -0.44475642 -1.492222 0 0 0 0
0.21469533 -0.44389725 -1.4932356 0 0 0 0
0.22511233 -0.44441542 -1.4949751 0 0 0 0
0.23555321 -0.44493464 -1.4967221 0 0 0 0
0.24359567 -0.44448838 -1.49849 0 0 0 0
-0.0043660766 -0.43495283 -1.4974133 0 0 0 0
0.003482857 -0.4350411 -1.493709 0 0 0 0
0.12470277 -0.43501112 -1.4926122 0 0 0 0
0.13483433 -0.43495092 -1.4924059 0 0 0 0
0.215727 -0.4372445 -1.49034 0 0 0 0
0.22517388 -0.43627328 -1.4912628 0 0 0 0
0.23521239 -0.43527126 -1.4922576 0 0 0 0
0.24397856 -0.43567389 -1.4948833 0 0 0 0
0.0043546371 -0.42524248 -1.4939606 0 0 0 0
0.0123217 -0.42257851 -1.4922374 0 0 0 0
0.11687133 -0.42401946 -1.4913589 0 0 0 0
0.12461074 -0.42454621 -1.4915091 0 0 0 0
0.13472667 -0.42446184 -1.4912132 0 0 0 0
0.1419445 -0.42438576 -1.4909475 0 0 0 0
0.244599 -0.42578101 -1.4920287 0 0 0 0
-0.0029109525 -0.41480851 -1.4982151 0 0 0 0
0.0042626946 -0.41447636 -1.4959656 0 0 0 0
0.0139447 -0.41402286 -1.495378 0 0 0 0
0.107242 -0.411576 -1.49176 0 0 0 0
0.25025901 -0.41758251 -1.49772 0 0 0 0
0.0054981476 -0.40626344 -1.4983066 0 0 0 0
0.014972313 -0.40677243 -1.49848 0 0 0 0
0.024205351 -0.40474364 -1.4950885 0 0 0 0
0.0318994 -0.40019199 -1.49255 0 0 0 0
0.097714804 -0.40149999 -1.4938201 0 0 0 0
0.10480528 -0.40469638 -1.49459 0 0 0 0
0.11472905 -0.4051815 -1.4949137 0 0 0 0
0.12485825 -0.40506235 -1.4944741 0 0 0 0
0.13498063 -0.40494028 -1.4940256 0 0 0 0
0.14511615 -0.40487239 -1.4937743 0 0 0 0
0.15302822 -0.40335068 -1.4923177 0 0 0 0
0.24393885 -0.40573016 -1.4946373 0 0 0 0
0.035298325 -0.39618626 -1.4962031 0 0 0 0
0.044532813 -0.39241391 -1.4948434 0 0 0 0
0.055054832 -0.39118433 -1.4913734 0 0 0 0
0.065167524 -0.39100248 -1.49068 0 0 0 0
0.075404167 -0.39151466 -1.4926333 0 0 0 0
0.094349787 -0.39677769 -1.4966954 0 0 0 0
0.10482367 -0.39745584 -1.4986349 0 0 0 0
0.11547767 -0.39689243 -1.4983422 0 0 0 0
0.12518278 -0.395926 -1.4983567 0 0 0 0
0.13532458 -0.39578712 -1.4978317 0 0 0 0
0.14547832 -0.39569977 -1.4975011 0 0 0 0
0.15583135 -0.39500684 -1.4963592 0 0 0 0
0.16365087 -0.39261937 -1.4940951 0 0 0 0
0.228945 -0.39123401 -1.49156 0 0 0 0
0.23532876 -0.39475161 -1.4953051 0 0 0 0
0.0494457 -0.38974899 -1.49699 0 0 0 0
0.055274177 -0.38837752 -1.497315 0 0 0 0
0.065429658 -0.38821101 -1.4966762 0 0 0 0
0.074919276 -0.38914326 -1.4974651 0 0 0 0
0.16726625 -0.38834924 -1.497205 0 0 0 0
0.1745849 -0.38596052 -1.4948466 0 0 0 0
0.2064424 -0.38156658 -1.492294 0 0 0 0
0.21542813 -0.38270214 -1.4954458 0 0 0 0
0.22446325 -0.38681364 -1.4954925 0 0 0 0
0.21258 -0.378566 -1.49878 0 0 0 0
0.00866793 -0.47095701 -1.48707 0 0 0 0
0.01155945 -0.47538447 -1.48736 0 0 0 0
0.115577 -0.473867 -1.4871401 0 0 0 0
0.00864005 -0.46368536 -1.4822899 0 0 0 0
0.0115131 -0.46772051 -1.481395 0 0 0 0
0.1169672 -0.4655636 -1.482774 0 0 0 0
0.14551868 -0.45293984 -1.487995 0 0 0 0
0.15409143 -0.45235783 -1.4883472 0 0 0 0
0.164961 -0.4514707 -1.4895101 0 0 0 0
0.0057753031 -0.44758263 -1.4862199 0 0 0 0
0.14524081 -0.44385812 -1.4842846 0 0 0 0
0.15522511 -0.44461426 -1.4849701 0 0 0 0
0.16461533 -0.44475058 -1.4863877 0 0 0 0
0.1745072 -0.44494092 -1.4879036 0 0 0 0
0.1845528 -0.44373637 -1.4888041 0 0 0 0
0.192454 -0.44278949 -1.4895151 0 0 0 0
0.0086550033 -0.43563032 -1.4848566 0 0 0 0
0.11661249 -0.434773 -1.481905 0 0 0 0
0.14372133 -0.43501231 -1.482739 0 0 0 0
0.15599141 -0.43631583 -1.481288 0 0 0 0
0.16556558 -0.434791 -1.481975 0 0 0 0
0.1752775 -0.43559971 -1.483747 0 0 0 0
0.1846789 -0.43572712 -1.4851633 0 0 0 0
0.1950049 -0.43623278 -1.4868865 0 0 0 0
0.20520943 -0.43450743 -1.4875733 0 0 0 0
0.21493167 -0.43275487 -1.4881767 0 0 0 0
0.22565067 -0.43104902 -1.4889466 0 0 0 0
0.231589 -0.431335 -1.48993 0 0 0 0
0.01384062 -0.424496 -1.4842421 0 0 0 0
0.10943 -0.420443 -1.48215 0 0 0 0
0.11324625 -0.42557025 -1.4849875 0 0 0 0
0.1446656 -0.42477417 -1.483214 0 0 0 0
0.17548032 -0.42863068 -1.4805933 0 0 0 0
0.18502256 -0.42719585 -1.4813143 0 0 0 0
0.1952966 -0.42660007 -1.482527 0 0 0 0
0.20456599 -0.4245013 -1.4829067 0 0 0 0
0.21482533 -0.42388323 -1.4841075 0 0 0 0
0.22517779 -0.42437425 -1.4858266 0 0 0 0
0.23408921 -0.42482913 -1.487421 0 0 0 0
0.240078 -0.42375201 -1.4887149 0 0 0 0
0.01733605 -0.41750699 -1.4870851 0 0 0 0
0.021647548 -0.41274899 -1.4855651 0 0 0 0
0.10634684 -0.41479766 -1.4860133 0 0 0 0
0.147733 -0.41653275 -1.4836226 0 0 0 0
0.2056465 -0.4184835 -1.48032 0 0 0 0
0.21653101 -0.41651678 -1.4809875 0 0 0 0
0.22497557 -0.4154034 -1.4817801 0 0 0 0
0.23546892 -0.41500479 -1.484887 0 0 0 0
0.243086 -0.41671863 -1.4894266 0 0 0 0
0.033647485 -0.40281233 -1.4844016 0 0 0 0
0.040306099 -0.40018201 -1.48177 0 0 0 0
0.088319771 -0.40127733 -1.4822799 0 0 0 0
0.095586151 -0.40470374 -1.4851762 0 0 0 0
0.10109051 -0.408694 -1.48656 0 0 0 0
0.15571515 -0.40514717 -1.4841501 0 0 0 0
0.227182 -0.40547699 -1.48008 0 0 0 0
0.23401353 -0.40524623 -1.484103 0 0 0 0
0.03615785 -0.39919451 -1.4888251 0 0 0 0
0.16536961 -0.39631087 -1.4834573 0 0 0 0
0.218724 -0.39140099 -1.48123 0 0 0 0
0.2325595 -0.39722502 -1.4868724 0 0 0 0
0.1765918 -0.38838661 -1.485112 0 0 0 0
0.20559986 -0.38565382 -1.4844385 0 0 0 0
0.21491177 -0.38715911 -1.4858233 0 0 0 0
0.22235399 -0.389842 -1.4862601 0 0 0 0
-0.39344397 -0.095468007 -1.4889599 0 0 0 0
0.011489 -0.46243301 -1.4783 0 0 0 0
0.11491 -0.462511 -1.47855 0 0 0 0
0.012172875 -0.45476198 -1.4743675 0 0 0 0
0.11620966 -0.45479167 -1.4768 0 0 0 0
0.0086058527 -0.44463468 -1.4764233 0 0 0 0
0.012664299 -0.44533569 -1.4719671 0 0 0 0
0.1152695 -0.44531351 -1.4739288 0 0 0 0
0.0086212298 -0.43968299 -1.4790601 0 0 0 0
0.012406466 -0.43477485 -1.4738116 0 0 0 0
0.114574 -0.43537003 -1.4741859 0 0 0 0
0.147982 -0.43245423 -1.4789125 0 0 0 0
0.1544555 -0.43175724 -1.478985 0 0 0 0
0.160998 -0.43124601 -1.4797 0 0 0 0
0.015765216 -0.42568699 -1.4753866 0 0 0 0
0.0200135 -0.42171198 -1.4715099 0 0 0 0
0.1080725 -0.42298052 -1.4734449 0 0 0 0
0.111752 -0.4283815 -1.47479 0 0 0 0
0.1481498 -0.42550284 -1.477722 0 0 0 0
0.15485768 -0.42442545 -1.4759679 0 0 0 0
0.16504942 -0.42482209 -1.4773468 0 0 0 0
0.17520617 -0.42365298 -1.4782801 0 0 0 0
0.1853765 -0.42248327 -1.4792124 0 0 0 0
0.024371359 -0.41434819 -1.4758379 0 0 0 0
0.097375549 -0.41097999 -1.47404 0 0 0 0
0.10239985 -0.41491887 -1.47569 0 0 0 0
0.14945434 -0.41674733 -1.47926 0 0 0 0
0.15455028 -0.41465738 -1.4755492 0 0 0 0
0.16457309 -0.41501048 -1.4730867 0 0 0 0
0.174751 -0.41539168 -1.4744389 0 0 0 0
0.18499094 -0.41587019 -1.4761357 0 0 0 0
0.1952531 -0.41634947 -1.4778377 0 0 0 0
0.20490575 -0.41320524 -1.4777955 0 0 0 0
0.2149014 -0.4119904 -1.4786861 0 0 0 0
0.22278199 -0.41106802 -1.4795101 0 0 0 0
0.035337288 -0.40622878 -1.4747077 0 0 0 0
0.043783102 -0.40224987 -1.474283 0 0 0 0
0.054336201 -0.40037835 -1.47191 0 0 0 0
0.064306796 -0.40012974 -1.4709926 0 0 0 0
0.074391335 -0.40056267 -1.4725866 0 0 0 0
0.0928334 -0.40743035 -1.474674 0 0 0 0
0.15717874 -0.40766025 -1.47758 0 0 0 0
0.16461876 -0.40511018 -1.4735289 0 0 0 0
0.17478338 -0.40431091 -1.4710094 0 0 0 0
0.18483171 -0.40499696 -1.4716113 0 0 0 0
0.19458576 -0.40491155 -1.4727842 0 0 0 0
0.20474684 -0.40376523 -1.4738283 0 0 0 0
0.21508522 -0.40435922 -1.4759978 0 0 0 0
0.22323786 -0.4050276 -1.4784415 0 0 0 0
0.047383249 -0.39917248 -1.478035 0 0 0 0
0.055105723 -0.39779142 -1.477176 0 0 0 0
0.06456273 -0.39741588 -1.47685 0 0 0 0
0.073912002 -0.39826399 -1.47733 0 0 0 0
0.080448598 -0.39937001 -1.47876 0 0 0 0
0.16724551 -0.39837924 -1.4777524 0 0 0 0
0.17485145 -0.39556575 -1.4753078 0 0 0 0
0.18458569 -0.3940939 -1.4735918 0 0 0 0
0.19453833 -0.39479655 -1.4724288 0 0 0 0
0.20485795 -0.39395168 -1.4746276 0 0 0 0
0.21499781 -0.39502823 -1.4771926 0 0 0 0
0.22218335 -0.39839733 -1.4787101 0 0 0 0
0.20405467 -0.38799 -1.4791933 0 0 0 0
-0.39343366 -0.094768636 -1.4780499 0 0 0 0
-0.393433 -0.084717378 -1.47805 0 0 0 0
-0.393433 -0.074666135 -1.4780499 0 0 0 0
0.014223534 -0.45514831 -1.4641166 0 0 0 0
0.110941 -0.450872 -1.4640801 0 0 0 0
0.1081435 -0.4425315 -1.46472 0 0 0 0
0.11137649 -0.44407851 -1.46983 0 0 0 0
0.017673749 -0.43477449 -1.4673491 0 0 0 0
0.023684433 -0.43296531 -1.46284 0 0 0 0
0.019006534 -0.42671499 -1.4674101 0 0 0 0
0.031218767 -0.42287168 -1.4607034 0 0 0 0
0.097195663 -0.42348933 -1.4617445 0 0 0 0
0.10443044 -0.42594063 -1.4658424 0 0 0 0
0.026602881 -0.41712233 -1.4671016 0 0 0 0
0.087030202 -0.41244602 -1.4606301 0 0 0 0
0.09456829 -0.4148159 -1.464644 0 0 0 0
0.102753 -0.41957599 -1.46904 0 0 0 0
0.038454503 -0.40876299 -1.4660875 0 0 0 0
0.045550603 -0.40614831 -1.4652311 0 0 0 0
0.055484414 -0.40404639 -1.4644891 0 0 0 0
0.065412246 -0.403844 -1.4637555 0 0 0 0
0.075420782 -0.40485021 -1.464825 0 0 0 0
-0.39342299 -0.065570496 -1.4673001 0 0 0 0
-0.39342299 -0.055592351 -1.4673001 0 0 0 0
-0.39342299 -0.045614202 -1.4673001 0 0 0 0
-0.37729999 0.198579 -1.46007 0 0 0 0
-0.32623699 0.198579 -1.46007 0 0 0 0
-0.27659249 0.198579 -1.46007 0 0 0 0
-0.22694799 0.198579 -1.46007 0 0 0 0
-0.17588399 0.198579 -1.46007 0 0 0 0
-0.12623949 0.198579 -1.46007 0 0 0 0
-0.0765948 0.198579 -1.46007 0 0 0 0
-0.025531599 0.198579 -1.46007 0 0 0 0
0.0226948 0.198579 -1.46007 0 0 0 0
0.073757902 0.198579 -1.46007 0 0 0 0
0.1234025 0.198579 -1.46007 0 0 0 0
0.17304701 0.198579 -1.46007 0 0 0 0
0.22411101 0.198579 -1.46007 0 0 0 0
0.27375549 0.198579 -1.46007 0 0 0 0
0.32339999 0.198579 -1.46007 0 0 0 0
0.37446299 0.198579 -1.46007 0 0 0 0
0.01410705 -0.46129951 -1.4521301 0 0 0 0
0.109933 -0.45382699 -1.45078 0 0 0 0
0.110314 -0.45256999 -1.45581 0 0 0 0
0.1065 -0.44390297 -1.4552168 0 0 0 0
0.025798287 -0.43471599 -1.4552298 0 0 0 0
0.0310008 -0.43119299 -1.4505 0 0 0 0
0.035221044 -0.42522708 -1.4555272 0 0 0 0
0.044457249 -0.42129225 -1.4528099 0 0 0 0
0.077555746 -0.4202075 -1.4514999 0 0 0 0
0.093012914 -0.42650887 -1.4561737 0 0 0 0
0.04531632 -0.41493395 -1.4577484 0 0 0 0
0.054893766 -0.41469344 -1.4554501 0 0 0 0
0.084377185 -0.416215 -1.4583733 0 0 0 0
0.090750001 -0.41971901 -1.4596 0 0 0 0
0.0482205 -0.408456 -1.4599 0 0 0 0
0.055259351 -0.40807524 -1.4585351 0 0 0 0
0.065158762 -0.40795001 -1.4580833 0 0 0 0
0.073699467 -0.408178 -1.4589 0 0 0 0
-0.39341199 -0.025472701 -1.45671 0 0 0 0
-0.37515664 0.19844501 -1.4590868 0 0 0 0
-0.326116 0.19850549 -1.45953 0 0 0 0
-0.272102 0.19840699 -1.45881 0 0 0 0
-0.22488999 0.198431 -1.4589866 0 0 0 0
-0.1758195 0.19850551 -1.45953 0 0 0 0
-0.121869 0.198392 -1.45869 0 0 0 0
-0.074646063 0.19842233 -1.4589167 0 0 0 0
-0.025523249 0.19850701 -1.459545 0 0 0 0
0.026934899 0.1984725 -1.45929 0 0 0 0
0.075585403 0.19841667 -1.4588766 0 0 0 0
0.127562 0.19843 -1.45898 0 0 0 0
0.17483167 0.19845867 -1.4591833 0 0 0 0
0.225811 0.198413 -1.4588532 0 0 0 0
0.27778101 0.198415 -1.4588701 0 0 0 0
0.32508066 0.198451 -1.4591299 0 0 0 0
0.37603664 0.19841266 -1.4588499 0 0 0 0
0.014027067 -0.46569434 -1.4438967 0 0 0 0
0.112222 -0.46572301 -1.44397 0 0 0 0
0.10835233 -0.45395365 -1.4422299 0 0 0 0
0.10439851 -0.44474053 -1.4456884 0 0 0 0
0.027156567 -0.43733001 -1.44595 0 0 0 0
0.033193514 -0.43247095 -1.4438 0 0 0 0
0.03821462 -0.4276658 -1.4462141 0 0 0 0
0.044915535 -0.42481816 -1.4448144 0 0 0 0
0.074837461 -0.42282388 -1.4443879 0 0 0 0
0.071817301 -0.41963601 -1.44952 0 0 0 0
0.0139171 -0.47178751 -1.432575 0 0 0 0
0.11145 -0.466694 -1.4340301 0 0 0 0
0.1072455 -0.45544201 -1.4336925 0 0 0 0
0.025087172 -0.44521657 -1.4347258 0 0 0 0
0.0279755 -0.43921599 -1.43985 0 0 0 0
0.034980971 -0.4352439 -1.4351482 0 0 0 0
0.044503804 -0.43115035 -1.43165 0 0 0 0
0.045208301 -0.42864838 -1.436314 0 0 0 0
0.074947096 -0.427019 -1.4353038 0 0 0 0
0.081869632 -0.42888436 -1.4364833 0 0 0 0
-0.39258099 -0.126211 -1.43555 0 0 0 0
0.107965 -0.46092552 -1.4248099 0 0 0 0
0.11059751 -0.46865451 -1.4230599 0 0 0 0
0.1037505 -0.45372999 -1.4239451 0 0 0 0
0.027014926 -0.44678676 -1.426075 0 0 0 0
0.032284383 -0.44233131 -1.4243684 0 0 0 0
0.036932465 -0.43813467 -1.4257232 0 0 0 0
0.045565184 -0.43375114 -1.4252499 0 0 0 0
0.075076394 -0.43210453 -1.4244913 0 0 0 0
0.072114497 -0.42991301 -1.4275399 0 0 0 0
0.109656 -0.471522 -1.4109499 0 0 0 0
0.110026 -0.470359 -1.4157 0 0 0 0
0.018554175 -0.465267 -1.4148626 0 0 0 0
0.0219339 -0.46061301 -1.4111201 0 0 0 0
0.106244 -0.46251765 -1.4141535 0 0 0 0
0.027570801 -0.44940501 -1.4190201 0 0 0 0
0.034242708 -0.44516662 -1.4151193 0 0 0 0
0.042089466 -0.44103798 -1.4128333 0 0 0 0
0.046459842 -0.43771645 -1.4159067 0 0 0 0
0.075977191 -0.43685731 -1.4149274 0 0 0 0
-0.3924672 -0.13631621 -1.414534 0 0 0 0
0.216778 0.0082320701 -1.4123 0 0 0 0
0.2235595 0.001370565 -1.411795 0 0 0 0
0.214059 0.015092401 -1.412465 0 0 0 0
-0.38228568 0.17651065 -1.4121233 0 0 0 0
-0.37588266 0.17763799 -1.4138284 0 0 0 0
-0.33203799 0.17699499 -1.4123449 0 0 0 0
-0.32619527 0.17742372 -1.4142028 0 0 0 0
-0.28135526 0.177048 -1.41277 0 0 0 0
-0.2753686 0.17753179 -1.4144399 0 0 0 0
-0.23186925 0.17698975 -1.4123051 0 0 0 0
-0.22591019 0.17753878 -1.4144939 0 0 0 0
-0.181234 0.1771145 -1.4133 0 0 0 0
-0.17589301 0.17726617 -1.4145099 0 0 0 0
-0.13175251 0.17704201 -1.41272 0 0 0 0
-0.12560456 0.17741357 -1.4141214 0 0 0 0
-0.076154388 0.17742971 -1.41425 0 0 0 0
-0.0311075 0.17750233 -1.4127501 0 0 0 0
-0.024733899 0.17725299 -1.4144067 0 0 0 0
0.019224901 0.17714301 -1.41353 0 0 0 0
0.024734015 0.17726482 -1.4145001 0 0 0 0
0.068615399 0.17839999 -1.4126 0 0 0 0
0.074965529 0.17740856 -1.4140843 0 0 0 0
0.12500849 0.17721114 -1.4140711 0 0 0 0
0.17448039 0.17722836 -1.4142088 0 0 0 0
0.219653 0.178468 -1.4131401 0 0 0 0
0.22534533 0.17725348 -1.4144083 0 0 0 0
0.23029301 0.1768315 -1.4110451 0 0 0 0
0.26901299 0.178427 -1.41282 0 0 0 0
0.27606636 0.177178 -1.4138074 0 0 0 0
0.32555586 0.17720173 -1.4139962 0 0 0 0
0.37559488 0.17739685 -1.4139887 0 0 0 0
0.380932 0.175393 -1.4105 0 0 0 0
0.1119985 -0.48213649 -1.4059401 0 0 0 0
0.017047673 -0.4739705 -1.4039999 0 0 0 0
0.109109 -0.4732585 -1.4039099 0 0 0 0
0.019114949 -0.46831548 -1.40545 0 0 0 0
0.022505851 -0.46308401 -1.4040799 0 0 0 0
0.10460017 -0.46432385 -1.4043865 0 0 0 0
0.031400975 -0.45192075 -1.4054124 0 0 0 0
0.036284383 -0.44792241 -1.4057285 0 0 0 0
0.045034889 -0.44352338 -1.4047742 0 0 0 0
0.076104879 -0.44176134 -1.4044721 0 0 0 0
0.071111053 -0.438972 -1.407675 0 0 0 0
-0.393365 -0.13521925 -1.40596 0 0 0 0
-0.393365 -0.1242925 -1.40596 0 0 0 0
0.23113599 -0.0027353652 -1.40784 0 0 0 0
0.21888199 0.0068383254 -1.40818 0 0 0 0
0.22512423 0.0036339229 -1.4035144 0 0 0 0
0.231408 0 -1.4012001 0 0 0 0
0.21631238 0.015011425 -1.4048387 0 0 0 0
0.22039101 0.0108835 -1.40039 0 0 0 0
0.28119349 0.015012749 -1.4051 0 0 0 0
0.2136265 0.024998583 -1.4036235 0 0 0 0
0.28328049 0.025875401 -1.4019151 0 0 0 0
0.21249533 0.0354154 -1.4021434 0 0 0 0
0.21257125 0.044969101 -1.4026499 0 0 0 0
0.21504401 0.0571636 -1.401 0 0 0 0
0.111085 -0.4836235 -1.394475 0 0 0 0
0.01789044 -0.47603178 -1.3952481 0 0 0 0
0.021626201 -0.47036999 -1.39133 0 0 0 0
0.10747233 -0.47413766 -1.3944567 0 0 0 0
0.029158751 -0.45842025 -1.3961051 0 0 0 0
0.035240069 -0.453612 -1.3952267 0 0 0 0
0.04189045 -0.45134449 -1.39101 0 0 0 0
0.045271348 -0.44784951 -1.395287 0 0 0 0
0.074429817 -0.44559374 -1.39533 0 0 0 0
-0.39250961 -0.14529081 -1.3951499 0 0 0 0
-0.393356 -0.13428351 -1.39623 0 0 0 0
-0.393356 -0.124789 -1.3962301 0 0 0 0
-0.393356 -0.115294 -1.39623 0 0 0 0
-0.393356 -0.10444275 -1.39623 0 0 0 0
-0.39335534 -0.094947934 -1.3962301 0 0 0 0
-0.39335501 -0.085453101 -1.39623 0 0 0 0
0.226109 0.0074690674 -1.397895 0 0 0 0
0.23051135 0.0054209004 -1.3957634 0 0 0 0
0.21903934 0.018102666 -1.3975567 0 0 0 0
0.22516206 0.014443247 -1.394012 0 0 0 0
0.27644399 0.0189717 -1.39491 0 0 0 0
0.28012201 0.019037399 -1.39974 0 0 0 0
0.21757369 0.026315158 -1.3962891 0 0 0 0
0.22348277 0.025231501 -1.3914077 0 0 0 0
0.27609375 0.025712484 -1.3931242 0 0 0 0
0.28272301 0.029903401 -1.39916 0 0 0 0
0.216888 0.03524451 -1.3953733 0 0 0 0
0.2226626 0.03458856 -1.390782 0 0 0 0
0.27665958 0.034775786 -1.3920871 0 0 0 0
0.28242469 0.035302434 -1.3976799 0 0 0 0
0.21682574 0.044720937 -1.3949751 0 0 0 0
0.22155124 0.0445797 -1.39059 0 0 0 0
0.27741641 0.044046588 -1.3920115 0 0 0 0
0.28229725 0.044787724 -1.3970499 0 0 0 0
0.21731751 0.055006772 -1.394653 0 0 0 0
0.2787255 0.055475127 -1.392765 0 0 0 0
0.28242901 0.051597599 -1.3977 0 0 0 0
0.21899025 0.064410321 -1.3958 0 0 0 0
0.2216635 0.0662295 -1.391295 0 0 0 0
0.27697265 0.064955667 -1.3930134 0 0 0 0
0.2248345 0.07246305 -1.3941975 0 0 0 0
0.27309299 0.070301197 -1.3916399 0 0 0 0
0.23542701 0.081181601 -1.39276 0 0 0 0
0.0168144 -0.483632 -1.3847976 0 0 0 0
0.107277 -0.48006499 -1.38034 0 0 0 0
0.11029451 -0.48556399 -1.384555 0 0 0 0
0.0188496 -0.47796953 -1.3859351 0 0 0 0
0.022191174 -0.47274923 -1.384445 0 0 0 0
0.105416 -0.47458753 -1.3852299 0 0 0 0
0.032268003 -0.46116149 -1.383975 0 0 0 0
0.035766087 -0.45767829 -1.3856485 0 0 0 0
0.044385817 -0.45327291 -1.3845316 0 0 0 0
0.076342359 -0.45159277 -1.3835 0 0 0 0
0.073348537 -0.4487192 -1.38791 0 0 0 0
-0.40020698 -0.13832751 -1.38241 0 0 0 0
-0.393347 -0.12527801 -1.3866301 0 0 0 0
-0.393347 -0.11450174 -1.3866301 0 0 0 0
-0.39334634 -0.105072 -1.3866301 0 0 0 0
-0.39334601 -0.095642447 -1.3866301 0 0 0 0
-0.39334601 -0.084865801 -1.3866301 0 0 0 0
-0.39334601 -0.074089177 -1.3866301 0 0 0 0
-0.39334598 -0.064659633 -1.3866301 0 0 0 0
-0.39334601 -0.0552301 -1.3866301 0 0 0 0
-0.39334601 -0.044453502 -1.3866301 0 0 0 0
0.23240167 0.017945366 -1.3854901 0 0 0 0
0.22811028 0.0262015 -1.3882271 0 0 0 0
0.23365892 0.025907194 -1.3837591 0 0 0 0
0.26620528 0.02793055 -1.3856699 0 0 0 0
0.22726829 0.035439085 -1.3877985 0 0 0 0
0.23426199 0.034656409 -1.3827059 0 0 0 0
0.26488191 0.034957949 -1.3840308 0 0 0 0
0.27273202 0.036454253 -1.3898051 0 0 0 0
0.2264206 0.0444749 -1.3873333 0 0 0 0
0.23300423 0.043259434 -1.3819656 0 0 0 0
0.26671654 0.043824121 -1.3837969 0 0 0 0
0.273141 0.045343038 -1.3891361 0 0 0 0
0.22488044 0.055210486 -1.3861626 0 0 0 0
0.230746 0.050978702 -1.38094 0 0 0 0
0.2684845 0.055036828 -1.3818426 0 0 0 0
0.27360898 0.055259373 -1.3873988 0 0 0 0
0.22587356 0.06485083 -1.3854945 0 0 0 0
0.26845124 0.065773502 -1.3816701 0 0 0 0
0.27289426 0.064012825 -1.3871925 0 0 0 0
0.22783351 0.07279937 -1.3877175 0 0 0 0
0.23194075 0.075972073 -1.3840675 0 0 0 0
0.26634467 0.075325496 -1.3846565 0 0 0 0
0.2379885 0.080674797 -1.38406 0 0 0 0
0.25758401 0.080495097 -1.38098 0 0 0 0
0.015994299 -0.491824 -1.372 0 0 0 0
0.11232 -0.49741599 -1.3764 0 0 0 0
0.017645622 -0.48556423 -1.3761661 0 0 0 0
0.1081875 -0.48483601 -1.3748574 0 0 0 0
0.023746911 -0.47494262 -1.3750144 0 0 0 0
0.035265751 -0.46302229 -1.3751339 0 0 0 0
0.042601202 -0.46062499 -1.37038 0 0 0 0
0.044623058 -0.45747072 -1.3753101 0 0 0 0
0.075320512 -0.45540261 -1.3747228 0 0 0 0
-0.39657936 -0.1313 -1.37914 0 0 0 0
0.39389968 -0.1313 -1.37914 0 0 0 0
-0.40079936 -0.12291367 -1.37523 0 0 0 0
0.39411101 -0.124065 -1.376138 0 0 0 0
-0.40004301 -0.117346 -1.37263 0 0 0 0
0.39341858 -0.114694 -1.3727975 0 0 0 0
-0.39333701 -0.10569275 -1.37717 0 0 0 0
-0.39333701 -0.094989598 -1.37717 0 0 0 0
-0.39333701 -0.084286526 -1.37717 0 0 0 0
-0.39333701 -0.074921332 -1.37717 0 0 0 0
-0.39333701 -0.065556169 -1.37717 0 0 0 0
-0.39333701 -0.054853074 -1.37716 0 0 0 0
-0.39333701 -0.034784865 -1.37716 0 0 0 0
-0.39333624 -0.025419723 -1.37716 0 0 0 0
0.23695099 -0.0266238 -1.37028 0 0 0 0
-0.393336 -0.014716649 -1.37716 0 0 0 0
-0.39333597 -0.0053515173 -1.37716 0 0 0 0
0.23855865 0.026804933 -1.37957 0 0 0 0
0.2440258 0.028897759 -1.3771541 0 0 0 0
0.254269 0.029441433 -1.3775434 0 0 0 0
0.23860601 0.03619295 -1.3798399 0 0 0 0
0.24489467 0.034794077 -1.3775266 0 0 0 0
0.25435588 0.034806412 -1.3780167 0 0 0 0
0.236816 0.045526046 -1.3783457 0 0 0 0
0.24455893 0.044098344 -1.3756363 0 0 0 0
0.26176903 0.0446693 -1.37947 0 0 0 0
0.23427506 0.054694451 -1.3754373 0 0 0 0
0.2435724 0.051165838 -1.3715841 0 0 0 0
0.25546831 0.051537067 -1.3720065 0 0 0 0
0.26351255 0.054226972 -1.3759 0 0 0 0
0.23246081 0.065465488 -1.3752366 0 0 0 0
0.2643615 0.065424778 -1.3743625 0 0 0 0
0.23527645 0.074862495 -1.3760643 0 0 0 0
0.24114299 0.07727275 -1.37141 0 0 0 0
0.25745898 0.077370398 -1.373145 0 0 0 0
0.26266363 0.073010832 -1.3747801 0 0 0 0
0.24479076 0.080260321 -1.37695 0 0 0 0
0.25277549 0.080246054 -1.3767051 0 0 0 0
0.015905 -0.49570131 -1.3643366 0 0 0 0
0.1085465 -0.49110502 -1.36261 0 0 0 0
0.1115685 -0.49807149 -1.3672 0 0 0 0
0.018571367 -0.48815835 -1.3654766 0 0 0 0
0.021871448 -0.48253301 -1.3645749 0 0 0 0
0.10564333 -0.48444596 -1.3649783 0 0 0 0
0.026823603 -0.47544479 -1.3653744 0 0 0 0
0.033070453 -0.47094148 -1.361715 0 0 0 0
0.036190245 -0.46663377 -1.3660092 0 0 0 0
0.076323323 -0.46146417 -1.3623767 0 0 0 0
0.074830972 -0.4587222 -1.3673534 0 0 0 0
-0.40082002 -0.10352466 -1.36619 0 0 0 0
0.39416 -0.10465166 -1.3670319 0 0 0 0
-0.40006801 -0.098030001 -1.3636301 0 0 0 0
0.39325267 -0.095001467 -1.3640386 0 0 0 0
-0.39332804 -0.0850439 -1.3678299 0 0 0 0
-0.39332801 -0.0757422 -1.36783 0 0 0 0
-0.39332801 -0.065111704 -1.36783 0 0 0 0
-0.39332801 -0.054481227 -1.36783 0 0 0 0
-0.39332804 -0.045179501 -1.3678299 0 0 0 0
-0.39332801 -0.03587785 -1.36783 0 0 0 0
0.246378 -0.032732952 -1.3659583 0 0 0 0
0.25341949 -0.031843148 -1.36576 0 0 0 0
-0.39332801 -0.025247375 -1.36783 0 0 0 0
0.23756944 -0.023909729 -1.3672727 0 0 0 0
0.24505252 -0.025170973 -1.363513 0 0 0 0
0.25446534 -0.025184883 -1.3642458 0 0 0 0
0.26025897 -0.022574499 -1.36684 0 0 0 0
-0.39332724 -0.0146169 -1.36783 0 0 0 0
0.24063601 -0.0185105 -1.3609999 0 0 0 0
0.25801498 -0.018524051 -1.362 0 0 0 0
0.26389301 -0.0172395 -1.3650351 0 0 0 0
-0.393327 -0.0053152335 -1.3678299 0 0 0 0
-0.393327 0.0039864252 -1.36783 0 0 0 0
-0.393327 0.014616901 -1.36783 0 0 0 0
-0.393327 0.025247326 -1.36783 0 0 0 0
-0.393327 0.035877801 -1.36783 0 0 0 0
0.23839234 0.057603795 -1.3683634 0 0 0 0
0.24488024 0.055742051 -1.366235 0 0 0 0
0.25419557 0.055768628 -1.3668855 0 0 0 0
0.26077199 0.058540698 -1.36954 0 0 0 0
0.23753299 0.06502381 -1.365975 0 0 0 0
0.240554 0.064764604 -1.360535 0 0 0 0
0.26027298 0.065068871 -1.3669175 0 0 0 0
0.23834164 0.072654895 -1.3680733 0 0 0 0
0.24531451 0.074923225 -1.3649588 0 0 0 0
0.25465021 0.074275196 -1.365248 0 0 0 0
0.015781499 -0.5010615 -1.35374 0 0 0 0
0.110374 -0.50062299 -1.35256 0 0 0 0
0.01790732 -0.49458379 -1.35546 0 0 0 0
0.0209882 -0.49059901 -1.35028 0 0 0 0
0.1079005 -0.49344552 -1.3545001 0 0 0 0
0.110945 -0.499253 -1.35956 0 0 0 0
0.023969656 -0.48444256 -1.3542578 0 0 0 0
0.1037024 -0.48587078 -1.3546619 0 0 0 0
0.02833605 -0.47775799 -1.3566599 0 0 0 0
0.034204029 -0.4736127 -1.354233 0 0 0 0
0.0386918 -0.46869898 -1.3577766 0 0 0 0
0.075022399 -0.46461383 -1.3548492 0 0 0 0
-0.40084037 -0.084389128 -1.3572735 0 0 0 0
0.39420813 -0.085493565 -1.3580499 0 0 0 0
-0.400094 -0.078965902 -1.35474 0 0 0 0
0.39337921 -0.07499513 -1.3542962 0 0 0 0
-0.39331901 -0.064673223 -1.35862 0 0 0 0
-0.39331901 -0.044875305 -1.35862 0 0 0 0
-0.393318 -0.03563625 -1.35862 0 0 0 0
-0.393318 -0.02507735 -1.35862 0 0 0 0
-0.393318 -0.014518451 -1.35862 0 0 0 0
0.24521567 -0.018457266 -1.3570867 0 0 0 0
0.25353566 -0.017548898 -1.3546034 0 0 0 0
0.26299533 -0.013150801 -1.3535967 0 0 0 0
-0.39331803 -0.00527944 -1.35862 0 0 0 0
0.22806521 -0.0047414857 -1.3554541 0 0 0 0
0.230911 -0.0078719696 -1.35052 0 0 0 0
-0.393318 0.0039595799 -1.35862 0 0 0 0
0.22687221 0.0031604622 -1.354618 0 0 0 0
-0.393318 0.01451845 -1.35862 0 0 0 0
0.2279098 0.01263306 -1.35453 0 0 0 0
0.231096 0.0183826 -1.3516001 0 0 0 0
0.26783401 0.015754901 -1.35146 0 0 0 0
-0.393318 0.02507735 -1.3586175 0 0 0 0
0.23538326 0.023012524 -1.353615 0 0 0 0
-0.393318 0.035636175 -1.35861 0 0 0 0
-0.39331803 0.044875205 -1.35861 0 0 0 0
-0.393318 0.0541142 -1.35861 0 0 0 0
0.2469565 0.058107451 -1.3594 0 0 0 0
0.250893 0.058101598 -1.35926 0 0 0 0
-0.393318 0.064673029 -1.35861 0 0 0 0
0.24531895 0.06447529 -1.3544406 0 0 0 0
0.25423652 0.064547315 -1.3559537 0 0 0 0
0.24541001 0.071248494 -1.35816 0 0 0 0
0.25198197 0.07124085 -1.3580101 0 0 0 0
0.112365 -0.51217598 -1.3449399 0 0 0 0
0.0161901 -0.50453478 -1.344082 0 0 0 0
0.1096695 -0.50265002 -1.343925 0 0 0 0
0.018302299 -0.4980835 -1.345695 0 0 0 0
0.02153925 -0.4928045 -1.3437799 0 0 0 0
0.10583234 -0.49388036 -1.3449434 0 0 0 0
0.026458412 -0.48542437 -1.345035 0 0 0 0
0.03635532 -0.47618625 -1.3452873 0 0 0 0
0.052073501 -0.47126499 -1.34006 0 0 0 0
0.077365905 -0.47114065 -1.3421832 0 0 0 0
0.055413108 -0.46814981 -1.345341 0 0 0 0
0.07351312 -0.46838289 -1.3459221 0 0 0 0
0.081270099 -0.46926901 -1.3493 0 0 0 0
-0.400675 -0.064163476 -1.3478451 0 0 0 0
0.39425361 -0.064183362 -1.3482779 0 0 0 0
0.39329183 -0.05487974 -1.3449999 0 0 0 0
-0.40125 -0.049504802 -1.34101 0 0 0 0
-0.39412591 -0.046489574 -1.344283 0 0 0 0
0.39216173 -0.046763673 -1.3439854 0 0 0 0
-0.39330554 -0.035280287 -1.3450451 0 0 0 0
-0.39330554 -0.024826851 -1.3450451 0 0 0 0
-0.39330554 -0.014373438 -1.3450451 0 0 0 0
0.23698302 -0.010986661 -1.346282 0 0 0 0
0.24337415 -0.014803735 -1.3445001 0 0 0 0
0.25531662 -0.01357386 -1.3436081 0 0 0 0
0.26168001 -0.0104672 -1.34682 0 0 0 0
-0.39330554 -0.0052267034 -1.3450451 0 0 0 0
0.23429944 -0.0054598572 -1.343989 0 0 0 0
0.25782099 -0.0078127598 -1.34036 0 0 0 0
0.26388571 -0.0052261935 -1.34471 0 0 0 0
-0.39330524 0.0039200252 -1.345045 0 0 0 0
0.22812499 0.0052443868 -1.3495566 0 0 0 0
0.23197721 0.0037951865 -1.3429009 0 0 0 0
0.265668 0.0031329119 -1.3431619 0 0 0 0
-0.39330465 0.014373425 -1.3450451 0 0 0 0
0.2334142 0.014464 -1.3440368 0 0 0 0
0.26366225 0.014358662 -1.3435737 0 0 0 0
-0.39330453 0.024826825 -1.3450451 0 0 0 0
0.23779649 0.021559775 -1.34495 0 0 0 0
0.24403265 0.024377655 -1.3441212 0 0 0 0
0.261599 0.0209279 -1.3464 0 0 0 0
-0.39330453 0.035280209 -1.3450451 0 0 0 0
-0.39330453 0.045733612 -1.345045 0 0 0 0
-0.39330387 0.055598345 -1.3444043 0 0 0 0
-0.39330515 0.064615637 -1.3456858 0 0 0 0
-0.39330453 0.074480399 -1.3450398 0 0 0 0
-0.39330453 0.08493375 -1.34504 0 0 0 0
-0.39330453 0.095387124 -1.3450398 0 0 0 0
-0.39330414 0.10453366 -1.3450398 0 0 0 0
0.01554025 -0.51153255 -1.333045 0 0 0 0
0.11162449 -0.51269102 -1.3360701 0 0 0 0
0.017518351 -0.5048095 -1.33582 0 0 0 0
0.108982 -0.50468898 -1.3355 0 0 0 0
0.023052445 -0.49477255 -1.3348122 0 0 0 0
0.10373229 -0.49531874 -1.3347257 0 0 0 0
0.027901273 -0.48796675 -1.3359001 0 0 0 0
0.034216449 -0.48294789 -1.3342259 0 0 0 0
0.0380968 -0.4788247 -1.3369433 0 0 0 0
0.055779886 -0.47281858 -1.3352741 0 0 0 0
0.074305162 -0.47343829 -1.3355244 0 0 0 0
-0.40051201 -0.044213936 -1.33855 0 0 0 0
0.39531049 -0.044213936 -1.33855 0 0 0 0
-0.40126699 -0.031065799 -1.33242 0 0 0 0
0.39439851 -0.034697507 -1.3341115 0 0 0 0
-0.40090001 -0.028450999 -1.3312 0 0 0 0
-0.39453483 -0.025870832 -1.33154 0 0 0 0
0.3928574 -0.026239427 -1.3314915 0 0 0 0
-0.39329201 -0.01423095 -1.33171 0 0 0 0
0.24636102 -0.011519657 -1.338743 0 0 0 0
0.25322101 -0.011273866 -1.3389868 0 0 0 0
0.23848002 -0.00346889 -1.3390001 0 0 0 0
0.24542391 -0.0051949383 -1.336676 0 0 0 0
0.25429675 -0.0048720604 -1.3372301 0 0 0 0
0.26023701 -0.00260237 -1.33939 0 0 0 0
-0.39329201 0.0038811725 -1.33171 0 0 0 0
0.23743524 0.004043709 -1.3380011 0 0 0 0
0.24517038 0.0038911167 -1.335295 0 0 0 0
0.25545308 0.0041535404 -1.336138 0 0 0 0
0.26221102 0.0039048777 -1.3395025 0 0 0 0
-0.39329201 0.01423095 -1.33171 0 0 0 0
0.23839766 0.013438334 -1.3385334 0 0 0 0
0.24531461 0.014279363 -1.3360819 0 0 0 0
0.25495106 0.013987977 -1.3368599 0 0 0 0
0.26014501 0.0130073 -1.33892 0 0 0 0
-0.39329201 0.024580749 -1.33171 0 0 0 0
0.24706633 0.020805633 -1.3385367 0 0 0 0
0.25231701 0.020809701 -1.3387901 0 0 0 0
-0.39329201 0.034930501 -1.33171 0 0 0 0
-0.39329201 0.0452803 -1.33171 0 0 0 0
-0.3932915 0.055630073 -1.33171 0 0 0 0
-0.393291 0.065979801 -1.33171 0 0 0 0
-0.393291 0.07503587 -1.33171 0 0 0 0
-0.393291 0.084091872 -1.33171 0 0 0 0
-0.393291 0.09444163 -1.33171 0 0 0 0
-0.393291 0.10349766 -1.33171 0 0 0 0
0.01594376 -0.51486295 -1.323642 0 0 0 0
0.11081851 -0.51414347 -1.3264251 0 0 0 0
0.018041 -0.50772196 -1.3264834 0 0 0 0
0.02109688 -0.50274301 -1.324236 0 0 0 0
0.106287 -0.50420868 -1.32499 0 0 0 0
0.026258329 -0.49505574 -1.325008 0 0 0 0
0.030811649 -0.49170101 -1.321515 0 0 0 0
0.034971811 -0.48661563 -1.3251542 0 0 0 0
0.051351499 -0.48013699 -1.32148 0 0 0 0
0.077680156 -0.480845 -1.3216701 0 0 0 0
0.055664994 -0.47740629 -1.3254346 0 0 0 0
0.074710391 -0.47802019 -1.3259121 0 0 0 0
0.081320748 -0.47889298 -1.32872 0 0 0 0
-0.40035051 -0.024538251 -1.329375 0 0 0 0
-0.39679644 -0.022865428 -1.3285972 0 0 0 0
0.39500457 -0.023237165 -1.3287702 0 0 0 0
-0.40091899 -0.01028 -1.3227299 0 0 0 0
0.39410618 -0.013859146 -1.3244177 0 0 0 0
-0.40037352 -0.0064168251 -1.32093 0 0 0 0
0.39373147 -0.0059915381 -1.3216134 0 0 0 0
-0.39328301 0.0038557202 -1.32298 0 0 0 0
-0.39328301 0.02441955 -1.32298 0 0 0 0
-0.39328301 0.034701452 -1.32298 0 0 0 0
-0.39328301 0.04498335 -1.32298 0 0 0 0
-0.39328301 0.055265274 -1.32298 0 0 0 0
-0.39328301 0.075829051 -1.32298 0 0 0 0
-0.39328301 0.08611095 -1.32298 0 0 0 0
-0.39328301 0.095107563 -1.32298 0 0 0 0
-0.39328301 0.10281867 -1.32298 0 0 0 0
0.015307199 -0.52172053 -1.31306 0 0 0 0
0.112409 -0.52627802 -1.31488 0 0 0 0
0.017251875 -0.51502472 -1.315505 0 0 0 0
0.10842825 -0.51407421 -1.3130774 0 0 0 0
0.110277 -0.51547903 -1.31994 0 0 0 0
0.022669937 -0.50481838 -1.3147225 0 0 0 0
0.1043665 -0.50521213 -1.3154666 0 0 0 0
0.027465399 -0.4982295 -1.3150299 0 0 0 0
0.037730478 -0.48858425 -1.3165824 0 0 0 0
0.054907504 -0.48268357 -1.3144475 0 0 0 0
0.065081328 -0.48236135 -1.3135685 0 0 0 0
0.075355507 -0.48342109 -1.3147184 0 0 0 0
0.0589788 -0.479523 -1.3198 0 0 0 0
0.064098835 -0.47945902 -1.3196167 0 0 0 0
-0.397266 -0.00256301 -1.3191299 0 0 0 0
0.394703 -0.00256301 -1.3191299 0 0 0 0
-0.40093899 0.00766125 -1.31437 0 0 0 0
0.3941631 0.0041274186 -1.3160177 0 0 0 0
-0.40039653 0.011475749 -1.31259 0 0 0 0
0.39376467 0.013144608 -1.3127261 0 0 0 0
-0.39327499 0.024260474 -1.31436 0 0 0 0
-0.39327499 0.034475397 -1.31436 0 0 0 0
-0.39327499 0.0446903 -1.31436 0 0 0 0
-0.39327499 0.054905228 -1.31436 0 0 0 0
-0.39327499 0.065120146 -1.31436 0 0 0 0
-0.39327401 0.075335026 -1.31436 0 0 0 0
-0.39327401 0.085549928 -1.31436 0 0 0 0
-0.39327401 0.095764846 -1.31436 0 0 0 0
-0.39327401 0.103426 -1.31436 0 0 0 0
0.015706841 -0.52495039 -1.3039761 0 0 0 0
0.108612 -0.52032501 -1.30001 0 0 0 0
0.1116775 -0.52665949 -1.306325 0 0 0 0
0.0177678 -0.51780003 -1.3063933 0 0 0 0
0.02077488 -0.512806 -1.304024 0 0 0 0
0.106966 -0.51504958 -1.3045561 0 0 0 0
0.025365451 -0.50529444 -1.305564 0 0 0 0
0.030366199 -0.50104201 -1.30241 0 0 0 0
0.0505342 -0.490181 -1.30045 0 0 0 0
0.077088051 -0.490327 -1.300835 0 0 0 0
0.054529876 -0.48697367 -1.3054075 0 0 0 0
0.064628571 -0.48660949 -1.3044333 0 0 0 0
0.07449913 -0.48734868 -1.3057956 0 0 0 0
0.081273496 -0.48890901 -1.3071849 0 0 0 0
0.39440632 0.0178119 -1.30964 0 0 0 0
-0.400778 0.0266334 -1.3055251 0 0 0 0
0.39421511 0.024477189 -1.3065951 0 0 0 0
-0.40023899 0.030397899 -1.3037699 0 0 0 0
0.39366439 0.034174766 -1.3029795 0 0 0 0
-0.39326677 0.044401072 -1.30585 0 0 0 0
-0.39326599 0.054549798 -1.30585 0 0 0 0
-0.39326599 0.064698622 -1.30585 0 0 0 0
-0.39326599 0.074847504 -1.30585 0 0 0 0
-0.39326599 0.084996201 -1.30585 0 0 0 0
-0.39326599 0.095144995 -1.30585 0 0 0 0
-0.39326599 0.1027565 -1.30585 0 0 0 0
0.0150838 -0.53170252 -1.29389 0 0 0 0
0.016994275 -0.52496499 -1.2958751 0 0 0 0
0.1081485 -0.52187848 -1.29447 0 0 0 0
0.110708 -0.528373 -1.2949867 0 0 0 0
0.022350779 -0.51492298 -1.2941989 0 0 0 0
0.10388185 -0.51400769 -1.2950071 0 0 0 0
0.027189737 -0.50754821 -1.295776 0 0 0 0
0.032203469 -0.50293612 -1.2949229 0 0 0 0
0.037141073 -0.49857926 -1.296015 0 0 0 0
0.053707447 -0.49251029 -1.2939045 0 0 0 0
0.064108104 -0.49149314 -1.2939287 0 0 0 0
0.055529833 -0.48967835 -1.2991167 0 0 0 0
0.064329974 -0.4894115 -1.2984076 0 0 0 0
-0.400619 0.045351636 -1.2968034 0 0 0 0
0.39425784 0.044364452 -1.2974299 0 0 0 0
0.39344695 0.054050215 -1.2939379 0 0 0 0
-0.39325801 0.064282544 -1.2974499 0 0 0 0
-0.39325801 0.0743661 -1.2974499 0 0 0 0
-0.39325801 0.094533131 -1.2974499 0 0 0 0
-0.39325801 0.1020955 -1.2974499 0 0 0 0
0.01547772 -0.5347752 -1.284972 0 0 0 0
0.109681 -0.53095299 -1.28297 0 0 0 0
0.111464 -0.53652197 -1.2843866 0 0 0 0
0.018728117 -0.52567732 -1.28531 0 0 0 0
0.021226149 -0.52074999 -1.28548 0 0 0 0
0.106703 -0.52352321 -1.28462 0 0 0 0
0.025713701 -0.51454079 -1.284941 0 0 0 0
0.10288417 -0.51649922 -1.2863001 0 0 0 0
0.0299663 -0.50942701 -1.28526 0 0 0 0
0.079658397 -0.50035399 -1.2812099 0 0 0 0
0.055816527 -0.49629766 -1.2849921 0 0 0 0
0.065245725 -0.4956778 -1.2850254 0 0 0 0
0.081690699 -0.49847934 -1.2870799 0 0 0 0
-0.40064001 0.062598467 -1.2887598 0 0 0 0
0.39433885 0.064797468 -1.2879846 0 0 0 0
-0.4008365 0.078423947 -1.2813849 0 0 0 0
0.39357191 0.075800553 -1.2838749 0 0 0 0
-0.393246 0.084888048 -1.2850699 0 0 0 0
-0.39324734 0.10164366 -1.2864333 0 0 0 0
0.014851566 -0.54207796 -1.2739733 0 0 0 0
0.111338 -0.54060447 -1.2734101 0 0 0 0
0.017333431 -0.53412384 -1.2746733 0 0 0 0
0.109029 -0.53275168 -1.27535 0 0 0 0
0.019826068 -0.52786499 -1.2755133 0 0 0 0
0.023110634 -0.5228855 -1.2744516 0 0 0 0
0.104336 -0.52414799 -1.27476 0 0 0 0
0.028093355 -0.51587921 -1.2758399 0 0 0 0
0.033168204 -0.51188338 -1.273976 0 0 0 0
0.055176198 -0.50177741 -1.2734579 0 0 0 0
0.065571785 -0.50106335 -1.2735237 0 0 0 0
0.075855538 -0.50239229 -1.2743328 0 0 0 0
0.055890422 -0.49929798 -1.278505 0 0 0 0
0.065795124 -0.49904698 -1.2778625 0 0 0 0
-0.40030801 0.082050599 -1.2797 0 0 0 0
0.39481458 0.08566457 -1.2780124 0 0 0 0
-0.40068033 0.096458636 -1.27298 0 0 0 0
0.39440855 0.095506996 -1.273494 0 0 0 0
0.39397174 0.1012725 -1.2712926 0 0 0 0
0.01522398 -0.54565841 -1.263916 0 0 0 0
0.1105915 -0.54189652 -1.2648749 0 0 0 0
0.018433917 -0.53581834 -1.2650316 0 0 0 0
0.022033099 -0.53124303 -1.26001 0 0 0 0
0.1070802 -0.5339216 -1.264034 0 0 0 0
0.025514778 -0.52431834 -1.26466 0 0 0 0
0.10260171 -0.52564913 -1.2659113 0 0 0 0
0.029545899 -0.51828402 -1.267225 0 0 0 0
0.035401586 -0.5142886 -1.2652879 0 0 0 0
0.055654228 -0.50562137 -1.26504 0 0 0 0
0.065129764 -0.50505382 -1.2649425 0 0 0 0
0.082821198 -0.50880295 -1.2661067 0 0 0 0
-0.401048 0.110719 -1.26633 0 0 0 0
0.01462635 -0.55213797 -1.25465 0 0 0 0
0.11223049 -0.5526095 -1.255715 0 0 0 0
0.017066233 -0.54367799 -1.25481 0 0 0 0
0.109604 -0.544366 -1.253585 0 0 0 0
0.110095 -0.54313701 -1.2592 0 0 0 0
0.019514374 -0.53785872 -1.25546 0 0 0 0
0.022894979 -0.53294379 -1.253642 0 0 0 0
0.10506012 -0.53503585 -1.2538401 0 0 0 0
0.027141936 -0.52639329 -1.2557412 0 0 0 0
0.033276398 -0.52150416 -1.2532749 0 0 0 0
0.05383078 -0.51153994 -1.25306 0 0 0 0
0.064476922 -0.5109477 -1.252265 0 0 0 0
0.083915614 -0.51480442 -1.2544763 0 0 0 0
0.055790216 -0.50905466 -1.25761 0 0 0 0
0.064693019 -0.50899678 -1.2564601 0 0 0 0
0.015115475 -0.55509251 -1.2448601 0 0 0 0
0.11139449 -0.55333853 -1.2463651 0 0 0 0
0.018327143 -0.54499871 -1.2458857 0 0 0 0
0.021711299 -0.54036999 -1.2416 0 0 0 0
0.10759983 -0.54404002 -1.244485 0 0 0 0
0.024623789 -0.53473246 -1.2448199 0 0 0 0
0.102781 -0.53566462 -1.2446916 0 0 0 0
0.028486077 -0.52852428 -1.2478125 0 0 0 0
0.034893434 -0.52428639 -1.244745 0 0 0 0
0.045764983 -0.51750541 -1.2456981 0 0 0 0
0.054426324 -0.51522309 -1.2449701 0 0 0 0
0.064464159 -0.51429045 -1.2451265 0 0 0 0
0.083945155 -0.51859301 -1.24628 0 0 0 0
0.016857 -0.55146599 -1.23943 0 0 0 0
0.0192321 -0.546911 -1.2372999 0 0 0 0
0.022068361 -0.54308897 -1.23463 0 0 0 0
0.1051776 -0.54364836 -1.23589 0 0 0 0
0.026888188 -0.5360893 -1.2356369 0 0 0 0
0.032118041 -0.53163099 -1.2336401 0 0 0 0
0.036015928 -0.52755755 -1.235895 0 0 0 0
0.054546781 -0.52100956 -1.2325799 0 0 0 0
0.066495597 -0.5209474 -1.23105 0 0 0 0
0.048132099 -0.51982701 -1.23864 0 0 0 0
0.055288773 -0.51865578 -1.2372825 0 0 0 0
0.0648534 -0.51845205 -1.2362469 0 0 0 0
0.0071425904 -0.5654515 -1.225385 0 0 0 0
0.0094867498 -0.557347 -1.22066 0 0 0 0
0.0118697 -0.55312598 -1.22182 0 0 0 0
0.016599299 -0.54540497 -1.22048 0 0 0 0
0.023897 -0.542463 -1.2299401 0 0 0 0
0.102753 -0.54244 -1.22989 0 0 0 0
0.027837733 -0.53847402 -1.2281066 0 0 0 0
0.034550097 -0.53305101 -1.226433 0 0 0 0
0.038175099 -0.52968001 -1.228 0 0 0 0
0.045229521 -0.52730459 -1.2252629 0 0 0 0
0.055027038 -0.52438021 -1.2251447 0 0 0 0
0.065458231 -0.52366 -1.22509 0 0 0 0
0.083347581 -0.52792877 -1.2256089 0 0 0 0
0.0086482102 -0.56312269 -1.2143635 0 0 0 0
0.118282 -0.56183702 -1.21755 0 0 0 0
0.0094571346 -0.55915201 -1.216855 0 0 0 0
0.012381474 -0.55366623 -1.2139001 0 0 0 0
0.1144755 -0.55349147 -1.2148075 0 0 0 0
0.016823338 -0.54632354 -1.2152776 0 0 0 0
0.021217151 -0.541035 -1.2133451 0 0 0 0
0.107387 -0.54283273 -1.2147275 0 0 0 0
0.11093601 -0.54759467 -1.2148267 0 0 0 0
0.0317964 -0.53231096 -1.21226 0 0 0 0
0.095640257 -0.53284979 -1.2124161 0 0 0 0
0.10295933 -0.53837264 -1.2135366 0 0 0 0
0.036483802 -0.52961445 -1.21148 0 0 0 0
0.055484347 -0.52519149 -1.214875 0 0 0 0
0.065164976 -0.52605623 -1.2196 0 0 0 0
0.076449901 -0.5245595 -1.210675 0 0 0 0
0.087050706 -0.5281865 -1.2109051 0 0 0 0
0.0093936101 -0.56361699 -1.20868 0 0 0 0
0.0116753 -0.56041598 -1.20182 0 0 0 0
0.014046944 -0.55493367 -1.2051301 0 0 0 0
0.109799 -0.55132997 -1.20237 0 0 0 0
0.11284429 -0.5545007 -1.2063714 0 0 0 0
0.01828002 -0.54747945 -1.206248 0 0 0 0
0.0229325 -0.54268491 -1.2044511 0 0 0 0
0.10495469 -0.54402113 -1.2045023 0 0 0 0
0.110311 -0.54920697 -1.20798 0 0 0 0
0.027333051 -0.53769445 -1.205855 0 0 0 0
0.034410801 -0.53325552 -1.2043905 0 0 0 0
0.042035799 -0.53011799 -1.20195 0 0 0 0
0.087592073 -0.53138697 -1.2021799 0 0 0 0
0.094789229 -0.53479326 -1.2046007 0 0 0 0
0.10074333 -0.53885436 -1.2058233 0 0 0 0
0.039884351 -0.52905202 -1.207515 0 0 0 0
0.055004053 -0.52545208 -1.2046492 0 0 0 0
0.064821735 -0.5247041 -1.20479 0 0 0 0
0.074765153 -0.52598661 -1.2048656 0 0 0 0
0.084324941 -0.52865446 -1.205544 0 0 0 0
0.0023189301 -0.55654198 -1.1935101 0 0 0 0
0.017131239 -0.55368769 -1.1954963 0 0 0 0
0.020842699 -0.55117297 -1.1919301 0 0 0 0
0.1080065 -0.55163348 -1.1954401 0 0 0 0
0.030885868 -0.54129571 -1.1922799 0 0 0 0
0.097387448 -0.54199922 -1.1934074 0 0 0 0
0.1033875 -0.54655433 -1.1957614 0 0 0 0
0.035518389 -0.536762 -1.1953394 0 0 0 0
0.044939246 -0.53231341 -1.1949021 0 0 0 0
0.053920735 -0.53127038 -1.1918128 0 0 0 0
0.064849675 -0.53037536 -1.1920279 0 0 0 0
0.075705633 -0.53146291 -1.1927434 0 0 0 0
0.084649973 -0.53357929 -1.1947212 0 0 0 0
0.048930399 -0.52891397 -1.1992199 0 0 0 0
0.055039447 -0.5286867 -1.1969466 0 0 0 0
0.064783402 -0.52806866 -1.1969301 0 0 0 0
0.075115018 -0.52911407 -1.1974128 0 0 0 0
0.0184466 -0.55339801 -1.18677 0 0 0 0
0.027228648 -0.5473333 -1.1858964 0 0 0 0
0.034516208 -0.54256833 -1.1844314 0 0 0 0
0.088466749 -0.54113549 -1.182645 0 0 0 0
0.095302224 -0.54416978 -1.1852193 0 0 0 0
0.10395933 -0.54858333 -1.1846768 0 0 0 0
0.11242533 -0.54836494 -1.1808933 0 0 0 0
0.153678 -0.54819298 -1.1805201 0 0 0 0
0.038074549 -0.53882074 -1.1876725 0 0 0 0
0.044974528 -0.53684437 -1.1852708 0 0 0 0
0.054999679 -0.53447986 -1.1846596 0 0 0 0
0.065330923 -0.53321928 -1.1859441 0 0 0 0
0.075049512 -0.53500611 -1.1848559 0 0 0 0
0.084249012 -0.5377295 -1.1856365 0 0 0 0
0.0901585 -0.53863901 -1.1898201 0 0 0 0
0.025214 -0.550125 -1.17975 0 0 0 0
0.028990202 -0.54852366 -1.17795 0 0 0 0
0.036022391 -0.54544461 -1.1757499 0 0 0 0
0.044019341 -0.54210883 -1.1748049 0 0 0 0
0.052373871 -0.5408228 -1.1720101 0 0 0 0
0.075671785 -0.54107147 -1.1722744 0 0 0 0
0.085310988 -0.54284459 -1.1753385 0 0 0 0
0.11594067 -0.54661632 -1.17386 0 0 0 0
0.12388486 -0.54639059 -1.1745428 0 0 0 0
0.13474061 -0.54581821 -1.175408 0 0 0 0
0.14500725 -0.54577053 -1.1753075 0 0 0 0
0.15391925 -0.54670423 -1.17364 0 0 0 0
0.160136 -0.54903901 -1.17742 0 0 0 0
0.055830993 -0.53824115 -1.1763264 0 0 0 0
0.065105416 -0.53796864 -1.175737 0 0 0 0
0.073627353 -0.53847253 -1.1768291 0 0 0 0
0.080151394 -0.53930348 -1.1786399 0 0 0 0
0.046375126 -0.54419768 -1.1684257 0 0 0 0
0.056014102 -0.54244715 -1.1671789 0 0 0 0
0.064628527 -0.54196811 -1.1671233 0 0 0 0
0.074841045 -0.54314953 -1.1672208 0 0 0 0
0.08515282 -0.54496598 -1.1686825 0 0 0 0
